# .PCD v0.7 - Point Cloud Data file format
VERSION 0.7
FIELDS x y z
SIZE 4 4 4
TYPE F F F
COUNT 1 1 1
WIDTH 2861
HEIGHT 1
VIEWPOINT 0 0 0 1 0 0 0
POINTS 2861
DATA ASCII
-3.04 0.71 0.21
-3.01 0.61 0.20
-0.35 -0.24 0.38
-2.69 0.75 0.21
-2.17 0.54 0.30
-2.61 0.83 0.22
-2.27 0.79 0.26
-1.98 0.70 0.31
-0.37 -0.26 0.37
-0.42 -0.30 0.37
-0.45 -0.42 0.37
-2.68 0.67 0.20
-2.56 0.69 0.22
-2.53 0.73 0.22
-2.43 0.77 0.23
-2.39 0.80 0.23
-2.12 0.70 0.28
-2.22 0.80 0.26
-2.08 0.71 0.28
-2.16 0.79 0.26
-2.04 0.71 0.29
-2.10 0.77 0.27
-2.20 0.89 0.25
-1.84 0.71 0.31
-1.74 0.82 0.31
-0.38 -0.28 0.36
-0.43 -0.35 0.36
-0.44 -0.38 0.36
-0.45 -0.43 0.36
-2.49 0.76 0.21
-2.38 0.79 0.22
-2.17 0.69 0.26
-2.18 0.71 0.25
-2.12 0.68 0.27
-2.29 0.83 0.23
-2.08 0.70 0.27
-2.23 0.84 0.24
-2.03 0.72 0.28
-1.84 0.69 0.30
-0.42 -0.34 0.36
-0.46 -0.57 0.34
-2.48 0.74 0.19
-2.44 0.77 0.20
-2.38 0.77 0.21
-2.17 0.69 0.25
-2.38 0.90 0.19
-2.04 0.71 0.26
-2.03 0.72 0.26
-1.97 0.69 0.27
-1.98 0.71 0.27
-2.00 0.81 0.26
-1.83 0.67 0.30
-1.96 0.85 0.26
-1.85 0.83 0.27
-0.45 -0.40 0.35
-0.45 -0.46 0.34
-0.49 -0.51 0.34
-0.47 -0.56 0.33
-2.38 0.77 0.19
-2.33 0.79 0.20
-2.07 0.69 0.25
-2.16 0.79 0.22
-2.04 0.72 0.25
-1.95 0.82 0.25
-1.95 0.84 0.25
-0.41 -0.32 0.34
-0.43 -0.34 0.34
-0.43 -0.35 0.34
-0.43 -0.36 0.34
-0.43 -0.37 0.34
-0.44 -0.38 0.34
-0.45 -0.44 0.33
-0.45 -0.45 0.33
-0.51 -0.47 0.34
-0.49 -0.54 0.33
-0.47 -0.57 0.32
-2.12 0.70 0.23
-2.08 0.70 0.23
-0.40 -0.29 0.33
-0.42 -0.33 0.33
-0.43 -0.35 0.33
-0.44 -0.40 0.33
-0.44 -0.41 0.33
-0.50 -0.49 0.33
-0.49 -0.51 0.32
-0.49 -0.53 0.32
-0.46 -0.58 0.31
-0.47 -0.58 0.31
-0.46 -0.62 0.31
-2.21 0.78 0.19
-1.99 0.78 0.22
-1.90 0.84 0.23
-0.39 -0.26 0.32
-0.43 -0.33 0.32
-0.43 -0.34 0.32
-0.43 -0.35 0.32
-0.43 -0.35 0.32
-0.44 -0.36 0.32
-0.45 -0.43 0.32
-0.51 -0.42 0.33
-0.46 -0.51 0.31
-0.49 -0.52 0.31
-0.50 -0.52 0.31
-0.47 -0.56 0.31
-0.46 -0.59 0.30
-0.54 -0.82 0.28
-2.12 0.68 0.20
-0.41 -0.32 0.31
-0.43 -0.33 0.31
-0.43 -0.34 0.31
-0.44 -0.40 0.31
-0.44 -0.41 0.31
-0.49 -0.51 0.31
-0.50 -0.51 0.31
-0.49 -0.56 0.30
-0.56 -0.78 0.28
-0.55 -0.83 0.27
-0.58 -0.93 0.25
-1.89 0.74 0.22
-1.84 0.72 0.23
-0.39 -0.26 0.30
-0.43 -0.36 0.30
-0.51 -0.47 0.30
-0.50 -0.52 0.30
-0.47 -0.56 0.29
-0.83 -0.89 0.27
-0.43 -0.34 0.30
-0.44 -0.36 0.30
-0.45 -0.36 0.30
-0.50 -0.39 0.30
-0.45 -0.44 0.29
-0.52 -0.42 0.30
-0.47 -0.54 0.28
-0.46 -0.56 0.28
-0.52 -0.52 0.29
-0.46 -0.60 0.27
-0.57 -0.81 0.25
-0.63 -0.76 0.27
-1.83 0.69 0.22
-0.44 -0.37 0.29
-0.48 -0.54 0.27
-0.50 -0.54 0.28
-0.47 -0.72 0.24
-0.38 -0.27 0.27
-0.41 -0.31 0.28
-0.49 -0.46 0.28
-0.47 -0.56 0.26
-0.47 -0.59 0.25
-0.47 -0.61 0.25
-0.57 -0.81 0.23
-0.50 -0.37 0.28
-0.50 -0.50 0.26
-0.50 -0.51 0.26
-0.50 -0.54 0.26
-0.46 -0.59 0.24
-0.47 -0.61 0.24
-0.46 -0.74 0.21
-0.44 -0.25 0.27
-0.48 -0.34 0.27
-0.45 -0.44 0.25
-0.52 -0.42 0.27
-0.49 -0.45 0.26
-0.62 -0.43 0.29
-0.48 -0.56 0.24
-0.46 -0.59 0.23
-0.47 -0.59 0.23
-0.64 -0.47 0.29
-0.49 -0.70 0.22
-0.52 -0.40 0.26
-0.50 -0.49 0.25
-0.48 -0.51 0.24
-0.50 -0.51 0.24
-0.49 -0.56 0.23
-0.47 -0.61 0.22
-0.44 -0.39 0.24
-0.45 -0.41 0.24
-0.51 -0.39 0.26
-0.51 -0.42 0.25
-0.52 -0.42 0.25
-0.62 -0.45 0.27
-0.49 -0.56 0.22
-0.51 -0.36 0.25
-0.45 -0.43 0.23
-0.52 -0.42 0.25
-0.52 -0.47 0.24
-0.51 -0.49 0.23
-0.63 -0.43 0.27
-0.50 -0.54 0.22
-0.47 -0.61 0.20
-0.51 -0.72 0.18
-0.50 -0.34 0.24
-0.51 -0.35 0.25
-0.53 -0.34 0.25
-0.45 -0.43 0.22
-0.45 -0.44 0.21
-0.52 -0.42 0.24
-0.60 -0.41 0.26
-0.62 -0.40 0.26
-0.52 -0.52 0.22
-0.49 -0.56 0.20
-0.63 -0.46 0.25
-0.47 -0.62 0.19
-0.56 -0.66 0.20
-0.49 -0.33 0.23
-0.50 -0.34 0.24
-0.49 -0.35 0.23
-0.45 -0.43 0.21
-0.51 -0.51 0.21
-0.51 -0.53 0.20
-0.44 -0.43 0.19
-0.52 -0.40 0.22
-0.51 -0.46 0.21
-0.64 -0.41 0.25
-0.52 -0.47 0.20
-0.61 -0.42 0.23
-0.43 -0.32 0.19
-0.50 -0.34 0.21
-0.45 -0.37 0.19
-0.65 -0.42 0.24
-0.63 -0.36 0.24
-0.62 -0.38 0.23
-0.53 -0.45 0.19
-0.53 -0.42 0.19
-0.64 -0.41 0.22
-0.61 -0.47 0.20
-0.60 -0.37 0.21
-0.63 -0.36 0.22
-0.62 -0.38 0.19
-0.66 -0.43 0.19
-0.64 -0.36 0.19
-0.74 -0.39 0.20
-0.73 -0.35 0.21
-0.73 -0.38 0.20
-0.75 -0.33 0.21
-14.88 -1.51 0.79
-14.22 -1.37 0.84
-15.31 -0.73 0.98
-13.99 -0.34 1.08
-15.98 -0.89 0.61
-15.91 -0.84 0.61
-15.98 -0.76 0.49
-14.30 -1.17 0.54
-15.10 0.47 0.63
-14.39 -0.98 0.43
-14.89 0.57 0.45
-15.16 0.61 0.42
-15.27 0.66 0.41
-14.86 0.39 0.36
-15.25 0.54 0.31
-15.36 0.58 0.30
-15.37 0.66 0.30
-14.81 0.99 0.36
-12.29 -1.11 0.34
-14.90 0.35 0.25
-9.12 1.00 0.38
-8.27 0.68 2.02
-8.31 -0.50 1.86
-11.91 0.75 1.79
-11.99 0.81 1.79
-12.02 0.84 1.79
-12.01 0.87 1.79
-11.90 0.92 1.79
-12.02 0.98 1.79
-11.91 1.00 1.79
-11.91 1.03 1.79
-11.89 1.06 1.79
-11.90 0.94 1.74
-12.00 0.98 1.74
-9.33 0.23 1.80
-12.08 0.87 1.69
-11.96 0.92 1.70
-12.16 1.00 1.69
-12.06 1.02 1.69
-12.05 1.08 1.69
-8.76 -0.71 1.71
-8.44 -0.67 1.73
-8.54 -0.59 1.72
-3.46 0.21 2.03
-11.99 0.84 1.65
-9.71 -0.35 1.62
-8.87 0.15 1.75
-8.74 0.17 1.75
-8.61 0.23 1.76
-8.30 0.38 1.77
-12.00 0.75 1.59
-11.95 0.78 1.59
-11.87 0.80 1.60
-8.10 0.57 1.78
-11.97 0.86 1.59
-11.74 0.88 1.60
-11.86 0.97 1.60
-12.76 1.51 1.55
-12.71 1.60 1.55
-9.15 -1.30 1.59
-9.01 -1.23 1.60
-9.05 -1.21 1.60
-2.09 -0.49 1.94
-9.00 -1.12 1.60
-8.78 -1.04 1.61
-8.91 -1.00 1.61
-8.67 -0.87 1.62
-9.56 -0.82 1.58
-8.69 -0.71 1.62
-8.82 -0.69 1.61
-9.85 -0.26 1.70
-11.54 -0.25 1.62
-11.98 0.75 1.54
-11.93 0.77 1.54
-12.31 1.16 1.52
-12.75 1.48 1.49
-12.69 1.50 1.50
-12.84 1.55 1.49
-9.16 -1.27 1.54
-8.99 -1.23 1.55
-9.18 -1.19 1.54
-8.89 -1.02 1.56
-8.74 -0.90 1.57
-8.48 -0.83 1.58
-8.78 -0.66 1.56
-7.98 -0.59 1.61
-7.67 -0.20 1.62
-8.69 0.17 1.67
-9.35 0.20 1.64
-8.82 0.30 1.67
-7.94 0.35 1.72
-11.85 0.74 1.49
-12.05 0.78 1.48
-12.08 0.81 1.48
-12.01 0.84 1.48
-12.02 0.87 1.48
-11.75 0.88 1.49
-11.70 0.90 1.50
-12.02 0.96 1.48
-12.09 0.99 1.47
-12.47 1.08 1.45
-12.56 1.12 1.45
-12.45 1.14 1.45
-12.55 1.18 1.45
-12.59 1.21 1.44
-12.39 1.22 1.46
-12.64 1.28 1.44
-12.62 1.34 1.44
-12.63 1.62 1.44
-9.45 -1.42 1.47
-8.71 -1.12 1.51
-8.92 -1.05 1.50
-8.41 -0.90 1.53
-8.67 -0.87 1.51
-8.34 -0.66 1.53
-8.06 -0.46 1.55
-8.30 -0.45 1.54
-9.30 -0.43 1.48
-8.09 -0.34 1.55
-7.86 -0.25 1.56
-7.67 -0.20 1.57
-7.69 -0.18 1.57
-9.50 0.06 1.41
-11.96 0.72 1.43
-12.08 0.75 1.42
-11.80 0.77 1.44
-11.99 0.81 1.43
-11.89 0.83 1.43
-11.84 0.85 1.43
-11.98 0.89 1.43
-12.01 0.92 1.42
-12.15 0.96 1.42
-12.26 1.00 1.41
-12.46 1.05 1.39
-12.54 1.12 1.39
-12.51 1.14 1.39
-12.69 1.19 1.38
-4.09 0.43 1.92
-12.65 1.46 1.38
-12.61 1.52 1.38
-9.64 -1.18 1.40
-8.58 -0.89 1.47
-8.35 -0.84 1.48
-8.17 -0.60 1.49
-7.83 -0.43 1.52
-7.81 -0.40 1.52
-8.18 -0.39 1.49
-7.81 -0.35 1.52
-9.80 -0.36 1.39
-8.06 -0.28 1.50
-7.83 -0.20 1.52
-9.11 0.02 1.56
-8.91 0.04 1.58
-9.10 0.07 1.56
-8.95 0.09 1.57
-9.30 0.16 1.55
-9.17 0.18 1.56
-8.95 0.19 1.57
-8.62 0.25 1.59
-8.45 0.27 1.61
-8.42 0.29 1.61
-8.80 0.34 1.58
-8.31 0.34 1.61
-12.03 0.61 1.36
-12.02 0.66 1.36
-11.95 0.69 1.37
-11.84 0.71 1.38
-11.66 0.73 1.39
-9.22 0.60 1.55
-8.41 0.57 1.61
-11.82 0.82 1.38
-11.54 0.83 1.39
-7.93 0.60 1.64
-8.58 0.67 1.59
-12.37 0.98 1.34
-10.98 0.90 1.43
-12.53 1.06 1.33
-12.29 1.10 1.34
-12.26 1.12 1.34
-8.31 0.79 1.61
-12.22 1.18 1.35
-12.09 1.22 1.35
-12.54 1.33 1.32
-12.48 1.36 1.33
-12.76 1.42 1.31
-12.53 1.51 1.32
-12.69 1.56 1.31
-9.37 -1.53 1.36
-9.03 -1.40 1.38
-9.41 -1.42 1.35
-8.91 -1.33 1.39
-8.99 -1.31 1.38
-8.89 -1.28 1.39
-9.05 -1.27 1.38
-9.62 -1.30 1.34
-9.50 -1.25 1.35
-9.56 -1.20 1.34
-9.59 -1.18 1.34
-9.31 -1.12 1.36
-9.51 -1.11 1.35
-8.47 -0.99 1.42
-8.74 -0.88 1.40
-8.62 -0.81 1.41
-8.31 -0.74 1.43
-7.81 -0.43 1.46
-7.69 -0.40 1.47
-9.14 -0.28 1.56
-9.65 -0.21 1.53
-8.71 -0.17 1.59
-8.98 -0.04 1.57
-8.91 0.00 1.58
-7.50 -0.00 1.43
-7.48 0.02 1.43
-7.48 0.05 1.43
-12.12 0.64 1.29
-12.16 0.67 1.29
-11.91 0.69 1.31
-12.23 0.73 1.28
-11.75 0.73 1.32
-12.53 1.08 1.26
-12.43 1.13 1.27
-12.52 1.17 1.26
-12.60 1.21 1.25
-12.65 1.28 1.25
-12.71 1.50 1.24
-12.64 1.55 1.25
-4.00 0.89 1.87
-9.51 -1.34 1.28
-9.65 -1.21 1.27
-9.09 -1.12 1.31
-9.01 -1.03 1.32
-8.69 -0.98 1.34
-10.20 -0.55 1.23
-8.02 -0.41 1.39
-11.09 -0.20 1.17
-13.10 -0.19 1.02
-13.27 -0.15 1.00
-8.97 0.04 1.47
-8.89 0.06 1.48
-9.00 0.09 1.47
-8.88 0.11 1.48
-8.91 0.15 1.48
-11.80 0.23 1.25
-8.21 0.20 1.53
-8.04 0.21 1.54
-8.27 0.24 1.53
-8.38 0.26 1.52
-8.65 0.29 1.50
-8.34 0.30 1.52
-8.44 0.33 1.51
-8.34 0.36 1.52
-8.45 0.39 1.51
-8.50 0.41 1.51
-8.99 0.48 1.47
-12.02 0.66 1.23
-12.44 0.72 1.20
-8.53 0.54 1.50
-11.97 0.78 1.23
-12.12 0.85 1.22
-11.72 0.99 1.25
-8.06 0.71 1.54
-12.92 1.15 1.16
-12.12 1.14 1.22
-12.33 1.28 1.20
-12.49 1.33 1.19
-12.58 1.40 1.18
-12.55 1.43 1.18
-12.81 1.49 1.16
-12.89 1.65 1.15
-10.23 1.34 1.36
-12.73 1.69 1.16
-9.27 -1.55 1.23
-8.84 -1.44 1.26
-8.78 -1.40 1.27
-8.88 -1.39 1.26
-8.59 -1.32 1.28
-8.92 -1.34 1.26
-8.63 -1.28 1.28
-9.28 -1.32 1.23
-9.44 -1.31 1.22
-8.81 -1.21 1.27
-9.62 -1.27 1.20
-9.55 -1.23 1.21
-9.41 -1.19 1.22
-9.34 -1.15 1.23
-9.16 -1.11 1.24
-9.47 -1.11 1.21
-8.93 -1.00 1.26
-3.78 -0.53 1.67
-3.91 -0.53 1.66
-4.02 -0.52 1.65
-3.89 -0.49 1.66
-9.21 -0.83 1.24
-9.09 -0.79 1.25
-3.29 -0.39 1.70
-8.38 -0.69 1.30
-8.34 -0.66 1.31
-9.65 -0.46 1.42
-8.82 -0.40 1.49
-9.36 -0.40 1.44
-8.39 -0.34 1.52
-9.30 -0.25 1.45
-8.10 -0.19 1.54
-9.30 -0.20 1.45
-8.46 -0.16 1.51
-8.67 -0.12 1.50
-9.88 -0.12 1.40
-8.82 -0.08 1.48
-9.70 -0.07 1.42
-9.74 -0.05 1.41
-9.56 0.00 1.43
-7.19 -0.00 1.35
-7.24 0.02 1.34
-8.73 0.13 1.45
-8.80 0.15 1.44
-8.08 0.18 1.50
-8.17 0.20 1.49
-8.54 0.23 1.46
-8.49 0.25 1.47
-8.38 0.26 1.48
-8.40 0.28 1.47
-8.48 0.31 1.47
-8.26 0.32 1.48
-8.33 0.34 1.48
-8.41 0.37 1.47
-8.21 0.38 1.49
-8.68 0.44 1.45
-12.01 0.63 1.17
-11.96 0.66 1.17
-12.35 0.71 1.14
-12.16 0.76 1.16
-7.78 0.51 1.52
-8.47 0.59 1.46
-8.15 0.61 1.49
-11.98 0.92 1.17
-11.56 0.95 1.20
-8.52 0.72 1.46
-12.64 1.22 1.11
-10.36 1.03 1.30
-12.59 1.30 1.12
-12.93 1.50 1.08
-12.73 1.57 1.10
-12.82 1.67 1.09
-9.11 -1.69 1.18
-9.01 -1.51 1.19
-8.91 -1.47 1.20
-8.66 -1.41 1.22
-8.72 -1.39 1.22
-8.95 -1.39 1.20
-9.05 -1.38 1.19
-9.70 -1.42 1.13
-9.73 -1.37 1.13
-9.80 -1.31 1.13
-9.57 -1.26 1.15
-9.54 -1.23 1.15
-9.03 -1.12 1.19
-9.09 -1.10 1.19
-9.04 -1.04 1.19
-9.20 -1.02 1.18
-4.08 -0.55 1.61
-4.36 -0.56 1.58
-8.77 -0.88 1.21
-8.80 -0.85 1.21
-1.71 -0.32 1.81
-8.61 -0.78 1.23
-8.67 -0.76 1.22
-8.55 -0.73 1.23
-8.84 -0.72 1.21
-8.68 -0.68 1.22
-8.54 -0.62 1.23
-7.93 -0.53 1.29
-8.03 -0.51 1.28
-7.75 -0.48 1.30
-7.85 -0.45 1.29
-7.66 -0.42 1.31
-8.07 -0.41 1.27
-8.12 -0.39 1.27
-7.93 -0.36 1.28
-7.57 -0.32 1.31
-7.50 -0.29 1.32
-7.53 -0.27 1.32
-7.51 -0.25 1.32
-7.53 -0.22 1.32
-7.45 -0.20 1.32
-7.19 -0.17 1.35
-7.45 -0.15 1.32
-7.34 -0.12 1.33
-7.31 -0.10 1.34
-7.43 -0.07 1.33
-7.38 -0.05 1.33
-7.29 -0.03 1.34
-7.87 0.02 1.47
-7.86 0.04 1.47
-7.66 0.06 1.49
-8.28 0.08 1.43
-7.84 0.10 1.47
-8.42 0.12 1.42
-8.60 0.21 1.40
-8.30 0.22 1.43
-8.28 0.24 1.43
-8.31 0.26 1.43
-8.24 0.28 1.43
-8.23 0.30 1.43
-8.23 0.32 1.43
-8.30 0.34 1.43
-8.19 0.36 1.44
-8.03 0.37 1.45
-8.42 0.41 1.42
-12.20 0.61 1.08
-12.21 0.64 1.07
-12.04 0.66 1.09
-11.98 0.69 1.09
-7.98 0.50 1.45
-11.97 0.78 1.09
-11.70 0.79 1.12
-11.63 0.81 1.12
-7.64 0.56 1.48
-11.77 0.88 1.11
-11.70 0.90 1.12
-7.75 0.62 1.47
-8.69 0.72 1.39
-11.51 0.97 1.13
-12.37 1.16 1.05
-12.12 1.17 1.08
-9.43 1.17 1.31
-5.45 0.84 1.67
-9.04 -1.57 1.11
-8.88 -1.52 1.13
-8.84 -1.49 1.13
-9.00 -1.48 1.12
-8.89 -1.44 1.13
-8.69 -1.39 1.15
-8.78 -1.37 1.14
-8.59 -1.32 1.15
-8.53 -1.29 1.16
-9.51 -1.37 1.07
-9.38 -1.33 1.08
-9.62 -1.33 1.06
-8.52 -1.18 1.16
-9.55 -1.26 1.07
-9.04 -1.18 1.11
-9.51 -1.20 1.07
-9.29 -1.15 1.09
-8.82 -1.07 1.13
-8.57 -1.02 1.16
-8.70 -1.01 1.15
-9.07 -1.01 1.11
-3.89 -0.55 1.58
-8.98 -0.95 1.12
-8.62 -0.89 1.15
-8.68 -0.87 1.15
-3.99 -0.48 1.57
-8.66 -0.79 1.15
-8.53 -0.75 1.16
-8.50 -0.72 1.16
-8.73 -0.68 1.14
-8.60 -0.65 1.16
-4.32 -0.39 1.54
-8.20 -0.57 1.19
-3.69 -0.32 1.60
-3.67 -0.31 1.60
-8.33 -0.50 1.18
-3.88 -0.29 1.58
-7.88 -0.43 1.22
-7.84 -0.40 1.22
-4.21 -0.25 1.55
-7.70 -0.35 1.24
-7.64 -0.32 1.24
-7.47 -0.29 1.26
-7.46 -0.27 1.26
-7.30 -0.24 1.27
-7.21 -0.22 1.28
-7.30 -0.19 1.27
-10.84 -0.13 1.20
-8.05 -0.02 1.45
-7.06 0.02 1.24
-7.32 0.05 1.21
-7.26 0.07 1.22
-7.07 0.09 1.24
-6.68 0.11 1.28
-6.85 0.13 1.26
-6.96 0.16 1.25
-6.88 0.20 1.26
-7.36 0.24 1.21
-8.44 0.24 1.37
-8.55 0.27 1.36
-8.55 0.29 1.36
-8.54 0.31 1.36
-8.37 0.32 1.37
-8.37 0.34 1.37
-8.18 0.36 1.39
-8.38 0.38 1.37
-8.43 0.41 1.37
-11.93 0.60 1.03
-11.99 0.66 1.03
-11.88 0.68 1.04
-11.77 0.71 1.05
-11.73 0.73 1.05
-11.67 0.76 1.06
-11.52 0.80 1.07
-11.60 0.84 1.06
-11.56 0.86 1.07
-11.37 0.87 1.08
-11.40 0.90 1.08
-11.46 0.94 1.07
-11.45 0.96 1.08
-11.47 0.99 1.07
-11.73 1.04 1.05
-11.59 1.06 1.06
-11.68 1.12 1.05
-12.40 1.28 0.98
-12.37 1.31 0.98
-9.05 -1.60 1.05
-8.90 -1.52 1.06
-9.35 -1.55 1.02
-8.80 -1.46 1.07
-8.83 -1.43 1.07
-8.73 -1.39 1.08
-8.73 -1.34 1.08
-9.91 -1.38 0.97
-9.61 -1.32 0.99
-9.66 -1.30 0.99
-9.20 -1.22 1.03
-4.10 -0.67 1.53
-9.05 -1.09 1.05
-8.77 -1.04 1.08
-8.96 -1.03 1.06
-4.21 -0.60 1.51
-9.34 -1.00 1.02
-8.96 -0.95 1.06
-8.94 -0.92 1.06
-9.00 -0.87 1.05
-9.00 -0.84 1.05
-8.58 -0.78 1.10
-8.55 -0.75 1.10
-8.69 -0.73 1.08
-8.65 -0.70 1.09
-8.34 -0.66 1.12
-8.26 -0.58 1.13
-3.82 -0.33 1.55
-8.16 -0.52 1.14
-8.08 -0.49 1.14
-8.82 -0.50 1.07
-7.98 -0.38 1.15
-4.02 -0.23 1.53
-7.62 -0.32 1.19
-7.45 -0.29 1.20
-7.52 -0.27 1.20
-7.58 -0.25 1.19
-7.49 -0.22 1.20
-7.36 -0.17 1.21
-7.34 -0.15 1.21
-7.52 -0.12 1.20
-7.35 -0.10 1.21
-7.32 -0.07 1.21
-7.31 -0.05 1.22
-7.40 -0.03 1.21
-7.88 0.02 1.37
-7.66 0.04 1.39
-7.74 0.06 1.38
-7.62 0.07 1.40
-7.89 0.10 1.37
-8.09 0.14 1.35
-8.23 0.16 1.33
-8.22 0.18 1.33
-8.03 0.19 1.35
-8.16 0.22 1.34
-8.31 0.24 1.33
-8.32 0.26 1.32
-8.39 0.28 1.32
-8.23 0.32 1.33
-8.15 0.34 1.34
-8.14 0.35 1.34
-8.20 0.38 1.33
-8.12 0.39 1.34
-8.77 0.45 1.28
-12.13 0.67 0.93
-11.64 0.67 0.98
-7.52 0.46 1.40
-7.82 0.49 1.37
-11.37 0.74 1.01
-11.52 0.78 0.99
-11.24 0.84 1.02
-9.31 0.72 1.22
-8.62 0.71 1.29
-8.46 0.74 1.30
-11.31 1.01 1.01
-8.74 0.83 1.27
-11.22 1.08 1.02
-11.78 1.19 0.96
-11.57 1.23 0.98
-11.82 1.28 0.96
-11.82 1.34 0.96
-9.65 1.15 1.18
-9.57 1.16 1.18
-9.89 1.25 1.15
-9.91 1.55 1.14
-9.09 -1.67 0.96
-9.22 -1.66 0.95
-9.05 -1.61 0.97
-9.02 -1.57 0.97
-9.16 -1.56 0.96
-8.88 -1.50 0.99
-8.79 -1.46 1.00
-8.88 -1.44 0.99
-8.73 -1.40 1.00
-8.86 -1.38 0.99
-9.20 -1.40 0.96
-8.93 -1.34 0.98
-9.59 -1.38 0.92
-9.63 -1.36 0.91
-9.33 -1.29 0.94
-3.94 -0.70 1.50
-8.64 -1.17 1.01
-8.91 -1.17 0.99
-8.82 -1.13 1.00
-9.23 -1.14 0.95
-4.33 -0.66 1.46
-4.27 -0.64 1.46
-3.92 -0.59 1.50
-3.99 -0.58 1.49
-8.76 -0.96 1.00
-9.05 -0.96 0.97
-4.05 -0.54 1.49
-4.01 -0.52 1.49
-3.91 -0.49 1.50
-3.83 -0.47 1.51
-4.09 -0.47 1.48
-3.80 -0.44 1.51
-3.93 -0.43 1.50
-8.32 -0.69 1.05
-3.66 -0.38 1.53
-8.31 -0.63 1.05
-8.64 -0.62 1.02
-3.79 -0.34 1.51
-8.07 -0.54 1.07
-7.79 -0.50 1.10
-8.05 -0.49 1.08
-7.91 -0.46 1.09
-7.76 -0.43 1.11
-7.81 -0.40 1.10
-8.37 -0.28 1.32
-7.90 -0.25 1.37
-7.81 -0.22 1.38
-8.23 -0.22 1.34
-8.05 -0.17 1.35
-8.04 -0.15 1.36
-7.99 -0.13 1.36
-8.21 -0.12 1.34
-8.15 -0.08 1.34
-7.82 -0.06 1.38
-7.87 -0.02 1.37
-7.76 0.00 1.38
-7.29 0.02 1.09
-7.35 0.05 1.08
-7.77 0.07 1.04
-7.02 0.11 1.12
-7.54 0.22 1.06
-10.69 0.35 0.72
-7.13 0.35 1.10
-7.06 0.39 1.11
-7.16 0.42 1.10
-11.02 0.85 0.97
-11.52 1.05 0.92
-11.38 1.10 0.93
-11.48 1.22 0.92
-12.18 1.38 0.84
-11.99 1.39 0.86
-11.84 1.40 0.88
-12.15 1.49 0.84
-8.66 -1.46 0.94
-8.83 -1.43 0.92
-8.71 -1.39 0.93
-9.06 -1.40 0.89
-8.74 -1.31 0.93
-9.22 -1.31 0.88
-8.98 -1.25 0.90
-8.98 -1.20 0.90
-8.84 -1.16 0.92
-8.95 -1.14 0.91
-8.65 -1.06 0.94
-8.80 -1.04 0.92
-8.83 -1.02 0.92
-8.81 -0.96 0.92
-8.74 -0.93 0.93
-8.73 -0.90 0.93
-9.09 -0.87 0.89
-8.50 -0.80 0.96
-8.37 -0.77 0.97
-8.54 -0.72 0.95
-8.45 -0.56 0.96
-8.08 -0.46 1.00
-7.52 -0.27 1.06
-12.91 -0.34 0.48
-0.92 -0.06 1.78
-8.04 -0.16 1.01
-7.50 -0.12 1.07
-7.47 -0.07 1.07
-7.33 -0.05 1.08
-7.21 -0.03 1.10
-11.27 0.03 0.87
-7.58 0.04 1.30
-8.11 0.06 1.24
-7.59 0.07 1.29
-7.81 0.09 1.27
-7.79 0.11 1.27
-7.73 0.13 1.28
-8.11 0.16 1.24
-8.20 0.20 1.22
-8.07 0.21 1.24
-7.99 0.23 1.25
-8.16 0.26 1.23
-7.98 0.27 1.25
-7.94 0.29 1.25
-7.94 0.31 1.25
-7.91 0.33 1.26
-8.27 0.36 1.21
-8.41 0.41 1.20
-7.71 0.39 1.28
-8.05 0.43 1.24
-8.25 0.46 1.21
-7.98 0.46 1.25
-10.02 0.60 1.01
-8.08 0.53 1.23
-9.98 0.67 1.02
-10.91 0.76 0.91
-10.76 0.78 0.92
-10.70 0.80 0.93
-10.73 0.83 0.93
-10.70 0.85 0.93
-10.48 0.86 0.96
-9.69 0.84 1.05
-10.93 0.98 0.90
-10.90 1.00 0.91
-11.41 1.07 0.85
-9.60 0.93 1.05
-10.62 1.05 0.94
-9.93 1.01 1.02
-9.85 1.05 1.02
-5.02 0.56 1.58
-11.84 1.34 0.79
-11.96 1.39 0.78
-12.30 1.49 0.74
-9.20 -1.68 0.79
-9.05 -1.63 0.81
-8.99 -1.60 0.82
-9.15 -1.59 0.80
-8.96 -1.54 0.82
-9.02 -1.52 0.81
-9.24 -1.52 0.79
-8.95 -1.45 0.82
-8.97 -1.43 0.82
-8.77 -1.37 0.85
-8.78 -1.35 0.84
-8.76 -1.32 0.85
-8.68 -1.28 0.85
-8.84 -1.27 0.84
-8.53 -1.21 0.87
-3.94 -0.70 1.41
-9.07 -1.21 0.81
-8.84 -1.16 0.84
-8.85 -1.13 0.84
-8.54 -1.08 0.87
-8.58 -1.05 0.87
-8.65 -1.03 0.86
-8.70 -1.01 0.85
-8.54 -0.97 0.87
-8.56 -0.94 0.87
-8.58 -0.92 0.87
-3.79 -0.52 1.42
-8.58 -0.86 0.87
-8.33 -0.82 0.90
-8.54 -0.81 0.87
-8.40 -0.77 0.89
-8.47 -0.75 0.88
-8.17 -0.70 0.92
-8.12 -0.67 0.92
-3.45 -0.37 1.46
-3.61 -0.37 1.44
-8.31 -0.44 1.22
-8.38 -0.42 1.21
-8.25 -0.40 1.22
-8.34 -0.38 1.21
-8.34 -0.36 1.21
-8.27 -0.34 1.22
-8.13 -0.31 1.24
-8.11 -0.29 1.24
-8.13 -0.27 1.24
-7.94 -0.23 1.26
-8.22 -0.22 1.23
-8.02 -0.19 1.25
-7.94 -0.17 1.26
-7.89 -0.15 1.26
-8.05 -0.14 1.25
-13.35 -0.19 0.64
-7.75 -0.09 1.28
-7.75 -0.07 1.28
-7.88 -0.06 1.26
-7.96 -0.04 1.25
-7.82 0.00 1.27
-7.31 -0.00 0.95
-6.89 0.02 1.00
-7.84 0.08 1.22
-8.03 0.10 1.19
-8.08 0.12 1.19
-8.23 0.14 1.17
-8.16 0.16 1.18
-8.36 0.18 1.15
-8.05 0.19 1.19
-8.05 0.21 1.19
-8.11 0.24 1.18
-8.27 0.26 1.16
-8.31 0.28 1.16
-8.09 0.29 1.18
-8.07 0.31 1.19
-8.27 0.34 1.16
-8.34 0.36 1.15
-8.22 0.38 1.17
-7.89 0.38 1.21
-8.14 0.41 1.18
-7.96 0.42 1.20
-8.52 0.47 1.13
-8.12 0.47 1.18
-8.17 0.49 1.17
-8.30 0.52 1.15
-10.66 0.69 0.87
-10.09 0.68 0.94
-10.65 0.74 0.87
-10.69 0.77 0.86
-4.66 0.36 1.60
-10.90 0.84 0.84
-10.89 0.86 0.84
-10.66 0.87 0.86
-10.80 0.91 0.85
-10.84 0.94 0.84
-10.53 0.94 0.88
-10.38 0.95 0.90
-4.78 0.46 1.58
-4.80 0.47 1.58
-4.89 0.50 1.57
-11.20 1.13 0.80
-4.98 0.53 1.55
-5.09 0.55 1.54
-5.20 0.58 1.53
-11.76 1.30 0.72
-4.95 0.57 1.56
-11.84 1.37 0.71
-5.07 0.61 1.54
-4.94 0.69 1.56
-5.08 0.72 1.54
-3.42 1.02 1.72
-8.98 -1.65 0.74
-8.88 -1.61 0.75
-8.92 -1.58 0.75
-8.91 -1.55 0.75
-8.94 -1.53 0.75
-9.03 -1.51 0.74
-9.12 -1.50 0.72
-5.70 -1.04 1.15
-5.68 -1.02 1.15
-8.89 -1.39 0.75
-5.58 -0.97 1.16
-5.43 -0.93 1.18
-8.77 -1.29 0.77
-8.79 -1.26 0.77
-8.91 -1.25 0.75
-9.02 -1.23 0.74
-5.53 -0.85 1.17
-5.57 -0.83 1.16
-8.70 -1.12 0.78
-5.66 -0.80 1.15
-8.63 -1.06 0.79
-8.53 -1.02 0.80
-3.71 -0.57 1.39
-8.72 -0.98 0.78
-8.60 -0.95 0.79
-3.93 -0.54 1.37
-8.95 -0.92 0.75
-8.42 -0.85 0.81
-8.38 -0.82 0.82
-3.44 -0.44 1.43
-6.30 -0.63 1.07
-3.52 -0.42 1.42
-3.63 -0.41 1.40
-3.61 -0.40 1.40
-3.78 -0.39 1.38
-3.74 -0.37 1.39
-3.56 -0.35 1.41
-3.60 -0.33 1.41
-3.53 -0.32 1.41
-3.63 -0.31 1.40
-3.55 -0.29 1.41
-3.60 -0.27 1.41
-3.52 -0.26 1.42
-3.61 -0.24 1.40
-3.55 -0.23 1.41
-9.84 -0.42 0.64
-7.17 -0.31 0.97
-7.05 -0.28 0.98
-7.56 -0.27 0.92
-7.65 -0.25 0.91
-7.43 -0.22 0.94
-7.44 -0.20 0.93
-7.22 -0.17 0.96
-7.60 -0.15 0.91
-7.28 -0.12 0.95
-7.57 -0.10 0.92
-7.49 -0.08 0.93
-7.62 -0.05 0.91
-7.31 -0.03 0.95
-7.69 0.02 1.18
-7.80 0.04 1.16
-7.82 0.06 1.16
-7.71 0.07 1.17
-8.09 0.10 1.13
-7.76 0.11 1.17
-7.96 0.13 1.14
-8.02 0.16 1.13
-8.09 0.18 1.12
-8.13 0.20 1.12
-7.90 0.21 1.15
-7.96 0.23 1.14
-7.90 0.25 1.15
-8.07 0.27 1.13
-8.07 0.29 1.13
-8.18 0.32 1.11
-8.02 0.33 1.13
-8.08 0.35 1.12
-8.20 0.38 1.11
-7.76 0.38 1.16
-7.70 0.39 1.17
-7.88 0.42 1.15
-10.23 0.57 0.84
-7.69 0.45 1.17
-7.82 0.47 1.15
-8.10 0.51 1.12
-10.52 0.68 0.81
-10.60 0.71 0.79
-10.60 0.74 0.79
-10.65 0.77 0.79
-10.70 0.80 0.78
-10.48 0.81 0.81
-10.66 0.85 0.79
-10.80 0.88 0.77
-10.75 0.91 0.77
-10.74 0.93 0.77
-4.87 0.45 1.53
-10.31 0.95 0.83
-4.91 0.47 1.53
-4.86 0.48 1.53
-4.98 0.50 1.52
-4.96 0.52 1.52
-4.98 0.53 1.52
-4.90 0.53 1.53
-4.98 0.55 1.52
-4.98 0.57 1.51
-5.07 0.59 1.50
-11.54 1.34 0.66
-11.63 1.38 0.65
-8.78 1.07 1.02
-11.42 1.41 0.68
-5.16 0.66 1.49
-11.55 1.48 0.66
-5.23 0.70 1.48
-11.59 1.54 0.65
-5.24 0.74 1.48
-8.82 -1.66 0.67
-8.85 -1.63 0.67
-8.91 -1.61 0.66
-8.79 -1.57 0.68
-8.93 -1.56 0.66
-5.27 -1.05 1.14
-5.49 -1.06 1.11
-5.27 -1.01 1.14
-5.45 -1.02 1.12
-9.37 -1.47 0.61
-3.93 -0.80 1.32
-8.83 -1.35 0.68
-5.41 -0.93 1.12
-5.56 -0.93 1.10
-5.62 -0.92 1.10
-5.57 -0.89 1.10
-5.59 -0.87 1.10
-5.67 -0.86 1.09
-5.62 -0.84 1.10
-5.52 -0.81 1.11
-3.74 -0.62 1.34
-5.46 -0.76 1.12
-3.66 -0.58 1.35
-5.55 -0.73 1.11
-3.62 -0.55 1.36
-3.65 -0.53 1.35
-3.55 -0.51 1.37
-3.65 -0.50 1.35
-3.67 -0.49 1.35
-3.94 -0.50 1.32
-5.60 -0.60 1.10
-3.64 -0.44 1.35
-3.62 -0.43 1.36
-3.76 -0.42 1.34
-3.75 -0.40 1.34
-3.75 -0.39 1.34
-3.46 -0.36 1.38
-3.55 -0.35 1.36
-3.60 -0.33 1.36
-3.53 -0.32 1.37
-3.50 -0.30 1.37
-3.47 -0.28 1.38
-3.62 -0.28 1.36
-3.51 -0.26 1.37
-3.69 -0.25 1.35
-3.80 -0.24 1.33
-6.95 -0.33 0.92
-4.05 -0.21 1.30
-7.16 -0.29 0.90
-3.45 -0.16 1.38
-3.79 -0.16 1.33
-7.50 -0.22 0.85
-7.22 -0.19 0.89
-7.11 -0.17 0.90
-7.89 -0.09 1.15
-7.87 -0.08 1.16
-7.85 -0.06 1.16
-7.59 -0.04 1.19
-8.12 -0.02 1.12
-8.05 0.00 1.13
-7.06 -0.00 0.84
-7.50 0.02 0.78
-7.12 0.04 0.83
-7.30 0.07 0.81
-7.42 0.09 0.79
-7.50 0.12 0.78
-7.30 0.14 0.80
-7.22 0.16 0.81
-7.50 0.19 0.78
-7.52 0.22 0.77
-8.59 0.27 0.63
-9.41 0.29 0.89
-8.36 0.28 1.03
-8.85 0.32 0.96
-8.45 0.33 1.02
-8.39 0.34 1.02
-9.99 0.43 0.81
-7.83 0.36 1.10
-10.28 0.49 0.77
-10.37 0.52 0.75
-10.08 0.53 0.79
-10.11 0.56 0.79
-10.20 0.59 0.77
-10.28 0.62 0.76
-10.41 0.65 0.75
-10.31 0.67 0.76
-10.33 0.69 0.76
-10.41 0.73 0.74
-10.48 0.76 0.73
-10.57 0.79 0.72
-10.54 0.81 0.73
-10.77 0.85 0.69
-10.88 0.89 0.68
-10.75 0.90 0.70
-4.81 0.43 1.51
-10.80 0.96 0.69
-4.92 0.46 1.49
-10.83 1.02 0.68
-4.85 0.48 1.50
-4.79 0.48 1.51
-4.90 0.51 1.49
-4.92 0.52 1.49
-4.80 0.52 1.51
-4.94 0.55 1.49
-4.91 0.56 1.49
-4.82 0.56 1.50
-11.52 1.33 0.58
-5.03 0.61 1.47
-10.44 1.26 0.73
-5.04 0.63 1.47
-11.88 1.49 0.53
-9.05 1.16 0.92
-11.92 1.55 0.52
-11.97 1.59 0.52
-5.68 -1.20 1.03
-9.30 -1.69 0.53
-5.55 -1.14 1.04
-8.98 -1.59 0.57
-5.33 -1.08 1.08
-9.02 -1.54 0.57
-8.95 -1.50 0.58
-5.30 -1.02 1.08
-9.02 -1.46 0.57
-9.09 -1.44 0.56
-8.70 -1.36 0.61
-5.62 -0.98 1.04
-5.30 -0.92 1.08
-5.40 -0.91 1.07
-5.64 -0.92 1.03
-5.45 -0.88 1.06
-5.59 -0.87 1.04
-5.78 -0.87 1.02
-5.70 -0.84 1.03
-5.77 -0.83 1.02
-5.83 -0.82 1.01
-5.85 -0.80 1.01
-5.79 -0.77 1.01
-5.67 -0.74 1.03
-3.44 -0.53 1.34
-3.58 -0.53 1.32
-3.39 -0.50 1.34
-5.96 -0.68 0.99
-3.31 -0.46 1.35
-5.79 -0.63 1.01
-8.50 -0.80 0.64
-5.74 -0.59 1.02
-3.68 -0.43 1.30
-5.99 -0.56 0.99
-3.44 -0.38 1.34
-3.51 -0.37 1.33
-3.51 -0.36 1.33
-3.57 -0.35 1.32
-3.45 -0.33 1.33
-3.34 -0.31 1.35
-8.50 -0.54 0.64
-9.48 -0.55 0.51
-7.57 -0.44 0.77
-7.43 -0.41 0.79
-7.04 -0.37 0.84
-7.16 -0.35 0.83
-7.13 -0.33 0.83
-7.26 -0.31 0.81
-7.28 -0.29 0.81
-7.34 -0.27 0.80
-7.16 -0.24 0.83
-7.36 -0.22 0.80
-7.19 -0.19 0.82
-7.40 -0.17 0.79
-7.25 -0.14 0.81
-7.36 -0.12 0.80
-7.38 -0.10 0.80
-7.48 -0.08 0.78
-7.36 -0.05 0.80
-7.15 -0.03 0.83
-7.54 0.02 1.08
-8.05 0.04 1.01
-7.84 0.06 1.04
-8.09 0.08 1.00
-7.87 0.10 1.03
-7.88 0.11 1.03
-7.93 0.13 1.03
-8.11 0.16 1.00
-8.27 0.18 0.98
-8.18 0.20 0.99
-7.88 0.21 1.03
-8.44 0.24 0.95
-8.60 0.27 0.93
-8.60 0.29 0.93
-8.35 0.30 0.96
-8.53 0.33 0.94
-8.80 0.36 0.90
-9.93 0.43 0.73
-9.98 0.46 0.73
-9.72 0.47 0.76
-10.09 0.51 0.71
-10.55 0.56 0.64
-10.43 0.58 0.66
-10.38 0.60 0.67
-10.54 0.63 0.65
-10.52 0.66 0.65
-10.49 0.68 0.65
-10.34 0.70 0.67
-10.34 0.72 0.67
-10.22 0.74 0.69
-10.33 0.77 0.67
-10.58 0.82 0.64
-10.51 0.84 0.65
-10.86 0.89 0.59
-10.80 0.91 0.60
-4.89 0.44 1.45
-4.79 0.44 1.47
-9.09 0.84 0.85
-5.41 0.52 1.38
-4.95 0.49 1.44
-4.79 0.49 1.47
-4.83 0.50 1.46
-4.92 0.52 1.45
-4.77 0.52 1.47
-5.74 0.64 1.33
-4.91 0.56 1.45
-5.09 0.59 1.42
-5.07 0.60 1.42
-5.03 0.61 1.43
-11.31 1.37 0.52
-11.62 1.60 0.47
-11.89 1.67 0.43
-11.73 1.68 0.45
-9.26 -1.66 0.44
-9.45 -1.63 0.41
-5.57 -1.09 0.98
-9.39 -1.56 0.42
-5.43 -1.02 1.00
-3.63 -0.76 1.26
-5.38 -0.93 1.00
-5.41 -0.91 1.00
-5.50 -0.91 0.99
-5.57 -0.87 0.98
-3.51 -0.63 1.28
-3.45 -0.59 1.29
-3.47 -0.58 1.28
-3.62 -0.58 1.26
-3.56 -0.54 1.27
-3.58 -0.51 1.27
-3.48 -0.48 1.28
-3.48 -0.46 1.28
-3.43 -0.44 1.29
-3.59 -0.43 1.27
-3.42 -0.38 1.29
-3.50 -0.36 1.28
-3.44 -0.34 1.29
-3.52 -0.33 1.28
-3.59 -0.30 1.27
-7.54 -0.44 0.69
-7.50 -0.39 0.70
-7.35 -0.36 0.72
-8.08 -0.25 1.01
-8.15 -0.24 1.00
-8.08 -0.21 1.01
-8.12 -0.20 1.00
-7.95 -0.17 1.02
-8.11 -0.16 1.00
-8.12 -0.14 1.00
-7.88 -0.11 1.03
-7.56 -0.09 1.08
-8.53 -0.08 0.94
-8.43 -0.06 0.95
-7.96 -0.04 1.02
-7.82 -0.02 1.04
-7.88 0.00 1.03
-7.96 -0.00 0.55
-8.34 0.05 0.49
-7.76 0.07 0.58
-7.30 0.09 0.65
-7.34 0.12 0.65
-8.12 0.18 0.52
-8.30 0.21 0.50
-7.93 0.23 0.55
-7.82 0.25 0.57
-7.14 0.30 0.67
-10.38 0.62 0.59
-10.12 0.63 0.63
-10.23 0.71 0.61
-4.66 0.45 1.45
-11.26 1.30 0.44
-11.69 1.38 0.38
-8.39 -1.22 0.49
-8.34 -1.19 0.49
-8.16 -1.04 0.52
-8.43 -1.04 0.48
-8.60 -1.02 0.46
-8.24 -0.97 0.51
-8.50 -0.96 0.47
-8.41 -0.90 0.48
-8.62 -0.89 0.45
-8.61 -0.86 0.46
-8.62 -0.84 0.45
-8.66 -0.81 0.45
-8.63 -0.78 0.45
-8.70 -0.76 0.44
-8.58 -0.73 0.46
-8.39 -0.69 0.49
-8.59 -0.62 0.46
-7.75 -0.48 0.59
-7.44 -0.44 0.63
-7.22 -0.40 0.67
-7.39 -0.39 0.64
-8.84 -0.41 0.42
-7.80 -0.35 0.58
-7.92 -0.33 0.56
-7.81 -0.30 0.58
-7.75 -0.28 0.59
-7.87 -0.25 0.57
-8.70 -0.25 0.44
-7.49 -0.20 0.62
-7.50 -0.17 0.62
-7.80 -0.15 0.58
-7.96 -0.13 0.55
-7.58 -0.10 0.61
-7.91 -0.08 0.56
-7.55 -0.05 0.61
-8.33 -0.03 0.50
-8.99 0.02 0.73
-8.97 0.04 0.74
-9.30 0.07 0.68
-8.81 0.08 0.76
-9.06 0.11 0.72
-8.48 0.12 0.81
-8.54 0.14 0.80
-8.41 0.16 0.82
-8.76 0.19 0.77
-9.45 0.23 0.66
-9.01 0.24 0.73
-9.61 0.28 0.63
-9.07 0.28 0.72
-8.99 0.30 0.73
-9.05 0.33 0.72
-9.62 0.37 0.63
-9.65 0.39 0.62
-9.39 0.41 0.66
-9.71 0.44 0.61
-9.77 0.47 0.60
-10.03 0.51 0.56
-10.38 0.55 0.50
-10.51 0.58 0.48
-9.98 0.58 0.57
-9.84 0.59 0.59
-10.38 0.65 0.50
-10.18 0.66 0.53
-10.00 0.67 0.56
-10.00 0.70 0.56
-9.92 0.72 0.57
-9.91 0.74 0.57
-9.98 0.77 0.56
-10.36 0.82 0.50
-9.70 0.80 0.61
-9.12 0.77 0.70
-4.71 0.42 1.40
-9.23 0.83 0.68
-9.49 0.87 0.64
-10.61 1.00 0.46
-11.06 1.12 0.38
-10.96 1.17 0.40
-11.23 1.22 0.36
-9.58 1.07 0.62
-11.00 1.25 0.39
-4.80 0.57 1.38
-11.27 1.33 0.35
-4.81 0.60 1.38
-11.16 1.40 0.36
-5.48 -1.00 0.86
-4.01 -0.74 1.10
-8.85 -1.25 0.32
-5.25 -0.84 0.90
-8.83 -1.19 0.32
-5.23 -0.80 0.90
-5.38 -0.80 0.88
-2.23 -0.48 1.38
-2.21 -0.46 1.39
-8.89 -1.03 0.32
-5.65 -0.72 0.84
-3.27 -0.50 1.22
-8.77 -0.93 0.34
-8.69 -0.90 0.35
-3.49 -0.48 1.18
-3.58 -0.47 1.17
-3.60 -0.46 1.16
-3.28 -0.42 1.22
-3.36 -0.41 1.20
-3.21 -0.39 1.23
-8.52 -0.70 0.38
-8.52 -0.67 0.38
-8.88 -0.67 0.32
-8.00 -0.40 0.89
-7.91 -0.38 0.91
-8.02 -0.37 0.89
-7.73 -0.34 0.93
-8.01 -0.33 0.89
-11.24 -0.43 0.38
-7.80 -0.28 0.92
-7.77 -0.26 0.93
-7.88 -0.25 0.91
-7.99 -0.23 0.89
-7.96 -0.21 0.90
-8.12 -0.20 0.87
-8.66 -0.19 0.79
-8.85 -0.17 0.75
-9.38 -0.16 0.67
-9.09 -0.13 0.72
-8.96 -0.11 0.74
-8.92 -0.09 0.74
-9.59 -0.07 0.64
-8.70 -0.04 0.78
-8.41 -0.02 0.83
-8.82 -0.00 0.76
-7.38 -0.00 0.48
-7.31 0.02 0.49
-3.23 0.03 1.17
-8.74 0.10 0.70
-8.31 0.12 0.77
-8.95 0.15 0.67
-9.19 0.20 0.63
-8.80 0.23 0.69
-9.39 0.27 0.59
-8.95 0.28 0.67
-8.95 0.30 0.66
-9.50 0.34 0.57
-9.64 0.39 0.55
-9.64 0.44 0.55
-4.56 0.22 1.40
-10.39 0.52 0.42
-10.20 0.54 0.45
-9.81 0.54 0.52
-9.78 0.59 0.52
-9.30 0.60 0.60
-9.40 0.63 0.59
-4.83 0.34 1.35
-4.59 0.34 1.39
-4.78 0.36 1.36
-4.77 0.39 1.36
-4.64 0.40 1.38
-4.68 0.42 1.37
-4.75 0.43 1.36
-9.12 0.84 0.63
-4.77 0.46 1.36
-4.71 0.48 1.37
-4.93 0.52 1.33
-5.17 0.56 1.29
-4.98 0.55 1.32
-5.54 0.63 1.22
-5.16 0.60 1.29
-5.63 0.68 1.21
-7.56 0.94 0.88
-7.53 0.95 0.89
-5.56 0.73 1.22
-7.47 1.00 0.89
-5.34 0.81 1.25
-2.20 -0.70 1.35
-2.15 -0.68 1.36
-3.88 -0.88 1.07
-3.91 -0.86 1.06
-1.96 -0.58 1.39
-1.92 -0.56 1.40
-2.34 -0.59 1.33
-1.95 -0.54 1.40
-3.82 -0.72 1.08
-1.95 -0.50 1.39
-3.42 -0.65 1.15
-3.22 -0.61 1.18
-2.14 -0.49 1.36
-2.16 -0.48 1.36
-3.33 -0.58 1.16
-2.11 -0.45 1.37
-2.07 -0.44 1.37
-2.14 -0.43 1.36
-1.95 -0.40 1.40
-5.06 -0.65 0.87
-4.39 -0.58 0.98
-3.69 -0.49 1.10
-3.27 -0.45 1.17
-3.36 -0.44 1.16
-3.51 -0.43 1.13
-3.21 -0.40 1.18
-4.29 -0.45 1.00
-4.02 -0.42 1.05
-3.48 -0.37 1.14
-4.16 -0.38 1.02
-4.35 -0.37 0.99
-4.35 -0.36 0.99
-3.73 -0.30 1.09
-3.57 -0.27 1.12
-8.28 -0.45 0.33
-3.05 -0.22 1.21
-7.57 -0.37 0.45
-3.48 -0.21 1.14
-3.24 -0.19 1.18
-3.49 -0.18 1.13
-7.86 -0.28 0.40
-7.09 -0.24 0.53
-7.32 -0.22 0.49
-7.64 -0.20 0.44
-7.70 -0.18 0.43
-2.94 -0.08 1.22
-7.20 -0.12 0.51
-7.10 -0.10 0.53
-7.31 -0.07 0.49
-7.29 -0.05 0.49
-7.31 -0.03 0.49
-9.00 0.02 0.58
-8.91 0.04 0.60
-8.83 0.06 0.61
-7.89 0.08 0.78
-8.38 0.10 0.69
-7.26 0.11 0.89
-8.16 0.14 0.73
-8.19 0.16 0.72
-8.99 0.19 0.58
-9.32 0.22 0.53
-9.27 0.24 0.53
-9.46 0.27 0.50
-9.48 0.30 0.50
-9.36 0.31 0.52
-9.24 0.33 0.54
-9.07 0.35 0.57
-8.46 0.35 0.67
-8.23 0.36 0.71
-4.79 0.22 1.32
-9.21 0.44 0.54
-9.43 0.48 0.50
-8.61 0.46 0.65
-4.81 0.27 1.31
-5.07 0.30 1.27
-9.11 0.55 0.56
-8.97 0.56 0.58
-9.01 0.59 0.57
-4.82 0.33 1.31
-4.68 0.33 1.33
-9.29 0.67 0.52
-4.69 0.36 1.33
-4.65 0.37 1.34
-4.89 0.40 1.29
-4.85 0.41 1.30
-4.74 0.41 1.32
-4.66 0.41 1.33
-4.79 0.44 1.31
-7.30 0.67 0.87
-4.84 0.47 1.30
-7.29 0.71 0.87
-7.62 0.76 0.81
-5.68 0.59 1.15
-7.30 0.76 0.87
-7.41 0.79 0.85
-7.48 0.82 0.83
-7.34 0.82 0.86
-7.50 0.86 0.83
-7.50 0.88 0.83
-7.36 0.88 0.85
-7.24 0.88 0.87
-7.36 0.92 0.85
-7.45 0.95 0.83
-7.48 0.97 0.83
-7.33 0.97 0.85
-7.33 0.99 0.85
-7.55 1.03 0.81
-7.48 1.04 0.83
-7.52 1.07 0.82
-7.23 1.06 0.87
-5.67 0.87 1.14
-6.57 1.05 0.98
-5.73 1.21 1.12
-5.70 1.31 1.12
-4.21 -0.96 0.95
-4.53 -0.99 0.90
-4.14 -0.92 0.96
-3.88 -0.87 1.01
-3.96 -0.86 1.00
-3.92 -0.84 1.00
-4.08 -0.85 0.98
-4.05 -0.83 0.98
-4.14 -0.82 0.97
-3.93 -0.78 1.00
-3.74 -0.74 1.04
-3.73 -0.73 1.04
-3.65 -0.70 1.05
-3.62 -0.68 1.06
-3.66 -0.67 1.05
-3.60 -0.65 1.06
-3.62 -0.64 1.06
-5.08 -0.77 0.80
-4.48 -0.69 0.91
-4.16 -0.64 0.96
-4.33 -0.64 0.93
-4.65 -0.65 0.88
-4.59 -0.63 0.89
-3.99 -0.56 0.99
-3.64 -0.52 1.05
-3.47 -0.49 1.08
-3.87 -0.51 1.01
-4.02 -0.50 0.99
-3.53 -0.45 1.08
-3.82 -0.46 1.02
-3.44 -0.41 1.09
-3.58 -0.41 1.07
-4.36 -0.44 0.93
-3.91 -0.40 1.01
-3.53 -0.36 1.08
-3.40 -0.34 1.10
-3.74 -0.34 1.04
-3.95 -0.34 1.00
-3.60 -0.30 1.06
-3.93 -0.30 1.00
-4.67 -0.32 0.87
-3.88 -0.27 1.01
-3.66 -0.25 1.05
-3.38 -0.22 1.10
-3.23 -0.20 1.13
-3.66 -0.20 1.05
-3.23 -0.17 1.13
-3.37 -0.16 1.10
-3.23 -0.15 1.13
-3.22 -0.13 1.13
-3.26 -0.12 1.12
-8.12 -0.10 0.74
-8.41 -0.08 0.69
-8.39 -0.06 0.69
-8.52 -0.04 0.67
-8.80 -0.02 0.62
-8.74 -0.00 0.63
-3.49 0.03 1.03
-3.18 0.07 1.08
-3.24 0.10 1.07
-3.22 0.12 1.07
-2.82 0.13 1.15
-9.15 0.28 0.47
-9.19 0.31 0.47
-9.02 0.32 0.50
-9.10 0.35 0.48
-9.13 0.37 0.48
-9.12 0.39 0.48
-4.80 0.22 1.27
-9.83 0.47 0.35
-4.69 0.24 1.29
-4.71 0.25 1.29
-4.78 0.27 1.28
-4.70 0.28 1.29
-4.86 0.30 1.26
-4.86 0.31 1.26
-9.34 0.61 0.43
-9.73 0.66 0.36
-4.92 0.35 1.25
-9.62 0.69 0.38
-9.56 0.74 0.39
-9.56 0.76 0.39
-9.44 0.77 0.41
-4.82 0.41 1.27
-5.14 0.45 1.21
-4.68 0.43 1.29
-4.95 0.46 1.24
-6.66 0.63 0.92
-5.99 0.59 1.05
-6.28 0.63 0.99
-6.33 0.65 0.98
-5.77 0.61 1.08
-7.21 0.77 0.82
-6.84 0.75 0.89
-7.18 0.80 0.82
-7.25 0.83 0.81
-7.22 0.84 0.81
-7.80 0.93 0.71
-7.34 0.89 0.79
-7.52 0.93 0.76
-7.70 0.97 0.72
-7.75 1.00 0.71
-7.48 0.98 0.76
-7.72 1.03 0.72
-6.98 0.95 0.85
-5.12 0.72 1.20
-5.51 0.79 1.13
-5.48 0.80 1.13
-4.24 -0.95 0.89
-4.05 -0.91 0.92
-4.00 -0.87 0.93
-4.07 -0.86 0.92
-3.87 -0.82 0.96
-3.72 -0.78 0.99
-2.08 -0.55 1.29
-3.82 -0.73 0.97
-3.69 -0.70 0.99
-3.71 -0.69 0.99
-3.76 -0.68 0.98
-1.92 -0.48 1.32
-3.81 -0.66 0.97
-3.85 -0.64 0.96
-3.61 -0.61 1.01
-3.25 -0.56 1.07
-3.48 -0.56 1.03
-3.74 -0.57 0.98
-3.24 -0.51 1.08
-3.88 -0.55 0.96
-3.34 -0.49 1.06
-3.28 -0.47 1.07
-3.24 -0.46 1.08
-3.46 -0.46 1.03
-3.62 -0.46 1.01
-3.54 -0.44 1.02
-3.67 -0.43 1.00
-3.42 -0.40 1.04
-2.56 -0.33 1.20
-3.61 -0.38 1.01
-3.09 -0.34 1.10
-3.29 -0.33 1.07
-3.17 -0.31 1.09
-3.06 -0.29 1.11
-2.98 -0.27 1.12
-4.26 -0.30 0.89
-7.00 -0.37 0.38
-6.01 -0.31 0.56
-3.05 -0.20 1.11
-3.07 -0.17 1.11
-3.48 -0.17 1.03
-2.99 -0.13 1.12
-2.72 -0.11 1.17
-2.99 -0.08 1.12
-2.69 -0.07 1.17
-2.78 -0.03 1.16
-2.86 -0.02 1.14
-8.22 0.02 0.57
-8.95 0.04 0.43
-8.80 0.06 0.46
-9.05 0.09 0.41
-9.03 0.11 0.42
-8.95 0.13 0.43
-9.42 0.20 0.34
-9.20 0.26 0.38
-9.14 0.28 0.39
-5.37 0.18 1.12
-9.20 0.33 0.38
-9.20 0.35 0.38
-5.33 0.22 1.13
-9.19 0.40 0.38
-8.81 0.40 0.45
-5.05 0.25 1.18
-5.03 0.26 1.18
-6.41 0.34 0.92
-4.95 0.28 1.20
-5.09 0.30 1.17
-4.73 0.29 1.24
-4.92 0.32 1.20
-6.83 0.45 0.83
-4.73 0.33 1.24
-6.82 0.48 0.83
-7.00 0.51 0.80
-7.09 0.53 0.78
-7.07 0.55 0.78
-7.14 0.57 0.77
-7.30 0.60 0.74
-7.01 0.60 0.79
-6.98 0.61 0.80
-7.41 0.67 0.72
-7.26 0.67 0.74
-7.30 0.69 0.74
-7.43 0.72 0.71
-7.08 0.71 0.78
-6.78 0.69 0.84
-7.09 0.74 0.77
-7.05 0.76 0.78
-7.29 0.80 0.74
-6.95 0.78 0.80
-7.13 0.82 0.76
-7.14 0.84 0.76
-7.29 0.87 0.73
-7.08 0.87 0.77
-7.40 0.92 0.71
-7.34 0.93 0.72
-7.41 0.96 0.71
-7.47 0.99 0.69
-7.44 1.00 0.70
-5.71 0.79 1.04
-7.65 1.07 0.66
-7.71 1.09 0.64
-7.92 1.14 0.60
-7.69 1.13 0.65
-5.23 0.79 1.12
-5.48 0.84 1.08
-5.41 0.84 1.09
-5.44 0.86 1.08
-5.51 0.89 1.07
-5.49 0.90 1.07
-5.61 0.93 1.05
-5.63 0.95 1.04
-5.62 0.96 1.04
-6.02 1.06 0.97
-5.59 1.00 1.05
-6.13 1.11 0.94
-5.64 1.04 1.04
-5.98 1.27 0.96
-6.11 1.34 0.93
-6.16 1.37 0.92
-6.10 1.40 0.93
-4.20 -0.96 0.83
-3.98 -0.92 0.87
-4.21 -0.93 0.83
-3.80 -0.86 0.91
-3.96 -0.87 0.88
-3.83 -0.83 0.90
-3.92 -0.83 0.89
-3.85 -0.80 0.90
-4.73 -0.89 0.73
-5.09 -0.92 0.66
-4.07 -0.78 0.86
-4.85 -0.85 0.71
-5.05 -0.86 0.67
-5.11 -0.84 0.66
-4.71 -0.78 0.73
-4.87 -0.78 0.70
-4.55 -0.73 0.77
-4.55 -0.72 0.77
-3.55 -0.60 0.96
-4.09 -0.64 0.86
-3.56 -0.57 0.96
-4.32 -0.63 0.81
-4.40 -0.62 0.79
-4.71 -0.62 0.73
-4.21 -0.57 0.83
-3.85 -0.52 0.90
-4.62 -0.56 0.75
-4.68 -0.55 0.74
-4.22 -0.50 0.83
-3.92 -0.46 0.89
-4.09 -0.46 0.85
-4.45 -0.47 0.79
-3.09 -0.36 1.05
-3.35 -0.37 1.00
-3.27 -0.35 1.01
-3.10 -0.32 1.05
-3.15 -0.31 1.04
-3.27 -0.30 1.01
-3.05 -0.28 1.06
-3.16 -0.27 1.04
-3.06 -0.25 1.05
-3.12 -0.24 1.04
-2.95 -0.22 1.08
-8.29 -0.26 0.56
-8.32 -0.24 0.56
-8.17 -0.22 0.59
-8.05 -0.19 0.61
-8.36 -0.18 0.55
-9.27 -0.18 0.37
-8.53 -0.12 0.52
-8.53 -0.10 0.52
-8.98 -0.09 0.43
-8.73 -0.06 0.48
-9.16 -0.05 0.39
-8.45 -0.02 0.53
-8.08 -0.00 0.60
-3.00 0.05 1.02
-8.57 0.43 0.43
-8.93 0.49 0.36
-6.74 0.39 0.80
-4.84 0.30 1.18
-4.72 0.30 1.20
-5.75 0.49 0.99
-6.53 0.65 0.83
-6.63 0.69 0.81
-6.84 0.75 0.77
-6.92 0.83 0.75
-7.16 0.87 0.70
-4.97 0.67 1.14
-5.54 0.76 1.03
-4.91 0.69 1.15
-5.33 0.76 1.07
-5.07 0.74 1.12
-5.22 0.79 1.09
-5.25 0.83 1.08
-5.27 0.86 1.07
-5.33 0.88 1.06
-5.29 0.94 1.07
-1.64 -0.49 1.30
-1.82 -0.47 1.26
-2.08 -0.48 1.21
-1.92 -0.43 1.24
-1.79 -0.40 1.27
-2.20 -0.42 1.18
-2.60 -0.45 1.10
-2.08 -0.39 1.21
-2.66 -0.40 1.09
-2.43 -0.36 1.14
-2.80 -0.37 1.06
-2.66 -0.35 1.09
-2.61 -0.33 1.10
-2.64 -0.32 1.10
-2.62 -0.31 1.10
-2.70 -0.30 1.08
-2.66 -0.28 1.09
-2.61 -0.27 1.10
-2.81 -0.25 1.06
-2.31 -0.22 1.16
-2.42 -0.16 1.14
-2.48 -0.15 1.13
-2.51 -0.10 1.12
-2.48 -0.07 1.12
-7.87 0.11 0.49
-7.44 0.14 0.58
-7.41 0.16 0.59
-7.43 0.18 0.59
-7.38 0.20 0.60
-7.71 0.22 0.53
-7.31 0.23 0.61
-7.75 0.26 0.52
-6.82 0.35 0.71
-6.57 0.35 0.76
-6.66 0.37 0.74
-6.70 0.39 0.73
-6.65 0.40 0.74
-6.64 0.42 0.75
-6.62 0.44 0.75
-6.65 0.45 0.74
-6.63 0.47 0.75
-6.77 0.49 0.72
-6.70 0.51 0.73
-6.80 0.53 0.71
-6.64 0.53 0.74
-6.79 0.56 0.71
-6.60 0.56 0.75
-6.54 0.57 0.76
-6.57 0.59 0.75
-6.72 0.62 0.72
-6.81 0.65 0.70
-6.91 0.67 0.68
-6.93 0.69 0.68
-7.05 0.72 0.65
-7.04 0.74 0.65
-7.10 0.76 0.64
-6.89 0.76 0.68
-7.04 0.79 0.65
-7.19 0.83 0.62
-7.36 0.86 0.58
-6.96 0.83 0.66
-6.93 0.85 0.67
-4.82 0.61 1.12
-6.95 0.89 0.67
-6.96 0.90 0.66
-7.05 0.93 0.64
-7.23 0.97 0.60
-7.16 0.98 0.62
-7.27 1.02 0.59
-7.30 1.04 0.59
-7.32 1.06 0.58
-5.20 0.77 1.03
-5.33 0.81 1.00
-5.16 0.80 1.04
-5.35 0.84 1.00
-5.45 0.87 0.98
-5.23 0.85 1.02
-5.21 0.86 1.03
-5.37 0.90 0.99
-5.28 0.89 1.01
-5.38 0.92 0.99
-5.24 0.92 1.02
-5.43 0.96 0.98
-5.27 0.95 1.01
-5.15 0.94 1.03
-5.25 0.97 1.01
-5.39 1.01 0.98
-5.31 1.01 1.00
-5.15 0.99 1.03
-5.23 1.02 1.01
-5.48 1.08 0.96
-5.58 1.12 0.94
-6.57 1.32 0.72
-5.45 1.12 0.96
-5.42 1.13 0.97
-5.61 1.18 0.93
-5.82 1.24 0.88
-6.68 1.43 0.70
-6.39 1.39 0.76
-5.91 1.30 0.86
-5.08 1.15 1.04
-3.65 -0.99 0.82
-2.71 -0.84 1.02
-2.46 -0.77 1.07
-3.85 -0.92 0.78
-3.71 -0.88 0.81
-4.13 -0.92 0.72
-4.04 -0.89 0.74
-4.02 -0.87 0.74
-3.88 -0.84 0.77
-4.45 -0.90 0.65
-2.59 -0.65 1.05
-4.38 -0.85 0.67
-4.60 -0.86 0.62
-3.74 -0.75 0.80
-4.38 -0.80 0.67
-4.76 -0.83 0.59
-4.65 -0.80 0.61
-4.69 -0.78 0.60
-4.18 -0.71 0.71
-4.40 -0.72 0.66
-3.47 -0.61 0.86
-3.83 -0.63 0.78
-3.72 -0.60 0.81
-3.99 -0.61 0.75
-3.99 -0.60 0.75
-4.74 -0.65 0.59
-4.80 -0.63 0.58
-4.09 -0.56 0.73
-4.55 -0.58 0.63
-3.99 -0.52 0.75
-4.08 -0.51 0.73
-4.07 -0.49 0.73
-4.00 -0.47 0.75
-4.14 -0.46 0.72
-4.15 -0.45 0.72
-3.11 -0.37 0.94
-4.27 -0.42 0.69
-3.06 -0.34 0.95
-4.61 -0.25 1.19
-5.38 -0.27 1.02
-7.91 -0.38 0.49
-4.38 -0.20 1.23
-4.42 -0.18 1.23
-4.28 -0.17 1.25
-8.52 -0.31 0.36
-4.51 -0.15 1.21
-8.39 -0.26 0.39
-4.35 -0.13 1.24
-4.39 -0.12 1.23
-8.40 -0.18 0.39
-8.39 -0.08 0.39
-8.41 -0.06 0.38
-8.31 -0.04 0.40
-8.55 -0.02 0.35
-3.20 -0.00 0.86
-3.23 0.01 0.85
-3.00 0.02 0.90
-7.96 0.09 0.40
-4.57 0.11 1.15
-4.70 0.22 1.12
-4.79 0.25 1.09
-4.67 0.26 1.12
-4.56 0.27 1.14
-4.62 0.30 1.13
-6.50 0.43 0.71
-7.64 0.54 0.46
-7.18 0.54 0.56
-4.81 0.38 1.09
-6.75 0.56 0.66
-6.68 0.57 0.67
-6.65 0.58 0.68
-6.75 0.61 0.66
-6.61 0.63 0.69
-6.66 0.65 0.67
-6.70 0.68 0.66
-6.69 0.70 0.67
-6.88 0.75 0.62
-6.71 0.77 0.66
-6.95 0.81 0.60
-6.93 0.84 0.61
-6.86 0.85 0.62
-6.97 0.90 0.60
-6.88 0.92 0.61
-7.07 0.97 0.57
-7.26 1.03 0.53
-7.15 1.03 0.55
-7.43 1.11 0.49
-5.04 0.79 1.02
-5.42 0.86 0.93
-5.23 0.86 0.97
-5.16 0.86 0.99
-5.07 0.87 1.01
-5.04 0.89 1.01
-5.45 0.97 0.92
-5.07 0.93 1.00
-5.07 0.95 1.00
-5.20 1.00 0.97
-5.25 1.03 0.96
-7.00 1.38 0.57
-5.35 1.09 0.94
-5.24 1.08 0.96
-3.39 -1.01 0.82
-3.51 -1.00 0.79
-3.58 -1.00 0.78
-3.60 -0.97 0.77
-3.97 -0.98 0.69
-3.90 -0.95 0.71
-4.00 -0.95 0.68
-3.78 -0.90 0.73
-3.49 -0.85 0.80
-3.68 -0.86 0.76
-2.36 -0.67 1.05
-2.38 -0.66 1.05
-3.39 -0.78 0.82
-3.36 -0.76 0.83
-3.23 -0.73 0.86
-3.06 -0.69 0.90
-3.88 -0.77 0.71
-3.09 -0.67 0.89
-2.72 -0.61 0.97
-3.04 -0.63 0.90
-2.93 -0.61 0.92
-2.87 -0.59 0.94
-3.10 -0.60 0.89
-3.22 -0.60 0.86
-3.31 -0.59 0.84
-3.56 -0.60 0.79
-3.43 -0.57 0.82
-3.38 -0.56 0.83
-3.52 -0.55 0.80
-2.87 -0.48 0.94
-3.06 -0.49 0.90
-2.98 -0.47 0.91
-3.19 -0.47 0.87
-3.11 -0.45 0.88
-3.14 -0.44 0.88
-3.14 -0.42 0.88
-3.64 -0.44 0.77
-3.32 -0.41 0.84
-4.40 -0.46 0.60
-3.00 -0.36 0.91
-2.96 -0.34 0.92
-2.96 -0.33 0.92
-3.02 -0.32 0.91
-2.80 -0.29 0.95
-2.60 -0.27 1.00
-2.71 -0.26 0.97
-2.80 -0.25 0.95
-2.76 -0.24 0.96
-2.73 -0.22 0.97
-2.66 -0.21 0.98
-2.68 -0.20 0.98
-2.75 -0.19 0.96
-2.86 -0.18 0.94
-2.78 -0.16 0.96
-2.71 -0.15 0.97
-2.60 -0.13 1.00
-2.68 -0.12 0.98
-2.85 -0.11 0.94
-2.53 -0.09 1.01
-2.81 -0.08 0.95
-6.64 0.45 0.61
-6.50 0.47 0.64
-6.54 0.49 0.64
-6.56 0.51 0.63
-6.83 0.55 0.57
-6.80 0.56 0.57
-6.83 0.58 0.57
-7.14 0.62 0.49
-6.72 0.62 0.59
-6.62 0.63 0.61
-6.60 0.64 0.62
-6.62 0.66 0.61
-6.79 0.69 0.57
-6.73 0.71 0.59
-7.18 0.77 0.48
-6.98 0.77 0.52
-6.69 0.75 0.59
-6.86 0.79 0.55
-7.29 0.85 0.45
-7.31 0.87 0.45
-7.32 0.89 0.44
-7.32 0.91 0.44
-7.31 0.93 0.44
-7.21 0.93 0.47
-7.14 0.94 0.48
-7.02 0.94 0.51
-6.94 0.95 0.53
-7.18 1.00 0.47
-7.12 1.01 0.48
-7.05 1.02 0.50
-7.36 1.08 0.43
-6.89 1.03 0.53
-7.21 1.10 0.46
-7.22 1.12 0.46
-7.28 1.14 0.44
-7.39 1.18 0.41
-7.44 1.20 0.40
-7.35 1.21 0.42
-7.28 1.22 0.44
-7.36 1.25 0.42
-7.34 1.26 0.42
-7.09 1.24 0.48
-7.35 1.30 0.42
-7.21 1.29 0.45
-5.05 0.93 0.95
-7.14 1.32 0.46
-3.58 -1.12 0.71
-3.61 -1.11 0.70
-3.65 -1.10 0.69
-3.68 -1.09 0.69
-3.63 -1.07 0.70
-3.64 -1.05 0.70
-3.68 -1.04 0.69
-3.81 -1.05 0.66
-3.97 -1.06 0.62
-3.98 -1.04 0.62
-3.81 -1.00 0.66
-3.81 -0.99 0.66
-3.91 -0.99 0.64
-3.82 -0.96 0.66
-3.94 -0.96 0.63
-3.93 -0.94 0.63
-3.67 -0.89 0.69
-3.79 -0.89 0.67
-3.65 -0.86 0.70
-3.80 -0.86 0.66
-3.88 -0.85 0.64
-3.86 -0.84 0.65
-3.94 -0.83 0.63
-3.91 -0.81 0.64
-4.08 -0.82 0.60
-4.33 -0.83 0.54
-4.04 -0.78 0.61
-4.34 -0.80 0.54
-3.31 -0.67 0.78
-4.84 -0.82 0.42
-3.91 -0.70 0.64
-3.68 -0.65 0.69
-4.02 -0.66 0.62
-4.47 -0.69 0.51
-4.92 -0.71 0.41
-3.94 -0.61 0.63
-3.69 -0.57 0.69
-3.56 -0.54 0.72
-3.46 -0.52 0.75
-3.58 -0.52 0.72
-3.97 -0.53 0.63
-3.45 -0.48 0.75
-3.56 -0.47 0.72
-3.81 -0.47 0.66
-3.65 -0.45 0.70
-4.69 -0.48 0.46
-4.54 -0.45 0.49
-4.67 -0.44 0.46
-4.61 -0.42 0.48
-4.62 -0.41 0.48
-4.77 -0.40 0.44
-4.55 -0.37 0.49
-4.83 -0.33 0.43
-4.88 -0.31 0.42
-2.95 -0.22 0.86
-3.09 -0.21 0.83
-3.30 -0.16 0.78
-3.12 -0.14 0.82
-3.40 -0.12 0.76
-3.38 1.06 0.67
-3.57 1.12 0.52
-1.12 -0.53 0.47
-3.35 0.68 0.27
-3.17 0.64 0.29
-3.45 0.76 0.26
-3.63 0.04 0.23
-3.46 0.48 0.24
-3.51 0.70 0.23
-3.14 0.63 0.27
-3.89 0.90 0.19
-3.34 0.67 0.22
-3.25 0.72 0.21
-3.05 0.88 0.22
-3.18 0.65 0.19
-2.98 0.83 0.19
-0.96 -0.59 0.29
-0.96 -0.73 0.26
-0.95 -0.63 0.27
-0.96 -0.68 0.25
-0.97 -0.59 0.27
-0.73 -0.48 0.26
-0.97 -0.55 0.27
-0.75 -0.49 0.24
-1.68 -0.17 0.25
-0.77 -0.47 0.23
-0.76 -0.47 0.22
-0.75 -0.43 0.22
-0.75 -0.46 0.21
-0.78 -0.44 0.23
-0.87 -0.54 0.22
-0.98 -0.38 0.29
-0.98 -0.60 0.20
-0.75 -0.36 0.22
-0.75 -0.43 0.20
-0.89 -0.51 0.21
-0.76 -0.33 0.23
-0.76 -0.40 0.21
-0.86 -0.45 0.20
-1.24 -0.36 0.27
-0.88 -0.38 0.18
-0.89 -0.27 0.24
-0.88 -0.31 0.21
-1.15 -0.34 0.25
-0.89 -0.31 0.19
-1.12 -0.28 0.27
-0.93 -0.28 0.21
-0.98 -0.20 0.26
-11.99 0.84 1.59
-11.68 0.76 1.39
-12.03 0.81 1.36
-11.50 0.86 1.40
-11.70 0.90 1.38
-12.12 0.44 1.22
-12.14 0.47 1.22
-12.25 0.59 1.21
-12.15 0.64 1.22
-12.77 0.80 1.17
-12.73 1.66 1.16
-8.91 -0.86 1.26
-8.28 -0.71 1.31
-12.02 0.40 1.17
-12.15 0.52 1.16
-12.66 0.64 1.12
-12.18 0.79 1.15
-11.84 0.88 1.18
-11.84 1.00 1.18
-8.84 -0.83 1.21
-10.64 -0.73 1.06
-12.76 -0.30 0.88
-12.52 -0.25 0.90
-12.39 -0.18 0.91
-12.81 -0.11 0.87
-11.76 0.54 1.12
-12.06 0.58 1.09
-11.91 0.74 1.10
-11.76 0.85 1.11
-11.62 0.92 1.12
-11.57 0.95 1.13
-8.67 -0.95 1.15
-8.64 -0.81 1.15
-8.52 -0.62 1.16
-10.20 -0.68 1.01
-8.13 -0.54 1.20
-8.13 -0.52 1.20
-7.88 -0.46 1.22
-7.69 -0.37 1.24
-12.52 -0.33 0.80
-12.59 -0.29 0.79
-11.23 0.48 1.10
-8.92 -1.14 1.06
-9.02 -1.01 1.05
-10.04 -0.67 0.96
-8.09 -0.54 1.14
-7.87 -0.35 1.16
-10.18 -0.37 0.94
-10.55 -0.29 0.91
-12.85 -0.15 0.68
-12.70 -0.11 0.70
-11.18 0.03 1.04
-12.14 0.26 0.94
-11.61 0.39 0.99
-11.70 0.45 0.98
-11.52 0.50 1.00
-11.70 0.59 0.98
-11.48 0.69 1.00
-11.30 0.71 1.02
-11.41 0.88 1.00
-11.62 1.01 0.98
-11.41 1.07 1.00
-12.04 1.40 0.93
-11.58 1.37 0.98
-9.36 -1.27 0.94
-8.89 -1.08 0.99
-8.76 -1.04 1.00
-8.84 -1.02 0.99
-8.66 -0.98 1.01
-8.98 -0.92 0.98
-8.94 -0.89 0.98
-8.70 -0.85 1.01
-8.50 -0.80 1.03
-8.42 -0.77 1.04
-8.27 -0.74 1.05
-8.43 -0.72 1.04
-8.49 -0.67 1.03
-10.21 -0.68 0.85
-9.70 -0.50 0.91
-11.24 -0.38 1.03
-11.40 -0.36 1.01
-11.20 -0.32 1.03
-13.63 -0.36 0.79
-13.73 -0.30 0.78
-13.58 -0.26 0.79
-13.56 -0.23 0.79
-13.43 -0.13 0.81
-13.63 -0.10 0.79
-8.63 -1.27 0.94
-10.66 -0.67 0.72
-12.88 -0.26 0.48
-13.05 -0.23 0.46
-13.04 -0.11 0.46
-11.27 0.05 0.87
-11.36 0.08 0.86
-11.03 0.16 0.90
-11.59 0.22 0.84
-12.12 0.32 0.77
-11.52 0.39 0.84
-10.90 0.55 0.91
-11.13 0.59 0.88
-10.59 0.59 0.95
-9.86 0.57 1.03
-11.11 0.72 0.89
-11.33 1.23 0.85
-12.44 1.56 0.72
-8.95 -1.23 0.82
-8.95 -0.92 0.83
-8.23 -0.65 0.91
-8.37 -0.64 0.89
-12.88 -0.47 0.69
-13.78 -0.40 0.59
-13.95 -0.37 0.57
-11.25 -0.27 0.88
-13.68 -0.30 0.60
-13.65 -0.26 0.60
-13.45 -0.23 0.63
-13.44 -0.16 0.63
-13.56 -0.13 0.61
-13.47 -0.10 0.62
-12.93 -0.00 0.26
-11.16 0.11 0.81
-13.55 0.19 0.52
-11.16 0.35 0.81
-11.11 0.37 0.82
-11.18 0.46 0.81
-10.45 0.58 0.89
-10.26 0.59 0.92
-10.38 0.65 0.90
-10.94 0.82 0.83
-9.13 0.86 1.05
-10.78 1.04 0.85
-10.91 1.08 0.83
-9.48 0.99 1.00
-9.62 1.05 0.99
-9.15 1.04 1.04
-9.05 -1.46 0.73
-9.09 -1.44 0.73
-8.76 -1.34 0.77
-8.80 -1.32 0.76
-8.86 -1.19 0.76
-8.69 -1.14 0.78
-8.61 -1.08 0.79
-8.59 -1.00 0.79
-6.01 -0.71 1.11
-6.20 -0.64 1.09
-8.51 -0.75 0.80
-8.30 -0.71 0.83
-8.58 -0.70 0.79
-8.75 -0.68 0.77
-9.16 -0.62 0.72
-9.59 -0.62 0.67
-7.71 -0.50 0.90
-7.45 -0.46 0.93
-7.59 -0.44 0.92
-7.61 -0.42 0.91
-7.68 -0.40 0.91
-7.62 -0.37 0.91
-13.32 -0.35 0.21
-12.91 -0.26 0.26
-12.67 -0.22 0.29
-12.91 -0.19 0.26
-10.77 0.02 0.78
-10.92 0.05 0.76
-10.72 0.08 0.79
-10.73 0.10 0.78
-11.45 0.30 0.69
-11.47 0.33 0.69
-11.48 0.36 0.69
-10.89 0.36 0.76
-12.11 0.43 0.60
-10.35 0.45 0.83
-10.42 0.50 0.82
-10.41 0.53 0.82
-10.22 0.54 0.85
-10.23 0.59 0.84
-10.38 0.62 0.83
-10.48 0.66 0.81
-14.09 1.05 0.34
-10.70 0.95 0.78
-10.73 1.01 0.77
-9.37 0.91 0.95
-9.30 0.92 0.96
-9.16 0.93 0.97
-9.58 1.00 0.92
-8.99 0.96 1.00
-9.57 1.04 0.92
-9.73 1.08 0.90
-9.63 1.10 0.91
-11.44 1.38 0.68
-11.82 1.48 0.62
-11.89 1.64 0.61
-9.04 -1.55 0.65
-9.02 -1.52 0.65
-8.92 -1.47 0.66
-9.12 -1.47 0.64
-8.84 -1.38 0.68
-9.05 -1.35 0.65
-8.96 -1.31 0.66
-9.16 -1.30 0.64
-9.16 -1.28 0.63
-8.98 -1.23 0.66
-8.45 -1.15 0.73
-8.75 -1.15 0.69
-8.80 -1.13 0.68
-8.66 -1.09 0.70
-8.61 -1.05 0.71
-5.54 -0.75 1.11
-8.83 -1.02 0.68
-8.69 -0.98 0.70
-5.57 -0.69 1.10
-5.76 -0.69 1.08
-5.87 -0.68 1.06
-5.73 -0.65 1.08
-8.12 -0.80 0.77
-8.48 -0.80 0.73
-8.34 -0.77 0.74
-6.01 -0.59 1.05
-6.12 -0.57 1.03
-8.58 -0.70 0.71
-8.62 -0.68 0.71
-6.54 -0.53 0.98
-8.42 -0.61 0.73
-8.71 -0.60 0.70
-8.92 -0.58 0.67
-8.98 -0.56 0.66
-9.90 -0.57 0.54
-7.50 -0.44 0.85
-7.36 -0.41 0.87
-7.17 -0.38 0.90
-7.30 -0.36 0.88
-7.05 -0.31 0.91
-7.42 -0.27 0.86
-7.55 -0.25 0.84
-10.63 -0.13 0.80
-10.75 -0.10 0.78
-10.88 -0.08 0.77
-13.56 -0.07 0.42
-13.62 -0.04 0.41
-10.72 -0.00 0.79
-10.23 0.47 0.77
-13.36 0.83 0.34
-13.76 0.92 0.29
-13.64 0.95 0.30
-13.62 0.98 0.31
-13.74 1.02 0.29
-10.90 0.94 0.67
-10.97 1.00 0.66
-10.56 1.02 0.72
-10.81 1.07 0.68
-9.25 0.94 0.90
-11.32 1.17 0.61
-11.05 1.17 0.65
-11.03 1.20 0.65
-11.41 1.26 0.60
-9.25 1.05 0.90
-8.80 1.04 0.96
-11.48 1.41 0.59
-11.27 1.44 0.62
-9.10 -1.64 0.55
-8.97 -1.56 0.57
-9.05 -1.49 0.56
-8.61 -1.32 0.62
-8.62 -1.30 0.62
-8.60 -1.27 0.63
-8.66 -1.25 0.62
-8.90 -1.25 0.59
-8.46 -1.17 0.65
-8.52 -1.15 0.64
-8.59 -1.13 0.63
-8.25 -1.07 0.68
-8.34 -1.06 0.66
-8.84 -1.07 0.60
-8.32 -1.00 0.67
-8.45 -0.98 0.65
-5.64 -0.72 1.04
-8.68 -0.95 0.62
-8.79 -0.93 0.60
-8.67 -0.90 0.62
-6.08 -0.67 0.98
-8.57 -0.83 0.63
-8.30 -0.76 0.67
-5.79 -0.57 1.02
-8.12 -0.70 0.69
-6.12 -0.55 0.97
-5.95 -0.52 0.99
-8.68 -0.65 0.62
-8.80 -0.63 0.60
-8.97 -0.61 0.58
-7.50 -0.51 0.78
-9.22 -0.48 0.54
-9.13 -0.37 0.56
-10.72 0.02 0.63
-10.23 0.05 0.70
-10.44 0.07 0.67
-10.46 0.10 0.66
-10.30 0.22 0.68
-13.15 0.60 0.27
-13.14 0.63 0.27
-12.97 0.65 0.30
-10.80 0.94 0.60
-9.04 0.81 0.85
-9.31 0.88 0.81
-9.45 0.91 0.79
-11.05 1.09 0.56
-9.32 0.95 0.81
-9.44 0.98 0.79
-9.42 1.00 0.80
-11.56 1.26 0.49
-9.71 1.08 0.75
-11.20 1.27 0.54
-8.84 1.03 0.88
-11.45 1.36 0.50
-11.67 1.50 0.47
-9.16 -1.56 0.45
-9.44 -1.51 0.41
-5.54 -0.99 0.98
-8.85 -1.33 0.50
-8.96 -1.31 0.49
-8.53 -1.24 0.55
-8.30 -1.16 0.58
-5.69 -0.85 0.96
-5.56 -0.79 0.98
-5.74 -0.79 0.95
-5.69 -0.77 0.96
-5.76 -0.73 0.95
-8.39 -0.90 0.57
-6.05 -0.67 0.91
-5.90 -0.64 0.93
-5.61 -0.60 0.97
-5.90 -0.58 0.93
-6.12 -0.55 0.90
-8.20 -0.63 0.60
-8.49 -0.62 0.56
-8.24 -0.58 0.59
-7.14 -0.47 0.75
-10.27 -0.27 0.69
-10.27 -0.22 0.69
-10.10 -0.17 0.72
-10.24 -0.15 0.70
-10.36 -0.08 0.68
-9.41 0.82 0.65
-11.64 1.35 0.29
-11.34 1.37 0.33
-8.72 -1.15 0.34
-8.64 -1.12 0.35
-8.59 -1.08 0.36
-8.63 -1.06 0.36
-8.80 -0.96 0.33
-6.61 -0.72 0.68
-5.66 -0.62 0.83
-5.87 -0.62 0.80
-8.51 -0.78 0.38
-8.35 -0.74 0.40
-8.57 -0.73 0.37
-10.84 -0.55 0.44
-10.80 -0.52 0.45
-9.88 -0.45 0.59
-10.08 -0.44 0.56
-10.75 -0.44 0.45
-10.41 -0.38 0.51
-10.52 -0.36 0.49
-10.56 -0.33 0.48
-7.36 0.04 0.48
-10.25 0.49 0.45
-9.64 0.67 0.54
-10.27 0.74 0.44
-10.35 0.77 0.42
-9.20 0.73 0.62
-10.33 0.87 0.43
