# .PCD v0.7 - Point Cloud Data file format
VERSION 0.7
FIELDS x y z
SIZE 4 4 4
TYPE F F F
COUNT 1 1 1
WIDTH 2851
HEIGHT 1
VIEWPOINT 0 0 0 1 0 0 0
POINTS 2851
DATA ASCII
-5.79 -1.66 1.30
-5.59 -1.60 1.32
-5.86 -1.61 1.30
-5.84 -1.58 1.30
-5.78 -1.55 1.30
-5.68 -1.47 1.32
-5.45 -1.39 1.34
-5.47 -1.38 1.34
-5.49 -1.36 1.34
-5.64 -1.34 1.32
-5.60 -1.30 1.33
-5.70 -1.29 1.32
-2.49 -0.79 1.64
-5.89 -1.28 1.30
-2.44 -0.76 1.65
-2.47 -0.75 1.65
-2.69 -0.77 1.62
-2.48 -0.73 1.65
-2.32 -0.69 1.66
-2.34 -0.68 1.66
-6.70 -1.24 1.21
-2.40 -0.67 1.65
-2.57 -0.68 1.64
-2.69 -0.68 1.62
-2.74 -0.67 1.62
-2.63 -0.64 1.63
-2.66 -0.63 1.63
-2.61 -0.62 1.63
-2.92 -0.64 1.60
-2.68 -0.60 1.63
-2.71 -0.59 1.62
-2.57 -0.56 1.64
-2.89 -0.58 1.60
-2.75 -0.55 1.62
-2.83 -0.55 1.61
-2.77 -0.53 1.62
-2.80 -0.52 1.61
-2.70 -0.50 1.62
-2.60 -0.47 1.63
-2.53 -0.45 1.64
-2.38 -0.43 1.66
-2.68 -0.44 1.63
-2.43 -0.41 1.65
-2.34 -0.39 1.66
-6.50 -0.68 1.24
-6.58 -0.66 1.23
-6.61 -0.64 1.23
-2.79 -0.37 1.61
-3.30 -0.39 1.56
-2.92 -0.35 1.60
-6.94 -0.57 1.19
-7.74 -0.59 1.11
-7.67 -0.57 1.12
-6.24 -0.47 1.26
-6.25 -0.45 1.26
-7.02 -0.46 1.19
-6.99 -0.44 1.19
-8.28 -0.47 1.06
-8.23 -0.44 1.06
-8.41 -0.42 1.04
-8.84 -0.30 1.26
-8.94 -0.28 1.26
-9.01 -0.26 1.25
-8.88 -0.24 1.26
-8.46 -0.21 1.30
-8.76 -0.19 1.27
-8.24 -0.16 1.33
-8.52 -0.15 1.30
-8.52 -0.13 1.30
-8.20 -0.10 1.33
-7.94 -0.08 1.36
-7.92 -0.06 1.36
-8.00 -0.04 1.35
-8.03 -0.02 1.35
-7.82 -0.01 1.37
-7.25 0.01 1.10
-6.96 0.03 1.13
-7.32 0.05 1.09
-6.85 0.07 1.14
-6.97 0.10 1.13
-6.73 0.12 1.15
-6.55 0.14 1.17
-6.54 0.16 1.17
-6.71 0.19 1.15
-6.63 0.21 1.16
-6.48 0.23 1.18
-6.73 0.26 1.15
-6.61 0.27 1.17
-6.46 0.29 1.18
-6.78 0.33 1.15
-6.48 0.34 1.18
-6.56 0.36 1.17
-6.61 0.39 1.16
-6.75 0.41 1.15
-6.61 0.43 1.16
-12.73 0.69 0.78
-12.80 0.72 0.77
-7.53 0.61 1.34
-7.60 0.63 1.34
-7.41 0.64 1.36
-7.75 0.68 1.32
-7.63 0.69 1.33
-7.74 0.72 1.32
-7.64 0.73 1.33
-7.67 0.75 1.33
-7.66 0.77 1.33
-7.72 0.79 1.32
-7.76 0.82 1.32
-7.95 0.86 1.29
-7.96 0.88 1.29
-7.90 0.89 1.30
-8.03 0.92 1.28
-8.00 0.94 1.29
-13.94 1.66 0.63
-8.31 1.02 1.25
-13.57 1.68 0.67
-6.21 -1.28 1.21
-6.19 -1.25 1.21
-6.76 -1.13 1.15
-6.80 -1.09 1.15
-6.53 -1.03 1.17
-6.58 -1.02 1.17
-6.39 -0.97 1.19
-6.45 -0.96 1.18
-6.34 -0.93 1.20
-6.44 -0.91 1.19
-6.52 -0.90 1.18
-6.54 -0.88 1.17
-6.66 -0.87 1.16
-6.35 -0.82 1.20
-6.60 -0.82 1.17
-6.20 -0.76 1.21
-6.30 -0.75 1.20
-6.60 -0.75 1.17
-6.59 -0.73 1.17
-6.51 -0.70 1.18
-6.62 -0.69 1.17
-6.72 -0.67 1.16
-6.76 -0.65 1.15
-6.89 -0.64 1.14
-6.82 -0.61 1.15
-6.69 -0.58 1.16
-7.09 -0.58 1.12
-7.43 -0.58 1.08
-6.62 -0.51 1.17
-5.75 -0.44 1.26
-8.64 -0.53 0.95
-9.03 -0.52 0.91
-8.81 -0.49 0.93
-8.14 -0.43 1.00
-8.82 -0.43 0.93
-9.09 -0.41 0.90
-7.93 -0.35 1.03
-9.64 -0.37 0.84
-9.41 -0.34 0.86
-7.38 -0.26 1.08
-7.34 -0.23 1.09
-9.44 -0.25 0.86
-7.46 -0.19 1.08
-7.73 -0.17 1.05
-7.43 -0.14 1.08
-7.09 -0.11 1.12
-7.87 -0.09 1.03
-7.00 -0.06 1.12
-6.79 -0.04 1.15
-7.35 -0.02 1.09
-7.47 0.01 1.30
-7.61 0.03 1.29
-8.19 0.05 1.22
-7.41 0.07 1.31
-8.16 0.09 1.22
-7.68 0.11 1.28
-8.00 0.13 1.24
-8.10 0.15 1.23
-6.91 0.15 1.37
-6.89 0.16 1.37
-7.61 0.20 1.29
-7.34 0.21 1.32
-7.18 0.22 1.33
-7.55 0.25 1.29
-7.89 0.28 1.25
-7.23 0.27 1.33
-7.22 0.29 1.33
-6.94 0.30 1.36
-7.07 0.32 1.35
-7.07 0.34 1.35
-7.18 0.36 1.33
-7.50 0.39 1.30
-6.93 0.38 1.36
-6.95 0.40 1.36
-7.00 0.42 1.35
-6.96 0.43 1.36
-7.25 0.47 1.32
-7.39 0.49 1.31
-7.41 0.51 1.31
-7.37 0.53 1.31
-7.33 0.54 1.31
-7.43 0.57 1.30
-7.43 0.59 1.30
-7.52 0.61 1.29
-7.42 0.62 1.30
-7.43 0.64 1.30
-7.60 0.67 1.28
-7.48 0.68 1.29
-7.53 0.71 1.29
-7.42 0.71 1.30
-7.65 0.75 1.27
-7.61 0.77 1.28
-7.43 0.77 1.30
-7.61 0.81 1.28
-7.69 0.83 1.27
-7.84 0.87 1.25
-7.92 0.90 1.24
-7.77 0.90 1.26
-7.85 0.93 1.25
-7.83 0.94 1.25
-7.84 0.96 1.25
-7.93 0.99 1.24
-7.85 1.00 1.24
-8.09 1.06 1.21
-9.61 1.27 1.04
-8.11 1.10 1.21
-8.23 1.13 1.20
-8.33 1.19 1.19
-5.45 -1.59 1.23
-5.93 -1.58 1.17
-5.70 -1.50 1.20
-5.25 -1.36 1.25
-5.74 -1.36 1.20
-6.59 -1.38 1.10
-6.62 -1.34 1.10
-6.45 -1.30 1.12
-6.16 -1.23 1.15
-2.57 -0.73 1.56
-6.12 -1.19 1.15
-2.34 -0.67 1.59
-2.50 -0.68 1.57
-2.54 -0.67 1.57
-2.73 -0.68 1.55
-2.77 -0.68 1.54
-2.67 -0.65 1.55
-2.68 -0.64 1.55
-2.58 -0.61 1.56
-2.67 -0.61 1.55
-2.79 -0.61 1.54
-2.55 -0.57 1.57
-2.52 -0.56 1.57
-2.59 -0.55 1.56
-2.33 -0.51 1.59
-2.67 -0.53 1.55
-2.30 -0.48 1.59
-2.29 -0.47 1.60
-2.30 -0.46 1.59
-2.40 -0.46 1.58
-2.39 -0.44 1.58
-2.60 -0.45 1.56
-2.31 -0.41 1.59
-2.49 -0.41 1.57
-2.84 -0.43 1.53
-2.19 -0.37 1.61
-2.38 -0.37 1.59
-2.59 -0.37 1.56
-6.54 -0.62 1.11
-5.57 -0.53 1.22
-6.73 -0.58 1.09
-2.32 -0.30 1.59
-7.38 -0.57 1.01
-8.28 -0.44 1.21
-9.05 -0.46 1.12
-8.91 -0.43 1.14
-8.95 -0.41 1.13
-8.62 -0.38 1.17
-9.59 -0.40 1.06
-9.30 -0.36 1.09
-8.18 -0.30 1.22
-8.73 -0.30 1.16
-8.27 -0.26 1.21
-8.61 -0.25 1.17
-8.18 -0.22 1.22
-9.67 -0.24 1.05
-8.54 -0.19 1.18
-7.79 -0.15 1.27
-8.55 -0.15 1.18
-7.20 -0.11 1.34
-8.02 -0.10 1.24
-7.90 -0.08 1.25
-7.71 -0.06 1.28
-7.50 -0.04 1.30
-7.47 -0.02 1.30
-7.84 -0.01 1.26
-6.75 0.01 1.02
-6.76 0.03 1.02
-7.41 0.05 1.26
-7.30 0.07 1.28
-7.43 0.08 1.26
-7.39 0.10 1.26
-7.57 0.12 1.24
-7.66 0.14 1.23
-7.57 0.16 1.24
-7.43 0.17 1.26
-6.77 0.17 1.34
-6.95 0.20 1.32
-7.83 0.24 1.21
-7.38 0.24 1.26
-7.02 0.25 1.31
-6.86 0.26 1.33
-7.03 0.28 1.31
-7.00 0.30 1.31
-6.86 0.31 1.33
-7.33 0.35 1.27
-7.37 0.37 1.26
-7.38 0.39 1.26
-7.22 0.39 1.28
-7.22 0.41 1.28
-7.30 0.43 1.27
-7.39 0.46 1.26
-7.41 0.48 1.26
-7.47 0.50 1.25
-7.51 0.52 1.24
-7.48 0.54 1.25
-7.46 0.55 1.25
-7.47 0.57 1.25
-7.40 0.58 1.26
-7.52 0.61 1.24
-7.54 0.63 1.24
-7.51 0.65 1.24
-7.48 0.66 1.24
-7.80 0.71 1.21
-7.50 0.70 1.24
-7.55 0.72 1.24
-7.53 0.74 1.24
-7.73 0.80 1.21
-7.87 0.83 1.20
-7.73 0.83 1.21
-7.74 0.85 1.21
-7.81 0.88 1.20
-7.78 0.90 1.20
-7.84 0.92 1.20
-7.83 0.94 1.20
-7.84 0.96 1.20
-7.91 0.99 1.19
-8.02 1.02 1.17
-7.93 1.03 1.18
-8.09 1.07 1.16
-8.15 1.10 1.15
-6.55 0.92 1.35
-0.67 -1.19 1.75
-1.70 -0.98 1.63
-5.41 -1.66 1.18
-5.33 -1.60 1.19
-6.53 -1.48 1.04
-6.07 -1.39 1.10
-6.50 -1.41 1.05
-6.77 -1.43 1.01
-6.77 -1.41 1.02
-6.74 -1.38 1.02
-6.54 -1.33 1.04
-6.79 -1.34 1.01
-6.51 -1.28 1.05
-2.74 -0.75 1.51
-6.24 -1.20 1.08
-6.29 -1.18 1.08
-2.56 -0.68 1.53
-6.10 -1.12 1.10
-2.60 -0.66 1.53
-2.70 -0.66 1.51
-6.67 -1.12 1.03
-2.50 -0.61 1.54
-2.47 -0.60 1.54
-2.61 -0.60 1.53
-2.70 -0.60 1.51
-2.50 -0.56 1.54
-2.70 -0.57 1.51
-2.58 -0.55 1.53
-2.44 -0.52 1.55
-2.46 -0.51 1.54
-2.55 -0.51 1.53
-2.47 -0.49 1.54
-2.27 -0.46 1.57
-5.99 -0.77 1.11
-2.53 -0.45 1.54
-2.42 -0.43 1.55
-2.69 -0.44 1.52
-2.42 -0.41 1.55
-2.27 -0.38 1.57
-2.36 -0.38 1.56
-2.29 -0.36 1.56
-6.98 -0.67 0.99
-2.55 -0.35 1.53
-2.38 -0.33 1.55
-6.94 -0.59 1.00
-6.88 -0.57 1.01
-2.44 -0.30 1.55
-2.39 -0.28 1.55
-2.48 -0.27 1.54
-2.36 -0.26 1.56
-2.42 -0.25 1.55
-2.46 -0.24 1.54
-2.33 -0.22 1.56
-2.37 -0.21 1.55
-2.20 -0.19 1.57
-9.50 -0.43 0.69
-2.22 -0.17 1.57
-2.46 -0.16 1.54
-2.35 -0.15 1.56
-7.09 -0.25 0.98
-2.28 -0.12 1.56
-6.83 -0.20 1.01
-6.90 -0.18 1.00
-7.03 -0.16 0.99
-7.18 -0.14 0.97
-6.76 -0.11 1.02
-7.14 -0.09 0.97
-6.95 -0.06 1.00
-6.64 -0.04 1.04
-6.38 -0.02 1.07
-7.32 0.01 1.22
-7.38 0.03 1.21
-7.43 0.05 1.21
-7.21 0.06 1.23
-7.29 0.08 1.22
-7.40 0.10 1.21
-7.51 0.12 1.19
-7.12 0.13 1.24
-7.43 0.16 1.20
-7.45 0.17 1.20
-7.41 0.19 1.21
-6.33 0.18 1.35
-7.43 0.23 1.20
-7.31 0.24 1.22
-7.41 0.26 1.21
-7.30 0.28 1.22
-7.41 0.30 1.21
-7.32 0.31 1.22
-7.18 0.32 1.24
-7.64 0.36 1.17
-7.10 0.35 1.24
-7.33 0.38 1.21
-7.27 0.40 1.22
-7.27 0.42 1.22
-7.28 0.43 1.22
-7.30 0.45 1.22
-7.34 0.47 1.21
-7.31 0.49 1.21
-7.38 0.51 1.21
-7.45 0.53 1.20
-7.42 0.55 1.20
-7.49 0.57 1.19
-7.50 0.59 1.19
-7.67 0.62 1.17
-7.70 0.64 1.16
-7.55 0.65 1.18
-7.62 0.67 1.17
-7.57 0.69 1.18
-7.60 0.71 1.17
-7.62 0.73 1.17
-7.57 0.74 1.18
-7.59 0.77 1.17
-7.63 0.79 1.17
-7.70 0.81 1.16
-7.64 0.83 1.17
-7.62 0.84 1.17
-7.51 0.85 1.18
-7.65 0.88 1.16
-7.73 0.91 1.15
-7.77 0.94 1.15
-7.70 0.95 1.15
-7.89 0.99 1.13
-7.95 1.02 1.12
-7.85 1.02 1.13
-7.92 1.05 1.12
-7.87 1.06 1.13
-7.89 1.11 1.13
-7.80 1.11 1.14
-1.92 -1.30 1.57
-1.43 -1.08 1.63
-5.12 -1.66 1.15
-5.08 -1.63 1.16
-5.25 -1.65 1.13
-5.12 -1.60 1.15
-5.25 -1.61 1.14
-5.20 -1.58 1.14
-5.11 -1.54 1.16
-4.96 -1.50 1.17
-5.04 -1.49 1.17
-5.28 -1.52 1.13
-5.32 -1.51 1.13
-5.56 -1.49 1.10
-6.21 -1.52 1.02
-6.24 -1.50 1.01
-6.48 -1.52 0.98
-2.62 -0.85 1.48
-6.46 -1.43 0.98
-6.40 -1.40 0.99
-6.34 -1.36 1.00
-6.42 -1.35 0.99
-2.58 -0.78 1.49
-2.70 -0.78 1.47
-6.45 -1.29 0.99
-2.78 -0.77 1.46
-2.80 -0.76 1.46
-2.84 -0.75 1.46
-2.79 -0.73 1.46
-2.71 -0.70 1.47
-2.87 -0.71 1.45
-2.65 -0.67 1.48
-2.76 -0.67 1.47
-2.75 -0.66 1.47
-2.60 -0.63 1.49
-2.79 -0.64 1.46
-2.67 -0.61 1.48
-2.67 -0.60 1.48
-2.64 -0.58 1.48
-2.56 -0.56 1.49
-2.77 -0.57 1.47
-2.80 -0.56 1.46
-2.73 -0.54 1.47
-2.72 -0.52 1.47
-2.69 -0.51 1.48
-2.52 -0.48 1.50
-2.52 -0.47 1.50
-2.53 -0.45 1.50
-2.43 -0.43 1.51
-2.63 -0.44 1.48
-2.50 -0.41 1.50
-2.51 -0.40 1.50
-2.72 -0.40 1.47
-2.49 -0.38 1.50
-5.52 -0.57 1.11
-2.69 -0.36 1.47
-2.50 -0.34 1.50
-5.67 -0.52 1.09
-6.67 -0.56 0.96
-6.91 -0.55 0.93
-6.73 -0.52 0.96
-6.74 -0.49 0.95
-2.49 -0.26 1.50
-6.32 -0.43 1.01
-2.47 -0.24 1.50
-5.21 -0.34 1.15
-2.33 -0.21 1.52
-2.36 -0.20 1.52
-2.27 -0.18 1.53
-2.56 -0.18 1.49
-2.61 -0.17 1.48
-2.37 -0.15 1.51
-2.67 -0.14 1.48
-2.43 -0.12 1.51
-2.65 -0.12 1.48
-2.44 -0.10 1.51
-6.54 -0.15 0.98
-7.92 -0.10 1.14
-8.21 -0.08 1.10
-7.52 -0.06 1.19
-7.34 -0.04 1.22
-7.31 -0.02 1.22
-7.23 -0.00 1.23
-2.02 0.00 1.53
-6.27 0.03 0.95
-6.48 0.05 0.92
-6.35 0.07 0.94
-6.41 0.11 0.93
-6.58 0.14 0.91
-6.49 0.16 0.92
-6.52 0.18 0.91
-6.61 0.21 0.90
-6.50 0.23 0.92
-7.52 0.21 1.14
-7.34 0.22 1.16
-7.28 0.24 1.17
-7.14 0.27 1.19
-7.22 0.31 1.18
-7.19 0.32 1.18
-7.27 0.34 1.17
-7.23 0.36 1.18
-7.13 0.37 1.19
-7.27 0.41 1.17
-7.27 0.43 1.17
-7.29 0.45 1.17
-7.50 0.48 1.14
-7.39 0.49 1.15
-7.43 0.51 1.15
-7.48 0.53 1.14
-7.51 0.57 1.13
-7.57 0.61 1.12
-7.65 0.64 1.11
-7.56 0.65 1.13
-7.61 0.67 1.12
-7.61 0.69 1.12
-7.61 0.73 1.12
-7.62 0.77 1.11
-7.66 0.79 1.11
-7.47 0.79 1.13
-7.60 0.82 1.12
-7.55 0.83 1.12
-5.93 0.69 1.35
-7.70 0.92 1.10
-7.78 0.95 1.09
-7.75 0.97 1.09
-7.87 1.00 1.08
-8.03 1.04 1.05
-8.04 1.08 1.05
-7.98 1.09 1.06
-9.97 1.58 0.78
-10.00 1.61 0.77
-0.86 -0.80 1.69
-5.21 -1.68 1.08
-5.10 -1.58 1.10
-5.18 -1.57 1.09
-6.07 -1.51 0.97
-6.38 -1.54 0.93
-6.27 -1.51 0.94
-5.95 -1.43 0.99
-6.40 -1.44 0.93
-6.34 -1.41 0.94
-2.43 -0.79 1.47
-2.46 -0.78 1.47
-2.50 -0.78 1.46
-2.55 -0.77 1.46
-2.62 -0.76 1.45
-2.61 -0.74 1.45
-2.66 -0.73 1.44
-2.60 -0.71 1.45
-2.72 -0.72 1.43
-2.60 -0.69 1.45
-2.73 -0.69 1.43
-2.44 -0.63 1.47
-2.67 -0.65 1.44
-2.65 -0.63 1.44
-2.67 -0.62 1.44
-2.46 -0.58 1.47
-2.51 -0.58 1.46
-2.50 -0.56 1.46
-2.50 -0.54 1.46
-2.39 -0.51 1.48
-2.28 -0.49 1.49
-2.88 -0.54 1.41
-2.45 -0.48 1.47
-2.37 -0.46 1.48
-2.31 -0.45 1.49
-2.32 -0.42 1.49
-2.29 -0.40 1.49
-5.29 -0.61 1.08
-5.45 -0.60 1.06
-2.58 -0.38 1.45
-5.48 -0.56 1.06
-2.26 -0.32 1.50
-2.30 -0.30 1.49
-6.23 -0.51 0.96
-2.44 -0.28 1.47
-6.71 -0.49 0.89
-2.65 -0.27 1.44
-2.36 -0.23 1.48
-2.52 -0.23 1.46
-2.34 -0.21 1.49
-2.34 -0.19 1.49
-2.45 -0.19 1.47
-2.45 -0.17 1.47
-2.50 -0.16 1.46
-2.21 -0.13 1.50
-2.42 -0.11 1.47
-2.57 -0.10 1.45
-6.12 -0.14 0.97
-6.06 -0.12 0.98
-5.85 -0.10 1.01
-5.99 -0.06 0.99
-6.18 -0.04 0.96
-6.42 -0.02 0.93
-7.16 0.01 1.13
-7.07 0.03 1.14
-6.99 0.05 1.16
-6.89 0.06 1.17
-7.27 0.08 1.12
-7.33 0.10 1.11
-7.29 0.12 1.11
-7.32 0.14 1.11
-7.27 0.15 1.11
-7.25 0.17 1.12
-7.21 0.19 1.12
-7.19 0.20 1.12
-7.29 0.22 1.11
-7.11 0.23 1.14
-7.29 0.26 1.11
-7.19 0.27 1.12
-7.14 0.29 1.13
-7.20 0.31 1.12
-7.18 0.32 1.13
-7.06 0.34 1.14
-7.13 0.36 1.13
-7.01 0.37 1.15
-7.04 0.39 1.14
-6.96 0.40 1.16
-7.38 0.44 1.09
-7.37 0.46 1.10
-7.40 0.48 1.09
-7.48 0.50 1.08
-7.54 0.52 1.07
-7.54 0.54 1.07
-7.41 0.55 1.09
-7.53 0.58 1.07
-7.44 0.59 1.08
-7.43 0.60 1.08
-7.34 0.62 1.10
-7.52 0.65 1.07
-7.58 0.67 1.06
-7.54 0.69 1.07
-7.54 0.70 1.07
-7.53 0.72 1.07
-7.59 0.75 1.06
-7.85 0.79 1.02
-7.67 0.79 1.05
-7.53 0.80 1.07
-7.56 0.82 1.06
-7.59 0.84 1.05
-6.16 0.70 1.26
-7.93 0.92 1.00
-7.84 0.92 1.02
-7.86 0.95 1.01
-7.88 0.97 1.01
-7.87 0.99 1.01
-7.77 0.99 1.03
-7.78 1.01 1.02
-7.89 1.05 1.01
-7.89 1.07 1.01
-8.29 1.14 0.95
-8.60 1.20 0.90
-5.32 -1.68 1.00
-5.42 -1.69 0.99
-5.27 -1.63 1.01
-5.06 -1.57 1.04
-5.26 -1.59 1.01
-5.27 -1.54 1.01
-5.28 -1.52 1.01
-6.23 -1.63 0.87
-2.96 -0.99 1.35
-2.51 -0.90 1.42
-2.72 -0.89 1.39
-2.67 -0.87 1.39
-2.58 -0.84 1.41
-2.59 -0.83 1.41
-2.54 -0.81 1.41
-2.69 -0.82 1.39
-2.71 -0.81 1.39
-2.75 -0.80 1.38
-2.64 -0.77 1.40
-2.68 -0.77 1.39
-2.60 -0.74 1.41
-2.70 -0.74 1.39
-2.67 -0.73 1.39
-2.81 -0.73 1.38
-2.78 -0.71 1.38
-2.72 -0.69 1.39
-2.92 -0.71 1.36
-2.49 -0.64 1.42
-2.64 -0.65 1.40
-2.61 -0.63 1.40
-2.78 -0.64 1.38
-2.78 -0.62 1.38
-2.59 -0.59 1.41
-2.41 -0.56 1.43
-2.35 -0.54 1.44
-2.35 -0.52 1.44
-2.52 -0.53 1.42
-2.33 -0.50 1.44
-2.28 -0.48 1.45
-2.51 -0.49 1.42
-2.58 -0.48 1.41
-2.46 -0.46 1.43
-2.63 -0.46 1.40
-2.72 -0.46 1.39
-2.51 -0.43 1.42
-2.48 -0.41 1.42
-2.58 -0.41 1.41
-2.53 -0.39 1.42
-2.44 -0.37 1.43
-5.65 -0.58 0.97
-2.69 -0.36 1.39
-2.40 -0.33 1.43
-5.79 -0.53 0.95
-2.28 -0.30 1.45
-6.29 -0.51 0.88
-6.54 -0.51 0.84
-2.48 -0.28 1.42
-2.48 -0.26 1.42
-6.55 -0.44 0.84
-5.94 -0.39 0.93
-2.33 -0.22 1.44
-3.29 -0.24 1.31
-3.22 -0.23 1.32
-6.29 -0.32 0.88
-7.67 -0.24 1.06
-10.23 -0.30 0.69
-10.17 -0.28 0.70
-7.54 -0.19 1.08
-7.48 -0.17 1.09
-7.50 -0.15 1.08
-7.45 -0.13 1.09
-7.59 -0.11 1.07
-7.55 -0.10 1.08
-7.46 -0.08 1.09
-7.44 -0.06 1.09
-7.40 -0.04 1.10
-7.25 -0.02 1.12
-7.09 -0.00 1.14
-9.70 0.01 0.29
-9.59 0.04 0.31
-6.14 0.05 0.83
-6.41 0.07 0.79
-9.55 0.21 0.31
-9.59 0.24 0.31
-6.38 0.20 0.79
-8.36 0.27 0.49
-9.61 0.33 0.30
-9.24 0.38 0.36
-5.82 0.31 0.88
-6.25 0.35 0.81
-5.89 0.36 0.86
-5.84 0.38 0.87
-7.07 0.35 1.09
-11.48 0.59 0.41
-10.52 0.65 0.56
-7.38 0.47 1.04
-7.68 0.51 0.99
-7.61 0.52 1.00
-7.45 0.53 1.03
-7.71 0.62 0.99
-11.07 0.92 0.47
-8.87 0.80 0.81
-7.90 0.75 0.95
-9.02 0.97 0.78
-0.43 -1.32 1.68
-6.06 -1.26 0.84
-5.34 -1.08 0.95
-5.67 -1.10 0.90
-5.33 -1.02 0.95
-5.31 -0.99 0.96
-7.40 -1.11 0.64
-5.50 -0.86 0.93
-5.45 -0.84 0.94
-7.41 -0.99 0.64
-1.87 -0.44 1.48
-5.16 -0.73 0.98
-5.44 -0.72 0.94
-5.60 -0.69 0.91
-7.08 -0.77 0.69
-5.81 -0.65 0.88
-5.36 -0.60 0.95
-5.97 -0.62 0.86
-6.44 -0.63 0.79
-6.70 -0.62 0.75
-6.31 -0.58 0.81
-6.56 -0.55 0.77
-6.58 -0.53 0.77
-6.50 -0.50 0.78
-6.34 -0.47 0.80
-6.55 -0.46 0.77
-6.50 -0.44 0.78
-6.62 -0.42 0.76
-6.65 -0.33 0.76
-7.19 -0.21 0.67
-9.81 -0.23 0.28
-6.33 -0.15 0.80
-7.27 -0.14 0.66
-7.54 -0.12 0.62
-9.41 -0.11 0.34
-9.45 -0.08 0.33
-7.47 -0.02 0.63
-7.03 0.01 1.04
-6.95 0.03 1.05
-7.10 0.05 1.03
-7.16 0.06 1.02
-7.19 0.08 1.01
-7.09 0.10 1.03
-7.10 0.11 1.03
-7.01 0.13 1.04
-7.08 0.15 1.03
-6.96 0.16 1.05
-7.04 0.18 1.04
-7.13 0.20 1.02
-6.95 0.21 1.05
-6.88 0.23 1.06
-7.17 0.25 1.01
-7.00 0.27 1.04
-7.04 0.28 1.03
-7.21 0.31 1.01
-7.17 0.32 1.01
-7.15 0.34 1.02
-7.40 0.37 0.98
-7.15 0.37 1.02
-7.18 0.39 1.01
-7.20 0.41 1.01
-7.39 0.44 0.98
-7.40 0.46 0.97
-7.40 0.48 0.97
-7.34 0.49 0.98
-7.64 0.53 0.93
-7.45 0.53 0.96
-7.61 0.56 0.94
-7.65 0.59 0.93
-7.30 0.58 0.99
-7.92 0.64 0.89
-5.92 0.50 1.21
-7.68 0.66 0.92
-7.82 0.69 0.90
-5.76 0.53 1.23
-5.71 0.54 1.24
-5.72 0.55 1.24
-5.74 0.57 1.24
-8.76 0.88 0.75
-5.84 0.61 1.22
-8.77 0.93 0.74
-5.75 0.63 1.23
-6.14 0.68 1.17
-6.00 0.68 1.19
-9.43 1.11 0.63
-8.95 1.08 0.71
-8.89 1.09 0.72
-8.79 1.12 0.74
-8.43 1.10 0.79
-8.48 1.12 0.79
-8.36 1.15 0.80
-8.98 1.26 0.70
-9.15 1.30 0.67
-9.65 1.42 0.59
-9.78 1.46 0.57
-1.26 -1.23 1.52
-2.66 -1.00 1.31
-2.57 -0.95 1.32
-2.40 -0.89 1.35
-2.66 -0.92 1.31
-5.90 -1.45 0.79
-2.59 -0.89 1.32
-2.68 -0.89 1.31
-2.62 -0.86 1.32
-2.59 -0.85 1.32
-2.49 -0.82 1.34
-2.48 -0.80 1.34
-2.46 -0.79 1.34
-2.66 -0.80 1.31
-2.58 -0.78 1.32
-2.67 -0.78 1.31
-2.72 -0.77 1.30
-2.77 -0.77 1.29
-2.76 -0.75 1.29
-2.82 -0.75 1.29
-2.96 -0.75 1.26
-2.70 -0.71 1.30
-2.74 -0.70 1.30
-2.43 -0.65 1.35
-5.18 -0.96 0.91
-2.57 -0.64 1.32
-2.25 -0.59 1.38
-2.33 -0.58 1.36
-3.13 -0.66 1.24
-2.48 -0.58 1.34
-2.58 -0.57 1.32
-2.51 -0.56 1.33
-2.19 -0.51 1.39
-2.20 -0.50 1.38
-5.19 -0.78 0.91
-2.42 -0.50 1.35
-2.49 -0.49 1.34
-2.87 -0.51 1.28
-2.40 -0.46 1.35
-2.33 -0.44 1.36
-2.13 -0.41 1.40
-5.22 -0.65 0.90
-2.03 -0.38 1.41
-5.35 -0.62 0.88
-5.48 -0.61 0.86
-5.62 -0.60 0.84
-5.42 -0.56 0.87
-5.93 -0.58 0.79
-5.65 -0.54 0.84
-6.29 -0.56 0.73
-6.64 -0.56 0.68
-6.70 -0.54 0.67
-7.73 -0.41 0.93
-7.52 -0.38 0.96
-7.56 -0.37 0.96
-7.26 -0.34 1.00
-7.47 -0.33 0.97
-7.40 -0.31 0.98
-7.58 -0.30 0.95
-8.21 -0.30 0.85
-7.71 -0.26 0.93
-7.62 -0.24 0.95
-8.00 -0.24 0.89
-7.86 -0.21 0.91
-7.67 -0.19 0.94
-7.69 -0.17 0.94
-7.68 -0.15 0.94
-7.61 -0.13 0.95
-7.78 -0.12 0.92
-7.57 -0.10 0.95
-7.72 -0.08 0.93
-7.58 -0.06 0.95
-7.83 -0.04 0.91
-7.20 -0.02 1.01
-7.07 -0.00 1.03
-7.07 0.01 0.53
-6.37 0.03 0.65
-1.54 0.02 1.45
-7.25 0.06 0.95
-7.09 0.08 0.98
-7.19 0.10 0.96
-7.10 0.11 0.97
-7.26 0.13 0.95
-7.23 0.15 0.95
-7.04 0.16 0.98
-7.02 0.18 0.99
-6.90 0.19 1.01
-6.81 0.21 1.02
-6.88 0.23 1.01
-6.95 0.25 1.00
-7.04 0.27 0.98
-7.01 0.28 0.99
-6.96 0.30 0.99
-7.17 0.32 0.96
-7.13 0.34 0.96
-6.95 0.35 1.00
-7.13 0.37 0.96
-7.05 0.39 0.98
-6.98 0.40 0.99
-7.07 0.42 0.97
-7.07 0.44 0.97
-7.06 0.45 0.97
-7.10 0.47 0.97
-7.47 0.52 0.90
-7.54 0.54 0.89
-7.77 0.57 0.85
-7.49 0.57 0.90
-7.64 0.60 0.87
-5.67 0.46 1.21
-5.78 0.49 1.19
-5.71 0.49 1.20
-5.89 0.52 1.17
-7.90 0.72 0.83
-8.80 0.82 0.67
-10.35 0.99 0.41
-9.84 0.96 0.50
-7.55 0.76 0.88
-5.75 0.60 1.19
-7.52 0.79 0.89
-7.58 0.82 0.88
-7.79 0.86 0.84
-5.78 0.66 1.18
-5.79 0.67 1.18
-5.88 0.70 1.16
-5.80 0.70 1.18
-9.00 1.10 0.63
-8.49 1.06 0.72
-8.44 1.07 0.73
-8.81 1.14 0.66
-8.46 1.12 0.72
-8.46 1.14 0.72
-8.82 1.21 0.66
-9.43 1.31 0.55
-9.00 1.28 0.63
-9.14 1.32 0.60
-9.23 1.36 0.59
-9.91 1.48 0.47
-4.23 0.65 1.44
-9.40 1.45 0.56
-8.97 1.41 0.63
-9.03 1.44 0.62
-8.80 1.42 0.66
-8.59 1.41 0.69
-4.12 0.73 1.45
-4.16 0.86 1.44
-4.35 0.93 1.41
-0.89 -0.90 1.56
-1.06 -0.89 1.54
-1.16 -0.86 1.52
-5.00 -1.67 0.87
-5.25 -1.69 0.82
-1.00 -0.78 1.55
-0.79 -0.72 1.58
-1.03 -0.76 1.54
-2.30 -0.94 1.33
-2.71 -0.98 1.26
-2.57 -0.94 1.28
-2.54 -0.92 1.29
-2.46 -0.90 1.30
-2.44 -0.88 1.31
-2.45 -0.87 1.30
-2.58 -0.88 1.28
-2.54 -0.86 1.29
-2.47 -0.84 1.30
-2.42 -0.82 1.31
-2.42 -0.80 1.31
-2.47 -0.80 1.30
-2.49 -0.79 1.30
-2.55 -0.79 1.29
-2.70 -0.79 1.26
-2.60 -0.77 1.28
-2.63 -0.76 1.28
-2.54 -0.73 1.29
-2.77 -0.75 1.25
-2.79 -0.74 1.25
-2.77 -0.72 1.25
-2.90 -0.73 1.23
-2.93 -0.72 1.22
-5.18 -0.98 0.85
-2.73 -0.67 1.26
-2.98 -0.68 1.22
-3.12 -0.69 1.19
-5.04 -0.89 0.87
-5.04 -0.87 0.87
-2.50 -0.58 1.30
-2.56 -0.57 1.29
-2.51 -0.55 1.30
-2.30 -0.52 1.33
-2.22 -0.50 1.34
-4.98 -0.75 0.88
-2.22 -0.48 1.34
-4.83 -0.70 0.91
-2.35 -0.46 1.32
-2.15 -0.43 1.36
-2.39 -0.44 1.32
-5.27 -0.67 0.83
-2.10 -0.39 1.36
-2.21 -0.39 1.35
-2.29 -0.39 1.33
-2.48 -0.39 1.30
-2.72 -0.39 1.26
-5.65 -0.58 0.77
-2.12 -0.33 1.36
-5.84 -0.55 0.74
-5.88 -0.53 0.73
-6.09 -0.52 0.70
-6.38 -0.52 0.65
-2.72 -0.30 1.26
-2.45 -0.27 1.31
-2.62 -0.27 1.28
-2.26 -0.24 1.34
-5.21 -0.36 0.84
-5.02 -0.33 0.88
-5.23 -0.32 0.84
-2.29 -0.19 1.33
-5.07 -0.28 0.87
-2.69 -0.18 1.26
-2.39 -0.16 1.31
-2.27 -0.14 1.33
-4.82 -0.20 0.91
-2.28 -0.12 1.33
-2.55 -0.11 1.29
-2.48 -0.10 1.30
-2.41 -0.09 1.31
-2.48 -0.07 1.30
-2.42 -0.06 1.31
-2.66 -0.05 1.27
-2.69 -0.04 1.26
-2.41 -0.02 1.31
-2.42 -0.01 1.31
-7.29 0.01 0.88
-9.90 0.04 0.42
-7.25 0.05 0.89
-10.23 0.09 0.36
-9.39 0.10 0.51
-9.41 0.13 0.50
-9.12 0.15 0.56
-9.00 0.16 0.58
-9.14 0.19 0.55
-7.12 0.17 0.91
-7.00 0.18 0.93
-7.00 0.20 0.93
-6.62 0.20 1.00
-7.09 0.23 0.91
-6.92 0.24 0.94
-6.81 0.26 0.96
-6.98 0.28 0.93
-7.17 0.31 0.90
-7.18 0.32 0.90
-7.11 0.34 0.91
-7.12 0.35 0.90
-6.99 0.37 0.93
-6.89 0.38 0.95
-6.84 0.39 0.95
-6.86 0.41 0.95
-6.90 0.43 0.94
-6.25 0.40 1.06
-7.10 0.47 0.91
-7.13 0.49 0.90
-7.18 0.51 0.89
-7.09 0.52 0.91
-7.17 0.55 0.89
-7.25 0.57 0.88
-7.30 0.59 0.87
-7.71 0.65 0.79
-7.40 0.64 0.85
-7.52 0.67 0.83
-7.68 0.70 0.80
-7.62 0.71 0.81
-7.59 0.73 0.81
-7.71 0.76 0.79
-9.41 0.94 0.49
-7.66 0.79 0.80
-7.51 0.79 0.83
-7.55 0.82 0.82
-7.59 0.84 0.81
-7.57 0.85 0.81
-7.73 0.89 0.79
-7.66 0.90 0.80
-7.60 0.91 0.81
-7.95 0.97 0.74
-8.21 1.03 0.70
-8.43 1.07 0.66
-8.77 1.14 0.59
-8.95 1.18 0.56
-8.41 1.13 0.66
-8.81 1.21 0.59
-9.20 1.29 0.51
-9.11 1.29 0.53
-9.27 1.34 0.50
-9.19 1.35 0.52
-9.11 1.36 0.53
-9.14 1.39 0.52
-9.20 1.42 0.51
-8.81 1.38 0.58
-9.02 1.46 0.54
-2.45 -1.69 1.24
-2.50 -1.66 1.23
-5.39 -1.64 0.73
-5.38 -1.62 0.73
-2.79 -1.06 1.20
-3.51 -1.17 1.07
-2.59 -0.99 1.23
-2.62 -0.98 1.23
-2.62 -0.96 1.23
-2.55 -0.94 1.24
-2.51 -0.91 1.25
-2.57 -0.89 1.24
-2.56 -0.88 1.24
-2.42 -0.84 1.26
-2.58 -0.85 1.24
-2.77 -0.86 1.20
-2.78 -0.85 1.20
-2.72 -0.81 1.21
-2.75 -0.80 1.21
-2.59 -0.77 1.24
-2.78 -0.78 1.20
-2.76 -0.76 1.21
-2.76 -0.75 1.21
-5.22 -1.06 0.77
-5.21 -1.02 0.77
-5.16 -1.00 0.78
-5.15 -0.98 0.78
-5.10 -0.95 0.79
-4.94 -0.92 0.82
-4.95 -0.88 0.82
-4.86 -0.83 0.84
-5.03 -0.83 0.81
-4.92 -0.80 0.83
-4.96 -0.79 0.82
-4.88 -0.76 0.83
-4.82 -0.74 0.84
-4.81 -0.72 0.85
-4.92 -0.71 0.83
-4.97 -0.70 0.82
-4.97 -0.68 0.82
-5.02 -0.67 0.81
-4.94 -0.64 0.82
-5.05 -0.63 0.81
-5.07 -0.59 0.80
-5.15 -0.58 0.79
-5.45 -0.58 0.73
-5.32 -0.56 0.76
-5.20 -0.53 0.78
-5.24 -0.51 0.77
-5.38 -0.48 0.75
-6.48 -0.52 0.55
-6.49 -0.48 0.55
-5.72 -0.42 0.69
-6.62 -0.44 0.53
-5.03 -0.35 0.81
-5.02 -0.33 0.81
-4.82 -0.29 0.85
-4.82 -0.27 0.84
-5.02 -0.24 0.81
-5.00 -0.22 0.81
-5.09 -0.20 0.80
-5.12 -0.17 0.79
-5.49 -0.15 0.73
-8.17 -0.10 0.73
-8.08 -0.08 0.74
-10.41 -0.08 0.33
-10.24 -0.06 0.36
-7.08 -0.02 0.92
-10.34 -0.01 0.34
-2.09 0.00 1.28
-1.94 0.01 1.31
-2.21 0.02 1.26
-1.76 0.03 1.34
-1.79 0.04 1.33
-2.07 0.06 1.28
-2.88 0.08 1.13
-1.65 0.07 1.36
-1.76 0.09 1.34
-2.04 0.10 1.29
-3.12 0.14 1.09
-6.61 0.20 0.94
-6.66 0.22 0.93
-6.71 0.24 0.92
-6.81 0.26 0.90
-6.64 0.27 0.93
-6.78 0.29 0.91
-6.66 0.32 0.93
-6.47 0.32 0.96
-6.47 0.34 0.96
-6.62 0.36 0.94
-6.68 0.38 0.92
-6.55 0.39 0.95
-7.08 0.44 0.85
-6.70 0.45 0.92
-6.80 0.47 0.90
-6.90 0.49 0.88
-6.82 0.50 0.90
-7.11 0.54 0.84
-7.43 0.58 0.78
-7.25 0.59 0.81
-7.30 0.63 0.80
-5.10 0.45 1.21
-7.31 0.66 0.80
-8.12 0.76 0.65
-8.65 0.83 0.55
-7.66 0.75 0.73
-8.41 0.84 0.59
-7.56 0.80 0.75
-7.61 0.82 0.74
-7.54 0.83 0.75
-7.61 0.86 0.74
-4.07 0.48 1.40
-7.61 0.90 0.74
-8.01 0.96 0.66
-4.77 0.60 1.27
-7.92 1.01 0.68
-7.96 1.03 0.67
-8.34 1.10 0.60
-8.25 1.11 0.61
-8.36 1.15 0.59
-8.30 1.16 0.60
-8.32 1.18 0.60
-4.38 0.65 1.34
-4.14 0.63 1.38
-4.25 0.66 1.36
-4.43 0.69 1.33
-8.68 1.36 0.53
-4.02 0.67 1.40
-8.14 1.38 0.62
-8.36 1.44 0.58
-0.56 -1.18 1.55
-2.13 -1.60 1.25
-2.20 -1.54 1.25
-0.80 -0.80 1.52
-4.98 -1.57 0.74
-2.44 -0.92 1.21
-2.29 -0.88 1.24
-2.62 -0.92 1.18
-2.42 -0.88 1.22
-2.72 -0.91 1.16
-2.62 -0.88 1.18
-2.59 -0.87 1.19
-2.62 -0.86 1.18
-2.58 -0.84 1.19
-2.58 -0.83 1.19
-2.48 -0.80 1.21
-2.35 -0.77 1.24
-2.55 -0.78 1.20
-2.56 -0.77 1.20
-2.56 -0.76 1.20
-2.77 -0.78 1.16
-5.37 -1.12 0.68
-5.22 -1.08 0.70
-2.84 -0.75 1.14
-3.08 -0.76 1.10
-3.14 -0.76 1.09
-3.19 -0.75 1.08
-5.15 -0.98 0.72
-3.14 -0.71 1.09
-3.04 -0.69 1.11
-2.87 -0.66 1.14
-2.96 -0.65 1.12
-5.03 -0.87 0.74
-4.96 -0.84 0.75
-4.91 -0.82 0.76
-4.93 -0.80 0.76
-4.81 -0.77 0.78
-4.82 -0.75 0.78
-3.81 -0.64 0.97
-4.73 -0.71 0.80
-5.00 -0.72 0.75
-4.61 -0.66 0.82
-4.66 -0.65 0.81
-4.73 -0.64 0.80
-4.88 -0.63 0.77
-4.78 -0.61 0.79
-5.11 -0.62 0.73
-5.15 -0.60 0.72
-5.22 -0.59 0.71
-5.26 -0.57 0.70
-5.07 -0.54 0.73
-5.14 -0.52 0.72
-5.04 -0.50 0.74
-5.45 -0.50 0.67
-5.45 -0.48 0.67
-5.25 -0.45 0.70
-5.39 -0.44 0.68
-4.58 -0.38 0.82
-6.24 -0.45 0.52
-4.82 -0.36 0.78
-6.15 -0.40 0.54
-4.84 -0.32 0.78
-5.07 -0.31 0.73
-5.45 -0.31 0.67
-2.26 -0.18 1.25
-2.47 -0.17 1.21
-5.07 -0.24 0.73
-2.13 -0.14 1.28
-2.34 -0.13 1.24
-2.28 -0.12 1.25
-2.15 -0.10 1.27
-2.16 -0.09 1.27
-2.18 -0.08 1.26
-2.26 -0.07 1.25
-2.26 -0.06 1.25
-2.21 -0.05 1.26
-2.20 -0.03 1.26
-2.28 -0.02 1.25
-2.08 -0.01 1.28
-8.48 0.01 0.52
-8.96 0.06 0.43
-7.14 0.11 0.78
-9.73 0.18 0.28
-7.06 0.16 0.79
-9.45 0.24 0.33
-6.74 0.19 0.85
-6.89 0.21 0.82
-6.59 0.22 0.88
-6.60 0.23 0.88
-6.68 0.25 0.87
-6.46 0.26 0.91
-6.51 0.28 0.90
-6.52 0.29 0.90
-7.20 0.34 0.76
-6.61 0.33 0.88
-6.35 0.33 0.93
-6.29 0.34 0.94
-6.55 0.37 0.89
-6.72 0.40 0.85
-6.77 0.42 0.84
-6.90 0.44 0.82
-6.89 0.46 0.82
-6.86 0.47 0.83
-7.32 0.52 0.73
-7.07 0.52 0.78
-7.32 0.56 0.73
-7.10 0.56 0.78
-6.98 0.57 0.80
-7.36 0.62 0.73
-7.39 0.64 0.72
-7.35 0.65 0.73
-7.31 0.67 0.73
-7.79 0.73 0.64
-7.53 0.72 0.69
-8.05 0.79 0.59
-7.44 0.75 0.71
-7.85 0.81 0.62
-7.58 0.80 0.68
-8.70 0.94 0.46
-7.49 0.83 0.69
-7.52 0.85 0.69
-7.63 0.88 0.66
-8.29 0.98 0.54
-7.84 0.94 0.62
-7.89 0.97 0.61
-7.96 1.00 0.60
-7.96 1.02 0.60
-7.97 1.04 0.59
-8.09 1.07 0.57
-8.03 1.08 0.58
-8.27 1.14 0.53
-8.47 1.19 0.49
-8.23 1.17 0.54
-8.49 1.23 0.49
-8.02 1.18 0.58
-8.00 1.20 0.58
-8.21 1.25 0.54
-8.72 1.35 0.44
-8.77 1.38 0.43
-8.62 1.38 0.46
-8.45 1.37 0.49
-8.26 1.36 0.53
-8.18 1.37 0.54
-7.90 1.34 0.60
-8.16 1.41 0.54
-7.91 1.38 0.59
-7.93 1.41 0.59
-7.90 1.42 0.59
-7.89 1.44 0.59
-7.60 1.41 0.65
-7.64 1.43 0.64
-7.50 1.45 0.67
-7.66 1.50 0.63
-7.53 1.49 0.66
-7.42 1.49 0.68
-2.37 -1.66 1.16
-2.55 -1.63 1.12
-2.31 -1.48 1.18
-5.41 -1.64 0.58
-2.79 -1.09 1.10
-2.74 -1.07 1.11
-2.67 -1.03 1.12
-2.78 -1.04 1.10
-2.63 -0.99 1.13
-2.88 -1.03 1.08
-2.70 -0.98 1.12
-2.74 -0.98 1.11
-2.63 -0.94 1.13
-2.73 -0.95 1.11
-2.58 -0.91 1.14
-2.75 -0.92 1.11
-2.84 -0.93 1.09
-2.89 -0.92 1.08
-2.61 -0.86 1.13
-2.70 -0.86 1.12
-2.61 -0.84 1.13
-2.71 -0.84 1.12
-2.73 -0.83 1.11
-2.85 -0.83 1.09
-2.76 -0.81 1.11
-2.90 -0.81 1.08
-2.83 -0.79 1.09
-2.87 -0.78 1.09
-2.69 -0.74 1.12
-3.04 -0.78 1.05
-5.33 -1.06 0.61
-5.42 -1.05 0.59
-5.24 -1.01 0.63
-5.23 -0.99 0.63
-5.11 -0.96 0.65
-5.13 -0.94 0.65
-5.02 -0.91 0.67
-4.88 -0.87 0.70
-4.96 -0.86 0.68
-4.82 -0.83 0.71
-4.73 -0.80 0.73
-4.88 -0.80 0.70
-4.90 -0.78 0.69
-4.93 -0.77 0.69
-4.99 -0.76 0.68
-5.14 -0.75 0.65
-4.98 -0.72 0.68
-4.96 -0.70 0.68
-4.88 -0.67 0.70
-4.55 -0.63 0.76
-4.66 -0.62 0.74
-4.66 -0.60 0.74
-4.88 -0.60 0.70
-4.72 -0.57 0.73
-4.42 -0.53 0.79
-4.82 -0.54 0.71
-4.98 -0.53 0.68
-4.85 -0.51 0.71
-4.64 -0.47 0.75
-4.55 -0.45 0.76
-4.98 -0.46 0.68
-5.43 -0.47 0.59
-5.76 -0.46 0.53
-4.72 -0.39 0.73
-4.59 -0.37 0.76
-5.25 -0.38 0.63
-4.75 -0.34 0.73
-6.08 -0.38 0.47
-6.17 -0.36 0.45
-5.75 -0.32 0.53
-7.75 -0.27 0.66
-7.73 -0.25 0.67
-7.76 -0.23 0.66
-6.93 -0.19 0.82
-7.46 -0.18 0.72
-7.75 -0.17 0.66
-8.01 -0.16 0.61
-8.00 -0.14 0.62
-8.19 -0.12 0.58
-8.48 -0.11 0.52
-8.38 -0.09 0.54
-8.30 -0.07 0.55
-8.35 -0.05 0.55
-8.30 -0.03 0.55
-8.38 -0.01 0.54
-1.93 0.00 1.23
-1.88 0.01 1.24
-1.91 0.02 1.23
-2.07 0.04 1.20
-1.66 0.04 1.28
-1.29 0.05 1.36
-1.11 0.06 1.39
-1.41 0.07 1.33
-1.40 0.08 1.33
-1.17 0.09 1.38
-1.94 0.11 1.22
-0.88 0.10 1.44
-1.83 0.13 1.25
-2.26 0.16 1.16
-1.63 0.15 1.29
-2.51 0.19 1.11
-2.12 0.20 1.19
-1.67 0.19 1.28
-6.45 0.32 0.86
-6.30 0.33 0.89
-6.48 0.35 0.85
-6.36 0.36 0.88
-6.40 0.38 0.87
-6.25 0.39 0.90
-6.45 0.41 0.85
-6.66 0.44 0.81
-6.14 0.42 0.92
-6.41 0.47 0.86
-6.67 0.54 0.81
-4.35 0.38 1.28
-7.17 0.65 0.70
-7.46 0.69 0.65
-4.16 0.40 1.32
-8.06 0.79 0.52
-7.49 0.75 0.64
-7.67 0.79 0.60
-8.46 0.89 0.44
-7.67 0.83 0.60
-7.50 0.83 0.63
-7.78 0.88 0.57
-7.52 0.86 0.63
-7.60 0.89 0.61
-7.75 0.93 0.58
-7.50 0.92 0.63
-8.06 1.00 0.51
-7.95 1.01 0.54
-7.84 1.02 0.56
-7.92 1.05 0.54
-8.48 1.16 0.42
-7.82 1.11 0.56
-7.95 1.15 0.53
-7.80 1.15 0.56
-8.05 1.34 0.50
-0.90 -0.83 1.44
-2.38 -0.78 1.14
-2.32 -0.76 1.15
-2.20 -0.73 1.18
-2.03 -0.69 1.21
-2.46 -0.74 1.13
-2.11 -0.68 1.20
-2.48 -0.71 1.12
-1.55 -0.56 1.31
-5.56 -1.07 0.50
-5.55 -1.03 0.50
-2.38 -0.62 1.14
-2.38 -0.61 1.14
-2.03 -0.55 1.21
-1.93 -0.50 1.23
-2.96 -0.60 1.03
-3.30 -0.60 0.96
-2.11 -0.47 1.20
-2.06 -0.45 1.21
-4.58 -0.66 0.70
-4.35 -0.62 0.75
-2.03 -0.41 1.21
-3.25 -0.50 0.97
-4.05 -0.55 0.81
-3.80 -0.51 0.86
-3.96 -0.51 0.83
-3.85 -0.49 0.85
-3.50 -0.45 0.92
-3.70 -0.44 0.88
-3.35 -0.41 0.95
-3.37 -0.39 0.94
-3.96 -0.41 0.83
-2.93 -0.34 1.03
-3.74 -0.37 0.87
-3.37 -0.33 0.94
-3.38 -0.32 0.94
-3.65 -0.32 0.89
-2.49 -0.25 1.12
-2.19 -0.21 1.18
-2.25 -0.20 1.17
-6.35 -0.32 0.34
-2.29 -0.17 1.16
-2.01 -0.14 1.22
-2.18 -0.13 1.18
-2.06 -0.11 1.21
-2.12 -0.10 1.19
-1.97 -0.09 1.22
-2.16 -0.08 1.18
-2.08 -0.07 1.20
-2.20 -0.06 1.18
-2.34 -0.05 1.15
-2.17 -0.03 1.18
-1.95 -0.02 1.23
-2.08 -0.01 1.20
-7.55 0.01 0.56
-7.55 0.03 0.56
-6.91 0.04 0.70
-7.53 0.07 0.56
-6.53 0.09 0.78
-7.07 0.11 0.66
-6.67 0.14 0.75
-6.94 0.16 0.69
-6.74 0.17 0.73
-6.71 0.19 0.74
-6.76 0.21 0.73
-6.80 0.24 0.72
-6.62 0.25 0.75
-6.70 0.27 0.74
-6.52 0.28 0.77
-6.25 0.28 0.83
-6.19 0.29 0.84
-8.22 0.41 0.41
-6.52 0.34 0.77
-6.44 0.35 0.79
-6.62 0.39 0.75
-6.58 0.41 0.76
-6.55 0.42 0.77
-6.71 0.47 0.73
-6.39 0.46 0.80
-6.86 0.51 0.70
-7.04 0.56 0.66
-7.29 0.59 0.60
-7.01 0.59 0.66
-6.87 0.59 0.69
-6.84 0.61 0.70
-6.88 0.63 0.69
-7.03 0.66 0.66
-7.26 0.70 0.61
-7.69 0.76 0.51
-7.41 0.75 0.57
-7.43 0.77 0.57
-7.33 0.78 0.59
-7.52 0.81 0.55
-7.29 0.81 0.60
-7.44 0.84 0.56
-7.38 0.85 0.58
-7.45 0.88 0.56
-7.46 0.90 0.56
-7.34 0.90 0.58
-7.43 0.93 0.56
-7.45 0.95 0.56
-7.73 1.01 0.50
-7.74 1.03 0.49
-7.75 1.05 0.49
-7.70 1.06 0.50
-8.08 1.13 0.42
-7.70 1.10 0.50
-7.71 1.12 0.50
-7.68 1.14 0.50
-7.63 1.15 0.51
-7.76 1.19 0.48
-7.70 1.19 0.50
-7.93 1.25 0.45
-7.59 1.22 0.52
-7.62 1.24 0.51
-7.62 1.26 0.51
-7.69 1.29 0.49
-7.66 1.30 0.50
-7.45 1.29 0.54
-7.50 1.33 0.53
-7.24 1.40 0.58
-7.28 1.42 0.57
-7.09 1.41 0.61
-7.20 1.45 0.59
-4.88 -1.61 0.54
-2.48 -1.01 1.06
-2.70 -1.04 1.01
-2.79 -1.04 0.99
-2.52 -0.98 1.05
-2.54 -0.97 1.05
-2.47 -0.94 1.06
-2.56 -0.94 1.04
-2.65 -0.95 1.02
-2.71 -0.94 1.01
-2.59 -0.91 1.04
-2.61 -0.90 1.04
-2.54 -0.88 1.05
-2.56 -0.87 1.04
-2.68 -0.87 1.02
-2.67 -0.86 1.02
-2.68 -0.85 1.02
-2.69 -0.84 1.02
-2.80 -0.84 1.00
-2.88 -0.84 0.98
-2.86 -0.82 0.98
-2.92 -0.82 0.97
-2.80 -0.79 0.99
-2.73 -0.76 1.01
-2.83 -0.76 0.99
-2.85 -0.75 0.99
-2.66 -0.71 1.03
-3.05 -0.75 0.94
-2.99 -0.73 0.96
-2.73 -0.68 1.01
-3.37 -0.75 0.88
-3.47 -0.74 0.85
-5.18 -0.93 0.49
-5.26 -0.92 0.48
-5.18 -0.89 0.49
-5.28 -0.88 0.47
-5.04 -0.84 0.52
-2.82 -0.59 0.99
-4.89 -0.78 0.55
-4.91 -0.77 0.55
-4.82 -0.74 0.57
-4.32 -0.68 0.68
-4.43 -0.67 0.65
-4.63 -0.67 0.61
-4.26 -0.62 0.69
-4.22 -0.60 0.70
-3.79 -0.55 0.79
-3.76 -0.53 0.79
-3.61 -0.50 0.83
-3.68 -0.49 0.81
-3.66 -0.48 0.82
-3.89 -0.48 0.77
-3.20 -0.41 0.91
-3.70 -0.43 0.81
-3.65 -0.41 0.82
-3.38 -0.38 0.88
-3.43 -0.37 0.87
-3.57 -0.36 0.83
-7.61 -0.39 0.55
-7.61 -0.37 0.55
-7.27 -0.34 0.62
-6.90 -0.30 0.70
-6.76 -0.28 0.73
-6.96 -0.27 0.69
-7.26 -0.27 0.62
-7.18 -0.25 0.64
-7.67 -0.25 0.54
-7.89 -0.23 0.49
-7.86 -0.21 0.50
-7.79 -0.19 0.51
-7.66 -0.17 0.54
-8.09 -0.16 0.45
-7.81 -0.14 0.51
-7.68 -0.12 0.54
-8.16 -0.10 0.43
-8.24 -0.09 0.42
-8.05 -0.06 0.46
-8.00 -0.05 0.47
-6.55 -0.02 0.77
-7.78 -0.01 0.51
-4.29 0.00 0.62
-3.58 0.02 0.77
-3.40 0.03 0.81
-3.50 0.03 1.39
-7.90 0.11 0.41
-6.83 0.11 0.65
-6.60 0.12 0.70
-6.61 0.14 0.70
-6.58 0.15 0.71
-6.44 0.17 0.74
-6.39 0.19 0.75
-6.36 0.21 0.75
-6.51 0.23 0.72
-6.58 0.25 0.70
-6.50 0.26 0.72
-6.68 0.28 0.68
-6.30 0.28 0.76
-6.34 0.30 0.75
-6.20 0.31 0.79
-6.39 0.33 0.74
-6.63 0.41 0.69
-5.14 0.34 1.02
-5.00 0.35 1.05
-6.98 0.52 0.61
-7.37 0.56 0.52
-7.12 0.56 0.58
-6.86 0.56 0.63
-6.83 0.57 0.64
-6.60 0.57 0.69
-6.41 0.57 0.73
-6.98 0.63 0.60
-7.29 0.70 0.53
-7.24 0.73 0.54
-7.39 0.76 0.51
-7.47 0.79 0.49
-7.50 0.81 0.48
-7.57 0.83 0.47
-7.35 0.83 0.51
-7.32 0.84 0.52
-7.25 0.85 0.53
-7.33 0.88 0.52
-7.30 0.90 0.52
-7.38 0.92 0.50
-7.42 0.95 0.50
-7.64 0.99 0.45
-7.88 1.04 0.39
-7.64 1.03 0.44
-7.57 1.04 0.46
-7.64 1.07 0.44
-3.96 0.57 1.27
-7.55 1.09 0.46
-7.79 1.15 0.41
-7.75 1.16 0.41
-7.87 1.20 0.39
-7.29 1.13 0.52
-7.58 1.19 0.45
-7.85 1.25 0.39
-7.44 1.21 0.48
-7.59 1.25 0.44
-7.17 1.20 0.54
-7.28 1.24 0.51
-7.63 1.31 0.43
-7.20 1.26 0.53
-7.25 1.29 0.52
-7.30 1.31 0.50
-7.17 1.36 0.53
-3.86 0.76 1.28
-2.26 -1.01 1.06
-2.42 -1.01 1.03
-2.49 -0.99 1.01
-2.49 -0.98 1.01
-2.70 -1.00 0.96
-2.63 -0.98 0.98
-2.49 -0.94 1.01
-2.57 -0.94 1.00
-2.61 -0.94 0.99
-2.60 -0.92 0.99
-2.38 -0.87 1.04
-2.69 -0.91 0.97
-2.57 -0.88 1.00
-2.52 -0.86 1.01
-2.71 -0.87 0.97
-2.67 -0.86 0.97
-2.59 -0.83 0.99
-2.66 -0.83 0.98
-2.70 -0.82 0.97
-2.34 -0.75 1.05
-2.79 -0.81 0.95
-2.64 -0.77 0.98
-2.53 -0.74 1.01
-2.51 -0.73 1.01
-2.47 -0.71 1.02
-2.42 -0.69 1.03
-2.46 -0.68 1.02
-2.52 -0.68 1.01
-2.53 -0.67 1.01
-2.66 -0.67 0.98
-2.60 -0.65 0.99
-2.39 -0.61 1.04
-2.56 -0.62 1.00
-2.63 -0.62 0.99
-2.35 -0.57 1.05
-2.37 -0.56 1.04
-3.20 -0.64 0.86
-3.28 -0.63 0.84
-2.99 -0.59 0.91
-4.23 -0.70 0.63
-2.97 -0.56 0.91
-3.10 -0.56 0.88
-3.93 -0.62 0.70
-3.64 -0.58 0.76
-3.45 -0.55 0.81
-3.48 -0.53 0.80
-3.33 -0.51 0.83
-3.42 -0.50 0.81
-3.38 -0.48 0.82
-3.41 -0.47 0.81
-3.41 -0.45 0.81
-3.38 -0.44 0.82
-3.46 -0.43 0.80
-3.39 -0.41 0.82
-3.37 -0.39 0.82
-3.39 -0.38 0.82
-3.51 -0.37 0.79
-3.64 -0.36 0.76
-2.55 -0.25 1.00
-2.25 -0.20 1.07
-2.37 -0.20 1.04
-2.24 -0.18 1.07
-2.39 -0.17 1.04
-2.57 -0.16 1.00
-2.29 -0.14 1.06
-2.15 -0.13 1.09
-2.22 -0.12 1.07
-2.26 -0.11 1.07
-2.29 -0.10 1.06
-2.24 -0.08 1.07
-2.54 -0.08 1.00
-2.48 -0.06 1.02
-2.95 -0.01 0.91
-6.43 0.15 0.67
-6.56 0.17 0.64
-6.55 0.18 0.64
-6.80 0.22 0.58
-6.82 0.24 0.58
-6.79 0.26 0.59
-6.75 0.27 0.60
-6.80 0.29 0.58
-6.64 0.30 0.62
-6.48 0.31 0.66
-6.54 0.33 0.64
-6.66 0.35 0.61
-6.54 0.37 0.64
-6.47 0.39 0.66
-6.38 0.40 0.68
-6.42 0.41 0.67
-6.86 0.62 0.56
-7.62 0.75 0.38
-7.58 0.76 0.39
-7.50 0.79 0.40
-7.52 0.81 0.40
-7.36 0.81 0.44
-7.70 0.87 0.36
-7.56 0.89 0.39
-7.63 0.92 0.37
-7.53 0.92 0.39
-7.47 0.94 0.41
-7.52 0.96 0.39
-7.65 1.00 0.36
-7.46 0.99 0.41
-7.56 1.17 0.37
-7.33 1.21 0.43
-7.37 1.23 0.42
-7.46 1.27 0.39
-7.21 1.25 0.45
-7.25 1.27 0.44
-7.21 1.28 0.45
-7.18 1.29 0.46
-7.42 1.36 0.40
-7.35 1.36 0.41
-7.13 1.36 0.46
-2.79 -0.98 0.89
-2.95 -1.00 0.85
-2.98 -0.97 0.84
-2.79 -0.93 0.89
-2.86 -0.93 0.87
-2.89 -0.92 0.87
-3.10 -0.92 0.82
-2.99 -0.89 0.84
-2.93 -0.86 0.86
-2.97 -0.85 0.85
-3.00 -0.84 0.84
-3.06 -0.83 0.83
-3.24 -0.83 0.79
-2.75 -0.75 0.90
-2.89 -0.74 0.87
-2.93 -0.73 0.86
-2.60 -0.67 0.94
-3.38 -0.73 0.75
-3.59 -0.71 0.71
-4.46 -0.77 0.51
-4.51 -0.76 0.50
-4.82 -0.76 0.42
-4.51 -0.71 0.50
-4.29 -0.65 0.55
-4.10 -0.62 0.59
-3.98 -0.59 0.62
-4.22 -0.60 0.56
-3.91 -0.54 0.64
-3.91 -0.52 0.63
-3.63 -0.47 0.70
-3.53 -0.45 0.72
-3.60 -0.44 0.71
-3.69 -0.43 0.69
-3.70 -0.40 0.68
-4.03 -0.40 0.61
-4.25 -0.38 0.56
-4.22 -0.36 0.56
-4.65 -0.35 0.46
-4.21 -0.30 0.56
-4.11 -0.28 0.59
-4.20 -0.25 0.57
-4.41 -0.24 0.52
-4.17 -0.11 0.57
-3.17 0.79 0.44
-0.71 -0.96 0.47
-0.74 -0.96 0.47
-3.27 0.51 0.30
-3.19 0.58 0.31
-3.20 0.58 0.29
-3.18 0.65 0.29
-1.07 -0.22 0.27
-1.05 -0.16 0.29
-15.58 0.19 1.78
-15.77 -0.31 1.76
-15.77 -0.27 1.76
-15.83 -0.73 1.66
-15.84 -1.18 1.58
-15.74 -1.08 1.58
-15.68 -1.04 1.59
-15.49 -0.98 1.59
-15.77 -0.91 1.58
-10.59 0.01 1.70
-15.53 -1.03 1.52
-15.59 -0.99 1.52
-15.52 -0.94 1.52
-15.62 -1.17 1.45
-15.42 -1.11 1.46
-15.25 -1.06 1.46
-15.48 -1.03 1.45
-15.52 -0.98 1.45
-15.38 -0.93 1.46
-15.38 -0.89 1.46
-12.56 -0.64 1.57
-15.52 -0.38 1.54
-15.48 -0.20 1.54
-10.34 0.01 1.61
-10.43 0.07 1.60
-10.48 0.14 1.60
-15.10 -1.05 1.40
-15.24 -1.01 1.39
-15.24 -0.97 1.39
-15.17 -0.84 1.40
-15.11 -0.71 1.40
-15.02 -0.66 1.40
-14.91 -0.61 1.41
-14.79 -0.53 1.41
-14.65 -0.48 1.42
-10.79 -0.15 1.59
-10.43 -0.11 1.60
-11.93 0.31 1.58
-15.48 -1.16 1.30
-15.48 -1.11 1.30
-15.21 -1.05 1.31
-15.06 -1.00 1.32
-15.83 -0.84 1.39
-15.91 -0.81 1.39
-15.75 -0.76 1.39
-15.41 -0.53 1.41
-15.30 -0.49 1.42
-15.05 -0.44 1.43
-10.91 -0.11 1.63
-15.20 -1.10 1.24
-15.22 -0.97 1.23
-15.11 -0.92 1.24
-15.01 -0.87 1.25
-14.91 -0.83 1.25
-14.70 -0.77 1.26
-14.72 -0.73 1.26
-14.67 -0.69 1.26
-14.66 -0.65 1.26
-14.38 -0.56 1.28
-14.60 -0.52 1.27
-14.67 -0.48 1.26
-14.36 -0.35 1.28
-14.66 -0.32 1.26
-10.65 -0.21 1.47
-10.44 -0.18 1.49
-10.39 -0.15 1.49
-10.41 -0.11 1.49
-10.40 -0.08 1.49
-10.26 -0.05 1.49
-10.12 -0.02 1.50
-11.45 0.13 1.50
-11.38 0.18 1.50
-12.26 0.23 1.45
-11.51 0.24 1.50
-11.58 0.27 1.49
-12.47 0.44 1.44
-15.39 -1.19 1.14
-15.30 -1.14 1.14
-14.87 -0.82 1.17
-14.74 -0.78 1.17
-14.55 -0.69 1.19
-14.44 -0.64 1.19
-14.57 -0.60 1.18
-14.38 -0.56 1.20
-14.55 -0.52 1.19
-14.44 -0.48 1.19
-14.69 -0.44 1.18
-14.59 -0.40 1.18
-14.44 -0.35 1.19
-14.36 -0.31 1.20
-14.23 -0.27 1.20
-10.44 -0.11 1.56
-10.46 -0.08 1.56
-10.66 -0.03 1.55
-10.48 0.01 1.36
-10.12 0.04 1.38
-14.16 0.09 1.13
-10.35 0.10 1.37
-13.93 0.17 1.14
-13.88 0.21 1.15
-13.95 0.25 1.14
-13.75 0.29 1.15
-15.01 -1.00 1.08
-15.04 -0.92 1.08
-12.44 -0.71 1.24
-12.19 -0.59 1.25
-12.14 -0.52 1.26
-14.41 -0.56 1.11
-14.39 -0.52 1.12
-14.80 -0.44 1.09
-14.75 -0.40 1.09
-14.50 -0.35 1.11
-14.34 -0.31 1.12
-10.34 -0.15 1.37
-10.40 -0.11 1.36
-10.56 -0.08 1.35
-10.59 -0.05 1.35
-10.48 -0.02 1.36
-11.06 0.02 1.42
-11.07 0.04 1.42
-11.13 0.07 1.41
-11.04 0.10 1.42
-11.43 0.13 1.39
-11.29 0.15 1.40
-11.35 0.18 1.40
-12.38 0.23 1.33
-12.53 0.26 1.32
-12.86 0.33 1.29
-11.62 0.32 1.38
-11.80 0.36 1.37
-12.70 0.42 1.30
-12.69 -1.42 1.14
-15.62 -1.12 0.95
-15.51 -0.98 0.96
-15.44 -0.94 0.96
-12.38 -0.67 1.17
-12.35 -0.60 1.17
-15.08 -0.52 1.14
-15.23 -0.48 1.13
-15.09 -0.44 1.14
-14.92 -0.40 1.15
-15.19 -0.34 1.14
-15.19 -0.30 1.13
-14.61 -0.26 1.17
-14.80 -0.22 1.16
-14.66 -0.19 1.17
-14.95 -0.15 1.15
-14.49 -0.12 1.18
-14.59 -0.05 1.18
-10.96 -0.01 1.42
-10.26 0.04 1.24
-10.16 0.10 1.24
-12.23 0.37 1.09
-12.61 -1.52 1.06
-12.52 -1.44 1.07
-12.49 -1.40 1.07
-12.70 -1.35 1.06
-8.59 -0.77 1.36
-15.40 -1.06 0.86
-15.62 -1.03 0.85
-15.48 -0.98 0.86
-14.62 -0.60 0.92
-14.59 -0.56 0.92
-14.62 -0.52 0.92
-14.41 -0.48 0.94
-14.49 -0.44 0.93
-14.58 -0.40 0.92
-14.74 -0.36 0.91
-14.64 -0.32 0.92
-10.77 -0.21 1.20
-14.46 -0.19 0.93
-10.46 -0.12 1.22
-10.64 -0.09 1.21
-10.51 -0.05 1.22
-10.58 -0.02 1.21
-11.08 0.02 1.29
-11.11 0.04 1.29
-11.16 0.07 1.29
-11.16 0.10 1.29
-11.82 0.13 1.23
-11.86 0.16 1.23
-12.11 0.19 1.21
-12.39 0.23 1.19
-12.25 0.25 1.20
-12.44 0.29 1.18
-12.77 0.39 1.16
-12.28 0.40 1.20
-12.57 0.44 1.17
-12.66 0.47 1.17
-12.52 0.50 1.18
-12.11 0.51 1.21
-12.59 0.56 1.17
-13.49 0.63 1.10
-12.34 0.61 1.19
-13.32 0.69 1.11
-11.83 0.67 1.23
-13.55 1.03 1.09
-13.51 1.12 1.09
-13.80 1.18 1.07
-6.23 -1.11 1.48
-6.79 -1.11 1.43
-6.98 -1.11 1.42
-6.64 -1.05 1.44
-6.58 -1.02 1.45
-6.56 -1.00 1.45
-7.18 -1.04 1.40
-12.56 -1.56 0.98
-12.62 -1.53 0.98
-6.89 -0.94 1.42
-12.60 -1.45 0.98
-12.42 -1.40 0.99
-6.80 -0.86 1.43
-6.65 -0.83 1.44
-8.38 -0.74 1.31
-6.48 -0.55 1.46
-12.55 -0.67 1.18
-12.62 -0.64 1.17
-15.21 -0.74 0.97
-15.17 -0.70 0.97
-15.19 -0.66 0.97
-15.31 -0.63 0.96
-15.11 -0.59 0.97
-15.00 -0.55 0.98
-15.02 -0.51 0.98
-15.19 -0.48 0.97
-15.10 -0.44 0.97
-14.95 -0.40 0.99
-11.36 -0.28 1.27
-11.30 -0.25 1.28
-11.18 -0.22 1.29
-11.26 -0.20 1.28
-15.09 -0.23 0.98
-14.88 -0.19 0.99
-10.98 -0.11 1.30
-11.02 -0.09 1.30
-11.02 -0.06 1.30
-11.09 -0.03 1.29
-11.19 -0.01 1.29
-14.26 0.01 0.76
-10.26 0.04 1.10
-11.86 0.08 1.17
-12.11 0.14 1.15
-12.27 0.22 1.14
-12.39 0.32 1.12
-14.65 0.44 0.93
-11.89 0.45 1.17
-12.41 0.52 1.12
-13.00 0.58 1.07
-12.64 0.84 1.10
-12.48 -1.66 0.91
-12.49 -1.59 0.91
-12.48 -1.55 0.91
-12.48 -1.51 0.91
-12.58 -1.49 0.90
-12.61 -1.45 0.90
-14.79 -0.95 0.72
-8.69 -0.54 1.23
-8.46 -0.47 1.25
-8.82 -0.46 1.22
-8.59 -0.40 1.24
-15.03 -0.58 0.70
-14.83 -0.49 0.72
-14.99 -0.45 0.70
-14.66 -0.36 0.73
-14.84 -0.32 0.72
-14.85 -0.24 0.72
-14.75 -0.15 0.72
-10.26 -0.08 1.10
-14.13 -0.03 0.78
-14.82 0.02 0.83
-11.18 0.07 1.16
-11.00 0.10 1.17
-12.17 0.14 1.07
-12.02 0.22 1.08
-11.62 0.24 1.12
-11.66 0.27 1.11
-11.78 0.30 1.10
-11.66 0.33 1.11
-11.84 0.36 1.09
-11.62 0.38 1.12
-12.26 0.43 1.06
-11.65 0.44 1.11
-11.96 0.48 1.08
-12.52 0.53 1.03
-13.03 0.58 0.99
-12.64 0.59 1.02
-12.88 0.64 1.00
-12.78 0.66 1.01
-12.33 0.70 1.05
-13.23 0.78 0.97
-13.02 0.80 0.98
-12.93 0.82 0.99
-12.30 0.84 1.05
-12.28 0.99 1.05
-13.84 1.32 0.90
-13.88 1.55 0.90
-5.74 -1.32 1.42
-5.47 -1.25 1.44
-5.84 -1.29 1.41
-6.00 -1.29 1.39
-5.76 -1.20 1.41
-6.00 -1.21 1.39
-5.93 -1.18 1.40
-6.46 -1.23 1.35
-5.97 -1.14 1.40
-6.62 -1.20 1.34
-6.54 -1.15 1.34
-6.55 -1.11 1.34
-6.77 -1.11 1.32
-6.68 -1.08 1.33
-12.22 -1.63 0.83
-6.61 -0.98 1.34
-6.70 -0.96 1.33
-6.32 -0.90 1.37
-12.40 -1.47 0.82
-6.36 -0.86 1.36
-6.43 -0.85 1.36
-6.35 -0.82 1.36
-6.21 -0.77 1.38
-6.39 -0.74 1.36
-11.37 -1.10 0.91
-11.41 -1.07 0.91
-11.41 -0.73 0.91
-8.76 -0.49 1.15
-8.38 -0.42 1.18
-8.71 -0.40 1.15
-14.27 -0.55 0.66
-14.78 -0.44 0.61
-14.41 -0.39 0.64
-14.31 -0.35 0.65
-14.68 -0.32 0.62
-10.90 -0.14 1.18
-10.80 -0.11 1.19
-15.05 -0.08 0.81
-10.90 -0.03 1.18
-11.12 -0.01 1.16
-13.49 0.13 0.63
-10.16 0.19 0.95
-10.38 0.23 0.93
-11.52 0.32 0.82
-11.70 0.36 0.80
-11.99 0.33 1.02
-11.58 0.35 1.06
-11.71 0.38 1.04
-12.27 0.43 0.99
-12.48 0.47 0.97
-11.75 0.47 1.04
-12.79 0.63 0.94
-13.47 0.73 0.87
-12.82 0.72 0.93
-13.18 0.78 0.90
-13.08 0.80 0.91
-12.59 0.86 0.95
-12.50 0.89 0.96
-12.18 0.89 0.99
-12.02 0.91 1.01
-14.07 1.13 0.81
-13.73 1.67 0.83
-5.88 -1.27 1.36
-5.33 -1.15 1.41
-5.84 -1.18 1.36
-6.31 -1.21 1.32
-6.41 -1.17 1.31
-6.58 -1.06 1.29
-6.80 -1.06 1.27
-6.38 -1.00 1.31
-6.61 -1.00 1.29
-6.53 -0.97 1.30
-6.72 -0.96 1.28
-6.36 -0.91 1.31
-6.45 -0.89 1.30
-6.42 -0.87 1.31
-6.50 -0.85 1.30
-6.31 -0.81 1.32
-6.30 -0.77 1.32
-6.28 -0.75 1.32
-11.32 -0.99 0.84
-11.09 -0.94 0.86
-11.10 -0.91 0.86
-11.26 -0.89 0.85
-8.77 -0.54 1.08
-8.91 -0.52 1.07
-8.74 -0.48 1.09
-8.91 -0.46 1.07
-14.56 -0.52 0.53
-14.55 -0.36 0.54
-9.62 -0.23 1.00
-9.61 -0.20 1.00
-9.71 -0.17 0.99
-14.60 -0.19 0.53
-14.58 -0.15 0.53
-9.96 -0.08 0.97
-11.23 0.07 1.02
-11.18 0.10 1.02
-11.36 0.13 1.00
-11.30 0.15 1.01
-11.33 0.18 1.01
-11.30 0.21 1.01
-11.70 0.24 0.97
-11.25 0.26 1.01
-11.32 0.29 1.01
-11.30 0.32 1.01
-11.41 0.37 1.00
-11.38 0.40 1.00
-11.66 0.44 0.97
-12.16 0.48 0.92
-11.26 0.48 1.01
-12.77 0.57 0.85
-11.57 0.54 0.98
-12.62 0.62 0.87
-12.40 0.64 0.89
-13.60 0.74 0.77
-12.69 0.72 0.86
-12.70 0.75 0.86
-12.50 0.80 0.88
-11.85 0.84 0.95
-11.68 0.86 0.96
-14.12 1.27 0.71
-13.55 1.49 0.76
-13.81 1.62 0.73
-13.71 1.64 0.74
-13.48 1.64 0.77
-13.59 1.69 0.76
-5.94 -1.31 1.29
-6.30 -1.32 1.25
-6.08 -1.26 1.28
-6.16 -1.25 1.27
-6.48 -1.28 1.24
-6.46 -1.25 1.24
-6.32 -1.21 1.25
-6.27 -1.16 1.26
-6.39 -1.15 1.25
-6.40 -1.13 1.25
-6.46 -1.12 1.24
-6.32 -1.08 1.25
-6.38 -1.06 1.25
-6.55 -1.06 1.23
-6.34 -1.02 1.25
-6.55 -1.02 1.23
-6.26 -0.96 1.26
-6.19 -0.94 1.27
-6.09 -0.90 1.28
-6.20 -0.89 1.27
-6.14 -0.87 1.27
-6.26 -0.86 1.26
-6.42 -0.85 1.25
-6.30 -0.82 1.26
-6.20 -0.79 1.27
-6.21 -0.77 1.27
-6.05 -0.73 1.28
-6.06 -0.71 1.28
-5.98 -0.68 1.29
-6.16 -0.68 1.27
-11.28 -1.03 0.75
-11.22 -0.99 0.76
-11.21 -0.96 0.76
-7.09 -0.65 1.18
-6.91 -0.62 1.20
-6.82 -0.59 1.21
-12.70 -0.76 0.61
-14.17 -0.63 0.46
-15.41 -0.49 0.59
-15.45 -0.46 0.58
-15.22 -0.41 0.61
-10.75 -0.26 1.07
-10.59 -0.24 1.08
-10.90 -0.22 1.05
-10.99 -0.19 1.04
-10.88 -0.16 1.05
-10.94 -0.14 1.05
-10.82 -0.11 1.06
-14.98 -0.12 0.63
-13.84 -0.01 0.75
-9.88 0.07 0.81
-11.91 0.50 0.59
-12.67 0.71 0.51
-14.47 1.30 0.58
-13.25 1.29 0.71
-13.41 1.47 0.69
-13.82 1.55 0.64
-13.99 1.60 0.63
-13.98 1.63 0.63
-13.56 1.65 0.67
-12.63 -1.49 0.51
-12.65 -1.45 0.51
-12.03 -1.22 0.58
-11.91 -1.17 0.59
-11.49 -1.04 0.64
-11.41 -1.00 0.65
-12.12 -0.94 0.57
-8.19 -0.57 1.00
-14.24 -0.75 0.34
-14.45 -0.52 0.32
-9.63 -0.32 0.84
-9.30 -0.28 0.88
-14.27 -0.35 0.34
-9.92 -0.23 0.81
-9.84 -0.20 0.82
-9.80 -0.17 0.82
-9.93 -0.14 0.81
-9.73 -0.11 0.83
-9.72 -0.08 0.83
-9.80 -0.05 0.82
-9.80 -0.02 0.82
-14.35 0.02 0.50
-11.00 0.04 0.89
-14.39 0.09 0.50
-11.27 0.10 0.86
-14.10 0.16 0.53
-11.18 0.15 0.87
-11.23 0.18 0.87
-11.06 0.20 0.88
-11.26 0.23 0.86
-11.11 0.26 0.88
-14.05 0.36 0.54
-12.10 0.34 0.76
-11.83 0.36 0.79
-12.03 0.39 0.77
-13.49 0.47 0.60
-13.50 0.54 0.60
-13.33 0.56 0.62
-13.62 0.61 0.58
-12.56 0.59 0.71
-12.23 0.66 0.74
-12.46 0.71 0.72
-12.55 0.74 0.71
-10.84 0.72 0.91
-11.42 0.79 0.84
-11.62 0.83 0.81
-11.68 0.86 0.81
-11.69 0.89 0.80
-13.22 1.03 0.63
-14.12 1.14 0.52
-13.17 1.09 0.63
-13.14 1.38 0.63
-11.94 1.34 0.77
-13.63 1.60 0.57
-13.22 1.58 0.62
-5.99 -1.19 1.17
-6.14 -1.17 1.15
-6.62 -1.21 1.10
-6.38 -1.15 1.12
-6.35 -1.13 1.13
-6.34 -1.11 1.13
-6.32 -1.08 1.13
-6.52 -1.08 1.11
-6.65 -1.08 1.09
-6.52 -1.04 1.11
-6.54 -1.02 1.11
-6.45 -0.99 1.12
-6.34 -0.95 1.13
-6.24 -0.92 1.14
-6.38 -0.91 1.13
-6.24 -0.88 1.14
-6.45 -0.88 1.12
-6.25 -0.83 1.14
-6.05 -0.80 1.16
-6.00 -0.77 1.17
-5.96 -0.75 1.17
-6.16 -0.74 1.15
-6.15 -0.72 1.15
-6.12 -0.70 1.16
-6.23 -0.68 1.14
-6.29 -0.67 1.14
-6.28 -0.64 1.14
-6.52 -0.64 1.11
-11.52 -0.91 0.54
-6.82 -0.57 1.08
-14.60 -0.71 0.48
-14.41 -0.67 0.50
-14.40 -0.63 0.50
-14.50 -0.60 0.49
-14.63 -0.57 0.47
-14.85 -0.51 0.45
-14.80 -0.47 0.45
-15.15 -0.45 0.41
-14.92 -0.40 0.44
-15.09 -0.37 0.42
-15.01 -0.34 0.43
-11.01 -0.22 0.89
-10.80 -0.19 0.92
-10.96 -0.17 0.90
-10.95 -0.14 0.90
-10.80 -0.11 0.92
-10.64 -0.01 0.94
-9.84 0.01 0.65
-10.12 0.04 0.61
-11.07 0.07 0.81
-10.86 0.09 0.84
-11.03 0.12 0.82
-11.12 0.15 0.81
-11.23 0.18 0.79
-13.99 0.25 0.45
-11.25 0.23 0.79
-11.91 0.27 0.71
-11.74 0.30 0.73
-11.65 0.32 0.74
-13.68 0.41 0.49
-12.65 0.41 0.61
-12.12 0.42 0.68
-13.46 0.50 0.51
-11.98 0.48 0.70
-11.49 0.49 0.76
-10.82 0.48 0.84
-13.58 0.64 0.50
-13.61 0.67 0.49
-12.09 0.63 0.68
-13.16 0.71 0.55
-12.90 0.73 0.58
-12.37 0.73 0.65
-11.23 0.77 0.79
-11.23 0.80 0.78
-13.20 1.03 0.54
-13.04 1.05 0.56
-12.82 1.13 0.58
-13.16 1.25 0.54
-13.16 1.28 0.54
-13.06 1.34 0.55
-13.16 1.38 0.54
-13.51 1.45 0.50
-12.98 1.45 0.56
-13.61 1.59 0.48
-13.73 1.64 0.46
-6.53 -1.26 1.05
-6.49 -1.19 1.05
-6.32 -1.12 1.07
-6.57 -1.13 1.04
-6.83 -1.12 1.01
-6.83 -1.09 1.01
-6.70 -1.05 1.03
-6.64 -1.03 1.03
-6.60 -1.00 1.04
-6.19 -0.93 1.09
-6.39 -0.93 1.07
-6.34 -0.91 1.07
-6.38 -0.89 1.07
-6.28 -0.86 1.08
-5.80 -0.79 1.14
-6.13 -0.80 1.10
-12.09 -1.30 0.37
-5.79 -0.73 1.14
-5.87 -0.72 1.13
-6.05 -0.71 1.11
-5.91 -0.68 1.12
-5.98 -0.66 1.12
-6.42 -0.67 1.06
-7.29 -0.71 0.96
-5.68 -0.56 1.15
-6.75 -0.61 1.02
-5.43 -0.46 1.18
-5.45 -0.45 1.18
-5.35 -0.42 1.19
-5.25 -0.40 1.20
-5.22 -0.38 1.21
-5.43 -0.37 1.18
-7.07 -0.42 0.98
-8.24 -0.44 0.84
-6.80 -0.36 1.02
-8.94 -0.38 0.76
-7.07 -0.30 0.98
-7.05 -0.27 0.99
-9.56 -0.31 0.68
-6.85 -0.22 1.01
-9.67 -0.26 0.67
-9.75 -0.23 0.66
-9.81 -0.20 0.65
-9.84 -0.17 0.65
-9.92 -0.14 0.64
-9.92 -0.11 0.64
-9.88 -0.08 0.64
-10.05 -0.05 0.62
-10.27 -0.02 0.59
-10.80 0.02 0.77
-10.77 0.04 0.77
-10.88 0.07 0.76
-10.94 0.10 0.75
-10.78 0.12 0.77
-10.77 0.15 0.77
-11.09 0.18 0.73
-10.98 0.20 0.74
-11.33 0.23 0.70
-13.73 0.32 0.38
-13.65 0.35 0.39
-11.73 0.33 0.64
-13.64 0.41 0.39
-11.45 0.37 0.68
-13.52 0.47 0.41
-13.45 0.50 0.42
-11.13 0.44 0.72
-11.03 0.47 0.73
-10.94 0.49 0.74
-10.97 0.52 0.74
-11.23 0.55 0.71
-11.33 0.59 0.69
-11.24 0.61 0.70
-12.03 0.68 0.60
-11.98 0.71 0.61
-11.98 0.74 0.61
-12.29 0.78 0.56
-11.16 0.74 0.71
-11.10 0.76 0.72
-11.16 0.79 0.71
-12.34 0.94 0.55
-12.65 0.99 0.52
-10.33 0.83 0.82
-10.52 0.90 0.79
-10.62 0.94 0.78
-12.28 1.11 0.56
-12.17 1.13 0.57
-10.40 1.02 0.81
-10.95 1.10 0.73
-12.90 1.35 0.48
-10.32 1.16 0.81
-13.61 1.59 0.38
-13.77 1.64 0.36
-11.91 1.45 0.60
-6.38 -1.44 0.99
-6.38 -1.33 1.00
-6.60 -1.34 0.97
-6.52 -1.28 0.98
-6.39 -1.24 1.00
-6.30 -1.21 1.01
-6.24 -1.18 1.02
-6.52 -1.19 0.98
-6.30 -1.14 1.01
-6.39 -1.13 1.00
-6.36 -1.11 1.00
-6.05 -1.05 1.04
-6.20 -1.04 1.02
-6.33 -1.04 1.00
-6.52 -1.04 0.98
-6.34 -0.99 1.00
-6.55 -1.00 0.98
-6.66 -0.98 0.96
-6.50 -0.94 0.98
-6.44 -0.92 0.99
-6.33 -0.88 1.01
-6.18 -0.85 1.03
-5.91 -0.80 1.06
-5.57 -0.75 1.10
-5.71 -0.74 1.09
-5.68 -0.72 1.09
-5.58 -0.69 1.10
-5.32 -0.65 1.14
-5.36 -0.64 1.13
-5.72 -0.64 1.08
-5.57 -0.61 1.10
-5.28 -0.57 1.14
-11.27 -0.96 0.37
-5.40 -0.54 1.13
-5.67 -0.54 1.09
-6.54 -0.46 0.98
-5.20 -0.36 1.15
-5.18 -0.32 1.15
-8.23 -0.41 0.76
-5.14 -0.28 1.16
-6.95 -0.32 0.93
-7.17 -0.30 0.90
-6.90 -0.27 0.93
-7.04 -0.25 0.92
-6.70 -0.22 0.96
-6.70 -0.20 0.96
-6.41 -0.17 1.00
-9.55 -0.20 0.59
-10.73 -0.14 0.78
-10.81 -0.11 0.77
-10.70 -0.09 0.78
-10.70 -0.06 0.78
-10.80 -0.03 0.77
-10.76 -0.01 0.77
