# .PCD v0.7 - Point Cloud Data file format
VERSION 0.7
FIELDS x y z
SIZE 4 4 4
TYPE F F F
COUNT 1 1 1
WIDTH 2855
HEIGHT 1
VIEWPOINT 0 0 0 1 0 0 0
POINTS 2855
DATA ASCII
-10.26 -0.53 1.81
-10.22 -0.49 1.81
-10.36 -0.41 1.81
-10.40 -0.38 1.81
-10.07 -0.34 1.82
-10.33 -0.31 1.81
-10.30 -0.28 1.81
-10.42 -0.25 1.81
-10.40 -0.22 1.81
-11.74 0.33 1.79
-11.48 0.35 1.80
-11.87 0.42 1.78
-11.68 0.44 1.79
-12.21 0.61 1.77
-12.30 0.70 1.77
-12.21 0.73 1.77
-9.90 -0.69 1.77
-9.95 -0.67 1.77
-10.16 -0.58 1.76
-10.27 -0.56 1.76
-10.14 -0.52 1.76
-10.16 -0.49 1.76
-10.20 -0.46 1.76
-10.11 -0.43 1.76
-9.99 -0.40 1.77
-10.13 -0.34 1.76
-10.34 -0.31 1.75
-10.55 -0.29 1.75
-10.40 -0.25 1.75
-10.52 -0.22 1.75
-11.30 -0.14 1.80
-11.28 -0.08 1.81
-10.02 0.03 1.72
-9.41 0.09 1.74
-9.48 0.15 1.74
-9.63 0.18 1.73
-9.42 0.20 1.74
-9.03 0.23 1.75
-9.23 0.26 1.74
-9.33 0.29 1.74
-9.08 0.31 1.75
-11.29 0.35 1.76
-11.80 0.39 1.74
-12.16 0.72 1.73
-1.45 -1.48 2.02
-1.44 -1.47 2.03
-1.61 -1.52 2.02
-1.58 -1.47 2.02
-1.51 -1.39 2.02
-9.94 -0.69 1.72
-10.02 -0.64 1.72
-10.01 -0.61 1.72
-10.01 -0.58 1.72
-10.09 -0.52 1.71
-10.10 -0.49 1.71
-10.17 -0.43 1.71
-10.20 -0.40 1.71
-10.17 -0.37 1.71
-10.27 -0.34 1.71
-10.10 -0.31 1.71
-9.95 -0.27 1.72
-10.42 -0.25 1.70
-10.46 -0.22 1.70
-10.22 -0.18 1.71
-10.52 -0.13 1.70
-10.15 -0.09 1.71
-9.92 0.05 1.77
-11.21 0.18 1.72
-9.93 0.21 1.77
-11.20 0.27 1.72
-11.33 0.32 1.72
-11.37 0.35 1.71
-11.36 0.38 1.71
-11.62 0.41 1.70
-10.39 0.45 1.75
-10.59 0.48 1.75
-11.89 0.62 1.69
-11.84 0.65 1.69
-12.07 0.75 1.68
-12.23 0.82 1.68
-2.05 -1.42 1.98
-2.08 -1.05 1.98
-10.05 -0.73 1.67
-10.01 -0.70 1.67
-9.98 -0.67 1.67
-10.05 -0.64 1.67
-10.09 -0.61 1.66
-9.99 -0.58 1.67
-10.23 -0.56 1.66
-10.08 -0.49 1.67
-10.88 -0.36 1.74
-10.80 -0.31 1.74
-11.02 -0.29 1.73
-10.94 -0.26 1.73
-11.06 -0.24 1.73
-11.08 -0.19 1.73
-11.23 -0.16 1.72
-11.18 -0.11 1.72
-11.18 -0.08 1.72
-11.42 -0.06 1.71
-11.05 -0.03 1.73
-9.87 0.00 1.62
-9.98 0.03 1.62
-9.92 0.06 1.62
-9.48 0.09 1.64
-9.55 0.12 1.64
-9.45 0.15 1.64
-9.23 0.17 1.65
-9.37 0.20 1.65
-9.20 0.23 1.65
-9.30 0.26 1.65
-8.98 0.28 1.66
-8.96 0.31 1.66
-9.00 0.34 1.66
-8.94 0.36 1.66
-9.12 0.40 1.66
-9.09 0.45 1.66
-11.98 0.65 1.64
-0.37 -1.39 2.04
-1.49 -1.34 1.99
-2.00 -1.39 1.97
-2.03 -1.05 1.97
-9.95 -0.63 1.62
-9.99 -0.61 1.62
-9.93 -0.57 1.62
-10.05 -0.55 1.62
-9.83 -0.51 1.62
-10.20 -0.49 1.61
-10.13 -0.46 1.61
-9.95 -0.42 1.62
-10.06 -0.40 1.62
-10.23 -0.37 1.61
-9.84 -0.33 1.62
-9.95 -0.30 1.62
-9.73 -0.27 1.63
-10.37 -0.25 1.60
-10.15 -0.21 1.61
-10.03 -0.18 1.62
-10.23 -0.15 1.61
-9.98 -0.12 1.62
-9.98 -0.09 1.62
-9.73 -0.06 1.63
-11.05 0.02 1.63
-10.92 0.05 1.64
-11.15 0.08 1.63
-10.89 0.10 1.64
-10.85 0.13 1.64
-11.05 0.16 1.63
-10.98 0.18 1.64
-10.09 0.19 1.68
-11.06 0.24 1.63
-11.08 0.26 1.63
-10.96 0.29 1.64
-10.64 0.30 1.65
-10.80 0.33 1.65
-11.02 0.37 1.63
-11.02 0.39 1.63
-10.34 0.39 1.67
-10.22 0.41 1.67
-10.16 0.44 1.68
-10.66 0.48 1.65
-12.09 0.58 1.58
-12.04 0.60 1.58
-11.84 0.62 1.59
-12.17 0.67 1.58
-12.12 0.69 1.58
-12.00 0.71 1.58
-12.08 0.78 1.58
-11.99 0.80 1.58
-12.09 0.84 1.58
-1.87 -1.51 1.95
-1.91 -1.52 1.95
-2.15 -1.48 1.94
-2.19 -1.48 1.93
-2.02 -1.37 1.94
-2.24 -1.37 1.93
-2.06 -1.31 1.94
-2.16 -1.33 1.94
-1.93 -1.25 1.95
-2.35 -1.35 1.93
-2.03 -1.24 1.94
-2.26 -1.29 1.93
-2.03 -1.22 1.94
-2.42 -1.29 1.92
-2.39 -1.27 1.93
-1.91 -0.97 1.95
-10.73 -0.54 1.65
-10.98 -0.53 1.64
-10.84 -0.49 1.65
-10.75 -0.46 1.65
-10.89 -0.44 1.64
-10.95 -0.42 1.64
-11.35 -0.41 1.62
-10.98 -0.37 1.64
-10.77 -0.34 1.65
-11.08 -0.32 1.63
-11.02 -0.29 1.64
-11.16 -0.27 1.63
-11.28 -0.24 1.62
-11.16 -0.22 1.63
-11.23 -0.19 1.63
-11.30 -0.16 1.62
-11.31 -0.14 1.62
-7.64 -0.07 1.80
-11.03 -0.08 1.64
-10.97 -0.05 1.64
-10.59 -0.03 1.66
-10.82 -0.00 1.65
-9.52 0.03 1.53
-9.77 0.06 1.52
-10.99 0.10 1.59
-10.86 0.13 1.60
-10.41 0.15 1.62
-10.30 0.17 1.63
-10.31 0.19 1.63
-10.52 0.22 1.62
-10.22 0.24 1.63
-10.64 0.28 1.61
-10.48 0.30 1.62
-10.33 0.32 1.62
-10.25 0.34 1.63
-10.30 0.37 1.63
-10.01 0.38 1.64
-9.94 0.40 1.64
-10.20 0.44 1.63
-10.04 0.45 1.64
-10.23 0.49 1.63
-12.20 0.61 1.52
-9.98 1.13 1.64
-1.40 -1.67 1.95
-1.17 -1.46 1.97
-1.96 -1.53 1.92
-1.49 -1.36 1.95
-1.60 -1.33 1.95
-1.68 -1.34 1.94
-9.60 -0.74 1.53
-9.57 -0.68 1.53
-9.95 -0.57 1.51
-9.76 -0.54 1.52
-9.83 -0.51 1.51
-9.74 -0.45 1.52
-9.91 -0.42 1.51
-9.84 -0.39 1.51
-10.24 -0.37 1.49
-9.84 -0.33 1.51
-10.15 -0.31 1.50
-10.27 -0.28 1.49
-10.42 -0.22 1.48
-10.30 -0.19 1.49
-10.37 -0.16 1.49
-10.45 -0.13 1.48
-10.45 -0.09 1.48
-9.18 -0.03 1.55
-10.73 0.02 1.55
-10.74 0.05 1.55
-10.55 0.07 1.56
-10.48 0.10 1.57
-10.46 0.12 1.57
-10.44 0.15 1.57
-10.45 0.17 1.57
-10.30 0.19 1.58
-10.52 0.22 1.56
-9.97 0.24 1.60
-10.05 0.26 1.59
-10.41 0.30 1.57
-10.12 0.31 1.59
-10.56 0.35 1.56
-10.52 0.37 1.56
-10.14 0.39 1.58
-11.70 0.47 1.49
-10.00 0.43 1.59
-10.05 0.45 1.59
-10.31 0.49 1.57
-9.82 0.49 1.60
-9.86 0.54 1.60
-10.08 0.67 1.59
-10.29 0.71 1.57
-10.38 0.74 1.57
-9.90 0.73 1.60
-12.41 1.16 1.45
-2.18 -1.55 1.89
-9.31 -0.78 1.48
-9.35 -0.72 1.48
-14.81 -0.79 1.17
-10.00 -0.52 1.44
-9.80 -0.48 1.45
-9.88 -0.45 1.45
-9.87 -0.42 1.45
-9.92 -0.39 1.45
-9.91 -0.33 1.45
-9.84 -0.27 1.45
-9.96 -0.24 1.45
-9.80 -0.21 1.45
-9.89 -0.18 1.45
-10.75 -0.10 1.55
-10.62 -0.08 1.56
-10.43 -0.05 1.57
-10.65 -0.03 1.56
-10.50 -0.00 1.57
-9.18 0.00 1.43
-9.10 0.03 1.44
-8.99 0.06 1.45
-8.76 0.08 1.46
-8.70 0.11 1.46
-8.69 0.14 1.46
-8.73 0.16 1.46
-8.73 0.19 1.46
-8.84 0.22 1.46
-8.77 0.25 1.46
-8.73 0.27 1.46
-9.79 0.28 1.56
-10.09 0.31 1.54
-11.37 0.38 1.46
-9.88 0.35 1.56
-10.07 0.41 1.54
-10.62 0.45 1.51
-9.97 0.45 1.55
-1.47 -1.55 1.91
-1.47 -1.40 1.91
-1.48 -1.38 1.91
-1.52 -1.35 1.91
-1.46 -1.33 1.91
-1.56 -1.30 1.91
-1.49 -1.22 1.91
-1.71 -1.26 1.90
-9.38 -0.84 1.42
-9.52 -0.79 1.41
-9.26 -0.74 1.43
-9.72 -0.71 1.40
-9.55 -0.62 1.41
-9.60 -0.59 1.41
-9.64 -0.56 1.41
-9.77 -0.51 1.40
-9.80 -0.48 1.40
-9.77 -0.45 1.40
-9.36 -0.40 1.42
-9.64 -0.38 1.41
-9.79 -0.36 1.40
-9.80 -0.33 1.40
-9.88 -0.30 1.39
-9.83 -0.27 1.39
-9.94 -0.24 1.39
-10.31 -0.22 1.36
-9.73 -0.18 1.40
-10.16 -0.15 1.37
-9.27 -0.11 1.43
-9.63 -0.09 1.41
-9.16 -0.06 1.44
-8.23 -0.03 1.49
-9.98 0.02 1.50
-9.86 0.05 1.51
-10.68 0.07 1.45
-11.06 0.10 1.43
-10.58 0.12 1.46
-10.91 0.18 1.44
-9.81 0.19 1.51
-9.52 0.20 1.53
-9.59 0.23 1.53
-9.88 0.26 1.50
-9.64 0.27 1.52
-10.52 0.32 1.46
-9.72 0.35 1.52
-10.09 0.38 1.49
-11.91 0.51 1.37
-10.27 0.46 1.48
-10.65 0.58 1.45
-11.79 0.67 1.37
-10.50 0.65 1.46
-10.12 0.68 1.49
-10.01 0.72 1.49
-11.99 0.92 1.36
-12.28 1.00 1.34
-12.42 1.10 1.33
-12.38 1.15 1.33
-12.56 1.20 1.31
-1.91 -1.44 1.86
-1.97 -1.40 1.85
-8.90 -0.89 1.39
-9.91 -0.82 1.33
-9.35 -0.75 1.36
-9.50 -0.64 1.35
-9.34 -0.61 1.36
-9.43 -0.55 1.36
-9.55 -0.53 1.35
-9.90 -0.51 1.33
-9.80 -0.48 1.33
-10.89 -0.34 1.44
-10.48 -0.30 1.47
-10.64 -0.28 1.46
-10.70 -0.26 1.45
-10.76 -0.23 1.45
-10.93 -0.21 1.44
-10.89 -0.18 1.44
-11.07 -0.16 1.43
-10.66 -0.13 1.45
-10.54 -0.10 1.46
-10.30 -0.08 1.48
-10.20 -0.05 1.49
-10.05 -0.03 1.50
-9.96 -0.00 1.50
-8.70 0.00 1.34
-8.64 0.03 1.35
-8.77 0.05 1.34
-8.88 0.08 1.33
-8.57 0.11 1.35
-8.71 0.14 1.34
-8.80 0.17 1.34
-8.69 0.19 1.35
-9.16 0.23 1.31
-9.28 0.26 1.30
-9.34 0.29 1.30
-9.34 0.32 1.30
-9.32 0.35 1.30
-9.31 0.38 1.30
-9.23 0.40 1.30
-8.88 0.42 1.33
-9.10 0.45 1.31
-8.83 0.47 1.33
-12.29 0.91 1.27
-12.59 1.26 1.25
-1.55 -1.42 1.86
-1.14 -0.33 1.90
-9.57 -0.85 1.28
-9.26 -0.77 1.31
-9.20 -0.74 1.31
-9.40 -0.72 1.29
-9.27 -0.69 1.30
-9.31 -0.66 1.30
-9.81 -0.51 1.26
-9.92 -0.48 1.26
-9.85 -0.45 1.26
-10.12 -0.40 1.24
-9.94 -0.36 1.26
-9.84 -0.33 1.26
-10.09 -0.31 1.25
-10.07 -0.27 1.25
-9.40 -0.20 1.29
-9.71 -0.18 1.27
-9.34 -0.14 1.30
-8.53 -0.11 1.36
-8.66 -0.08 1.35
-8.84 -0.06 1.33
-8.61 -0.03 1.35
-9.61 0.02 1.42
-9.77 0.04 1.41
-10.00 0.07 1.39
-10.01 0.09 1.39
-10.06 0.12 1.38
-9.81 0.14 1.40
-9.76 0.16 1.41
-9.81 0.21 1.40
-9.76 0.23 1.41
-9.66 0.25 1.41
-6.34 0.18 1.67
-9.98 0.33 1.39
-9.90 0.35 1.39
-10.37 0.42 1.36
-9.98 0.43 1.39
-10.08 0.46 1.38
-9.95 0.47 1.39
-9.75 0.51 1.40
-9.95 0.55 1.39
-11.82 0.70 1.24
-10.05 0.72 1.38
-9.89 0.73 1.39
-9.89 0.78 1.39
-12.27 1.00 1.20
-12.17 1.02 1.21
-9.84 0.85 1.39
-12.58 1.11 1.17
-12.68 1.15 1.17
-12.72 1.19 1.16
-12.77 1.41 1.16
-12.60 1.42 1.17
-12.66 1.49 1.16
-12.73 1.56 1.16
-12.76 1.59 1.15
-12.77 1.62 1.15
-12.92 1.67 1.14
-1.32 -1.53 1.85
-1.71 -1.45 1.82
-1.86 -1.49 1.81
-2.08 -1.41 1.79
-2.19 -1.41 1.78
-1.87 -1.29 1.81
-2.19 -1.32 1.78
-4.25 -1.01 1.63
-4.06 -0.90 1.64
-1.78 -0.52 1.82
-4.18 -0.69 1.63
-1.07 -0.30 1.88
-9.17 -0.86 1.24
-8.94 -0.81 1.26
-9.34 -0.81 1.23
-9.30 -0.78 1.23
-9.49 -0.70 1.22
-9.22 -0.66 1.24
-10.24 -0.52 1.37
-10.06 -0.48 1.38
-10.64 -0.48 1.34
-11.52 -0.50 1.27
-11.89 -0.49 1.24
-11.15 -0.40 1.30
-11.03 -0.37 1.31
-11.00 -0.34 1.31
-10.92 -0.32 1.32
-10.78 -0.29 1.33
-10.62 -0.26 1.34
-10.77 -0.23 1.33
-10.91 -0.19 1.32
-10.88 -0.16 1.32
-10.80 -0.13 1.33
-10.84 -0.11 1.32
-10.55 -0.08 1.34
-10.20 -0.05 1.37
-9.63 -0.03 1.42
-8.68 -0.00 1.22
-8.91 0.03 1.21
-8.97 0.06 1.20
-9.87 0.09 1.35
-10.06 0.12 1.33
-10.05 0.14 1.33
-9.88 0.16 1.35
-9.73 0.18 1.36
-9.80 0.21 1.35
-9.72 0.23 1.36
-9.73 0.25 1.36
-9.59 0.27 1.37
-9.76 0.30 1.36
-9.64 0.32 1.37
-9.73 0.35 1.36
-9.76 0.37 1.36
-9.84 0.40 1.35
-9.91 0.42 1.34
-9.82 0.44 1.35
-9.87 0.47 1.35
-9.92 0.50 1.34
-10.19 0.53 1.32
-10.16 0.56 1.32
-10.15 0.58 1.32
-10.44 0.62 1.30
-10.73 0.66 1.27
-10.22 0.68 1.31
-10.15 0.70 1.32
-10.15 0.73 1.32
-10.10 0.75 1.32
-9.95 0.76 1.33
-12.58 0.99 1.11
-12.82 1.04 1.09
-12.97 1.08 1.08
-12.95 1.11 1.08
-13.14 1.16 1.06
-12.52 1.13 1.12
-12.70 1.18 1.10
-12.70 1.21 1.10
-12.38 1.21 1.13
-12.55 1.26 1.11
-12.50 1.28 1.12
-12.43 1.34 1.12
-12.55 1.41 1.11
-12.80 1.47 1.09
-12.70 1.49 1.10
-12.74 1.53 1.09
-12.72 1.55 1.09
-12.77 1.59 1.09
-12.84 1.63 1.08
-12.84 1.66 1.08
-12.78 1.68 1.09
-1.50 -1.60 1.81
-1.72 -1.39 1.80
-1.86 -1.41 1.79
-1.98 -1.25 1.78
-4.12 -0.94 1.60
-11.71 -1.69 0.97
-12.42 -1.41 0.91
-8.45 -0.83 1.24
-8.55 -0.81 1.23
-8.70 -0.79 1.22
-8.88 -0.75 1.21
-9.51 -0.76 1.16
-9.96 -0.76 1.12
-4.93 -0.44 1.54
-9.33 -0.63 1.17
-9.29 -0.60 1.17
-9.29 -0.57 1.17
-9.27 -0.54 1.17
-9.36 -0.52 1.17
-9.63 -0.50 1.14
-7.61 -0.40 1.31
-9.63 -0.44 1.14
-9.77 -0.42 1.13
-9.38 -0.38 1.17
-9.70 -0.36 1.14
-9.76 -0.33 1.13
-9.91 -0.30 1.12
-10.02 -0.27 1.11
-9.60 -0.24 1.15
-9.78 -0.18 1.13
-9.85 -0.15 1.13
-9.40 -0.12 1.16
-9.28 -0.09 1.17
-9.02 -0.06 1.20
-8.93 -0.03 1.20
-9.59 0.02 1.31
-9.72 0.04 1.30
-9.74 0.07 1.30
-9.75 0.09 1.29
-9.98 0.12 1.27
-9.97 0.14 1.28
-9.90 0.16 1.28
-9.77 0.18 1.29
-9.79 0.21 1.29
-9.77 0.23 1.29
-9.62 0.25 1.31
-9.70 0.28 1.30
-9.70 0.30 1.30
-9.86 0.33 1.28
-9.71 0.35 1.30
-9.77 0.37 1.29
-9.70 0.39 1.30
-9.63 0.41 1.30
-9.77 0.44 1.29
-10.00 0.48 1.27
-9.95 0.50 1.27
-10.00 0.52 1.27
-12.11 0.66 1.08
-9.79 0.56 1.29
-9.90 0.59 1.28
-10.16 0.63 1.25
-10.13 0.65 1.26
-9.95 0.69 1.27
-10.16 0.73 1.25
-9.98 0.74 1.27
-10.07 0.77 1.26
-10.27 0.81 1.24
-7.33 0.60 1.51
-13.06 1.12 0.99
-12.74 1.12 1.01
-12.99 1.18 0.99
-12.75 1.19 1.01
-12.66 1.21 1.02
-12.12 1.19 1.07
-11.87 1.19 1.09
-12.00 1.23 1.08
-11.85 1.25 1.09
-11.98 1.29 1.08
-11.84 1.30 1.09
-11.95 1.34 1.08
-11.75 1.35 1.10
-12.00 1.41 1.08
-12.75 1.56 1.01
-12.80 1.59 1.00
-12.94 1.64 0.99
-9.88 1.28 1.27
-12.63 1.67 1.02
-1.25 -1.33 1.81
-1.22 -1.31 1.81
-2.56 -1.51 1.69
-2.85 -1.58 1.67
-2.79 -1.44 1.67
-4.07 -1.08 1.56
-4.07 -1.05 1.56
-3.94 -1.01 1.57
-4.01 -1.01 1.57
-4.14 -1.01 1.56
-3.97 -0.97 1.57
-4.18 -0.98 1.55
-4.11 -0.96 1.56
-4.04 -0.93 1.57
-3.83 -0.89 1.58
-3.85 -0.87 1.58
-4.02 -0.88 1.57
-4.03 -0.86 1.57
-3.98 -0.84 1.57
-4.21 -0.82 1.55
-4.12 -0.74 1.56
-4.44 -0.71 1.53
-4.26 -0.62 1.55
-4.66 -0.64 1.51
-4.39 -0.60 1.54
-4.57 -0.58 1.52
-4.77 -0.58 1.50
-4.77 -0.54 1.50
-5.12 -0.53 1.47
-5.00 -0.50 1.48
-4.75 -0.45 1.50
-9.81 -0.69 1.05
-9.96 -0.67 1.04
-9.23 -0.60 1.10
-9.55 -0.59 1.07
-9.48 -0.55 1.08
-9.39 -0.52 1.09
-9.65 -0.50 1.06
-9.38 -0.46 1.09
-9.20 -0.43 1.10
-9.22 -0.40 1.10
-9.52 -0.38 1.07
-9.52 -0.35 1.07
-9.43 -0.32 1.08
-9.48 -0.29 1.08
-9.62 -0.27 1.07
-9.54 -0.23 1.07
-9.26 -0.20 1.10
-10.55 -0.13 1.22
-10.08 -0.10 1.27
-10.33 -0.08 1.24
-9.82 -0.05 1.29
-9.73 -0.03 1.30
-9.50 -0.00 1.32
-9.01 0.00 1.06
-8.79 0.03 1.08
-8.80 0.06 1.08
-8.73 0.08 1.08
-8.58 0.11 1.10
-8.88 0.14 1.07
-8.80 0.17 1.08
-9.00 0.20 1.06
-9.02 0.22 1.05
-9.16 0.26 1.04
-8.96 0.28 1.06
-9.78 0.28 1.24
-9.79 0.30 1.24
-10.04 0.33 1.21
-9.94 0.35 1.22
-9.82 0.37 1.23
-9.88 0.40 1.23
-9.64 0.41 1.25
-10.07 0.45 1.21
-10.15 0.48 1.20
-10.44 0.52 1.17
-10.75 0.56 1.14
-10.49 0.57 1.17
-10.17 0.58 1.20
-12.10 0.72 1.01
-11.83 0.73 1.04
-11.38 0.73 1.08
-9.91 0.66 1.22
-9.95 0.74 1.22
-10.09 0.77 1.20
-9.95 0.81 1.22
-12.88 1.10 0.93
-12.88 1.13 0.93
-13.07 1.18 0.91
-12.54 1.17 0.96
-12.84 1.22 0.93
-12.70 1.24 0.95
-9.28 0.93 1.28
-12.41 1.27 0.97
-12.08 1.27 1.01
-11.67 1.25 1.04
-11.98 1.32 1.01
-12.27 1.38 0.99
-12.03 1.41 1.01
-12.35 1.48 0.98
-12.66 1.54 0.95
-12.41 1.54 0.97
-12.55 1.59 0.96
-12.55 1.62 0.95
-12.63 1.66 0.95
-12.58 1.69 0.95
-1.51 -1.36 1.76
-1.60 -1.35 1.75
-1.61 -1.33 1.75
-1.63 -1.11 1.76
-4.19 -1.13 1.51
-3.82 -1.06 1.55
-4.10 -1.07 1.52
-4.26 -1.03 1.51
-3.90 -0.91 1.54
-3.95 -0.87 1.54
-4.86 -0.64 1.45
-4.61 -0.56 1.48
-8.24 -0.81 1.13
-5.29 -0.58 1.41
-4.95 -0.52 1.44
-10.27 -0.81 0.94
-4.91 -0.46 1.45
-9.08 -0.65 1.05
-9.12 -0.62 1.05
-8.82 -0.58 1.07
-9.24 -0.57 1.03
-9.59 -0.56 1.00
-9.43 -0.52 1.02
-9.66 -0.50 0.99
-9.27 -0.46 1.03
-9.11 -0.42 1.05
-9.37 -0.40 1.02
-9.16 -0.37 1.04
-9.23 -0.34 1.04
-9.04 -0.31 1.05
-9.17 -0.28 1.04
-9.41 -0.26 1.02
-9.16 -0.23 1.04
-9.05 -0.20 1.05
-9.02 -0.17 1.05
-8.89 -0.14 1.07
-8.95 -0.11 1.06
-8.99 -0.08 1.06
-9.14 -0.06 1.04
-9.17 -0.03 1.04
-9.52 0.02 1.20
-9.65 0.04 1.19
-9.65 0.07 1.19
-9.63 0.09 1.19
-9.68 0.14 1.18
-9.65 0.16 1.19
-9.74 0.18 1.18
-9.76 0.21 1.18
-9.57 0.23 1.20
-9.69 0.25 1.18
-9.77 0.28 1.17
-10.05 0.31 1.14
-10.27 0.34 1.12
-9.93 0.35 1.16
-9.98 0.38 1.15
-10.29 0.42 1.12
-10.10 0.43 1.14
-10.23 0.46 1.13
-10.34 0.49 1.11
-10.58 0.53 1.09
-11.32 0.59 1.01
-10.47 0.57 1.10
-10.71 0.61 1.08
-8.48 0.51 1.30
-8.23 0.51 1.33
-10.78 0.69 1.07
-10.62 0.71 1.08
-10.61 0.73 1.08
-11.13 0.82 1.03
-11.24 0.86 1.02
-4.52 0.36 1.71
-12.64 1.02 0.87
-13.08 1.12 0.83
-8.52 0.76 1.29
-8.55 0.80 1.29
-8.45 0.81 1.30
-8.45 0.83 1.30
-9.20 0.93 1.22
-9.14 0.94 1.23
-9.07 0.96 1.24
-8.71 0.96 1.27
-12.54 1.41 0.88
-12.47 1.43 0.88
-12.49 1.47 0.88
-12.55 1.50 0.87
-12.25 1.50 0.90
-12.47 1.55 0.88
-12.46 1.61 0.88
-12.47 1.65 0.88
-12.41 1.67 0.89
-1.88 -1.44 1.69
-2.00 -1.39 1.68
-2.24 -1.44 1.66
-2.49 -1.49 1.63
-2.96 -1.54 1.58
-2.62 -1.43 1.62
-3.28 -1.55 1.55
-1.88 -1.09 1.70
-3.96 -1.20 1.49
-3.99 -1.19 1.49
-4.12 -1.16 1.47
-3.92 -1.09 1.49
-3.85 -1.07 1.50
-3.71 -1.00 1.52
-3.75 -0.97 1.51
-3.86 -0.97 1.50
-3.88 -0.96 1.50
-3.63 -0.91 1.52
-3.81 -0.92 1.51
-3.90 -0.91 1.50
-3.94 -0.90 1.49
-3.93 -0.88 1.49
-3.81 -0.85 1.51
-3.87 -0.85 1.50
-3.95 -0.82 1.49
-3.95 -0.81 1.49
-3.95 -0.79 1.49
-4.08 -0.79 1.48
-4.34 -0.79 1.45
-4.29 -0.75 1.46
-4.49 -0.75 1.44
-4.25 -0.71 1.46
-4.18 -0.68 1.47
-4.43 -0.69 1.45
-4.44 -0.68 1.44
-4.21 -0.64 1.47
-4.48 -0.64 1.44
-4.41 -0.62 1.45
-4.35 -0.60 1.45
-4.87 -0.62 1.40
-5.39 -0.65 1.35
-4.51 -0.56 1.44
-5.43 -0.61 1.34
-5.36 -0.59 1.35
-5.14 -0.55 1.37
-5.19 -0.54 1.37
-5.05 -0.51 1.38
-8.19 -0.68 1.06
-8.34 -0.66 1.05
-8.37 -0.64 1.04
-5.23 -0.44 1.36
-8.84 -0.61 1.00
-5.20 -0.40 1.37
-8.88 -0.56 0.99
-9.09 -0.54 0.97
-9.17 -0.51 0.96
-8.88 -0.47 0.99
-8.87 -0.44 0.99
-10.22 -0.34 1.13
-10.57 -0.33 1.10
-10.39 -0.30 1.11
-10.64 -0.26 1.09
-9.87 -0.21 1.17
-10.18 -0.20 1.14
-10.59 -0.18 1.09
-10.59 -0.13 1.09
-10.51 -0.10 1.10
-10.51 -0.05 1.10
-9.35 -0.02 1.22
-9.32 -0.00 1.22
-8.77 -0.00 0.93
-8.91 0.03 0.91
-8.71 0.05 0.93
-8.94 0.08 0.91
-9.02 0.11 0.90
-8.59 0.14 0.95
-8.62 0.16 0.94
-8.91 0.19 0.91
-9.17 0.23 0.88
-8.95 0.25 0.91
-9.23 0.29 0.88
-9.44 0.32 0.85
-9.33 0.35 0.87
-9.34 0.38 0.86
-13.30 0.54 0.44
-10.42 0.52 1.04
-10.62 0.55 1.02
-10.62 0.58 1.02
-10.80 0.62 1.00
-10.46 0.62 1.03
-10.84 0.72 0.99
-10.62 0.73 1.01
-10.83 0.77 0.99
-10.76 0.79 1.00
-10.55 0.80 1.02
-10.78 0.85 1.00
-10.59 0.86 1.02
-12.92 1.08 0.76
-12.99 1.11 0.75
-12.77 1.18 0.78
-12.84 1.35 0.76
-12.65 1.36 0.79
-12.34 1.35 0.82
-12.48 1.40 0.80
-11.92 1.40 0.86
-12.16 1.48 0.84
-12.42 1.54 0.81
-12.56 1.59 0.79
-1.58 -0.88 1.71
-7.96 -0.71 1.02
-8.95 -0.59 0.91
-8.94 -0.56 0.91
-9.02 -0.53 0.90
-9.28 -0.52 0.87
-9.45 -0.49 0.86
-9.06 -0.45 0.90
-8.92 -0.42 0.91
-8.92 -0.39 0.91
-8.99 -0.36 0.91
-8.83 -0.33 0.92
-9.06 -0.31 0.90
-9.16 -0.28 0.89
-8.97 -0.25 0.91
-8.98 -0.22 0.91
-9.07 -0.20 0.90
-8.84 -0.17 0.92
-8.81 -0.14 0.92
-8.94 -0.11 0.91
-9.05 -0.08 0.90
-8.80 -0.06 0.93
-8.84 -0.03 0.92
-9.61 0.02 1.06
-9.73 0.04 1.05
-9.57 0.07 1.07
-9.67 0.09 1.06
-9.62 0.11 1.06
-9.73 0.14 1.05
-9.73 0.16 1.05
-9.56 0.18 1.07
-9.78 0.21 1.04
-9.66 0.23 1.06
-9.77 0.25 1.04
-9.72 0.28 1.05
-9.77 0.30 1.04
-10.01 0.33 1.01
-9.96 0.35 1.02
-10.17 0.39 0.99
-10.53 0.42 0.95
-10.33 0.44 0.98
-10.57 0.48 0.95
-10.37 0.49 0.97
-10.38 0.52 0.97
-8.26 0.43 1.21
-11.16 0.61 0.88
-8.34 0.48 1.20
-8.12 0.49 1.23
-7.75 0.48 1.27
-8.28 0.54 1.21
-8.21 0.55 1.22
-8.04 0.56 1.24
-10.73 0.77 0.92
-8.09 0.60 1.23
-8.89 0.68 1.14
-10.88 0.86 0.91
-8.58 0.70 1.17
-8.70 0.73 1.16
-12.76 1.10 0.69
-8.48 0.75 1.18
-11.19 1.02 0.87
-11.34 1.06 0.85
-11.15 1.07 0.87
-11.80 1.21 0.79
-7.92 0.84 1.25
-12.38 1.33 0.73
-12.38 1.36 0.73
-12.12 1.37 0.75
-12.10 1.39 0.76
-9.69 1.14 1.04
-12.41 1.55 0.72
-9.88 1.26 1.01
-12.81 1.69 0.67
-1.56 -1.46 1.66
-2.04 -1.38 1.61
-3.63 -0.99 1.44
-3.71 -0.97 1.43
-3.60 -0.94 1.44
-3.62 -0.92 1.44
-3.73 -0.91 1.43
-3.86 -0.91 1.41
-3.87 -0.88 1.41
-3.85 -0.86 1.41
-3.75 -0.83 1.42
-3.83 -0.83 1.42
-4.06 -0.84 1.39
-3.79 -0.79 1.42
-11.66 -1.69 0.51
-8.73 -1.24 0.85
-4.23 -0.74 1.37
-3.86 -0.69 1.41
-8.13 -1.04 0.92
-4.25 -0.66 1.37
-8.31 -1.01 0.90
-4.14 -0.60 1.38
-4.01 -0.57 1.40
-4.07 -0.56 1.39
-4.52 -0.58 1.34
-4.40 -0.55 1.35
-4.69 -0.56 1.32
-4.64 -0.54 1.32
-5.11 -0.53 1.27
-4.91 -0.50 1.29
-4.96 -0.48 1.29
-4.98 -0.47 1.28
-5.08 -0.45 1.27
-10.40 -0.52 0.97
-10.50 -0.50 0.96
-10.27 -0.47 0.99
-5.24 -0.23 1.57
-10.16 -0.42 1.00
-10.15 -0.39 1.00
-10.34 -0.37 0.98
-10.16 -0.32 1.00
-10.16 -0.29 1.00
-10.28 -0.27 0.99
-9.71 -0.23 1.05
-9.36 -0.20 1.09
-9.84 -0.19 1.04
-10.10 -0.17 1.01
-9.91 -0.15 1.03
-9.73 -0.12 1.05
-9.79 -0.10 1.04
-9.73 -0.07 1.05
-9.92 -0.05 1.03
-9.93 -0.03 1.03
-9.73 -0.00 1.05
-8.59 -0.00 0.79
-8.58 0.03 0.79
-8.74 0.05 0.77
-9.68 0.09 0.99
-9.70 0.11 0.99
-9.84 0.14 0.97
-9.70 0.16 0.99
-9.78 0.18 0.98
-9.77 0.21 0.98
-9.78 0.23 0.98
-9.88 0.26 0.97
-9.83 0.28 0.97
-9.92 0.30 0.96
-9.94 0.33 0.96
-9.81 0.35 0.97
-10.10 0.38 0.94
-10.20 0.41 0.93
-10.10 0.43 0.94
-10.20 0.46 0.92
-10.20 0.48 0.92
-9.99 0.50 0.95
-10.03 0.52 0.94
-10.46 0.57 0.89
-8.26 0.47 1.16
-7.95 0.47 1.20
-8.12 0.50 1.18
-8.02 0.52 1.19
-8.26 0.55 1.16
-8.09 0.56 1.18
-8.05 0.58 1.18
-7.93 0.59 1.20
-7.97 0.61 1.19
-8.38 0.66 1.14
-8.55 0.70 1.12
-8.40 0.70 1.14
-8.27 0.71 1.15
-7.83 0.69 1.21
-7.79 0.71 1.21
-8.05 0.75 1.18
-8.12 0.78 1.17
-11.00 1.08 0.82
-11.39 1.14 0.77
-8.42 0.87 1.13
-7.66 0.81 1.23
-8.04 0.87 1.18
-7.93 0.88 1.19
-12.10 1.36 0.68
-8.07 0.93 1.17
-6.64 0.79 1.35
-12.22 1.46 0.66
-9.84 1.21 0.95
-6.66 0.84 1.35
-9.62 1.22 0.98
-9.80 1.27 0.96
-12.70 1.67 0.60
-4.27 0.82 1.63
-4.09 0.95 1.65
-4.08 1.08 1.65
-1.24 -1.60 1.67
-1.24 -1.59 1.67
-1.35 -1.46 1.66
-1.05 -1.31 1.70
-1.19 -0.68 1.70
-1.00 -0.64 1.72
-1.16 -0.63 1.70
-3.70 -0.99 1.39
-3.90 -0.96 1.36
-3.82 -0.93 1.37
-3.95 -0.92 1.36
-3.72 -0.87 1.39
-3.75 -0.86 1.38
-4.10 -0.89 1.34
-8.95 -1.34 0.75
-8.80 -1.30 0.76
-8.65 -1.25 0.78
-3.99 -0.71 1.35
-4.29 -0.73 1.32
-4.00 -0.68 1.35
-4.77 -0.65 1.26
-5.38 -0.64 1.19
-4.98 -0.59 1.23
-4.55 -0.54 1.29
-4.62 -0.51 1.28
-4.73 -0.49 1.26
-4.56 -0.46 1.29
-5.25 -0.48 1.20
-4.88 -0.44 1.25
-4.89 -0.42 1.24
-4.69 -0.39 1.27
-5.09 -0.40 1.22
-5.02 -0.37 1.23
-4.73 -0.34 1.26
-8.75 -0.49 0.77
-9.09 -0.48 0.73
-4.66 -0.29 1.27
-4.72 -0.27 1.27
-8.78 -0.39 0.77
-4.42 -0.21 1.30
-8.97 -0.31 0.75
-8.83 -0.28 0.76
-8.90 -0.25 0.76
-8.94 -0.22 0.75
-9.08 -0.20 0.74
-8.79 -0.17 0.77
-8.75 -0.11 0.77
-8.66 -0.08 0.79
-8.80 -0.06 0.77
-8.96 -0.03 0.75
-9.49 0.02 0.95
-9.48 0.04 0.95
-9.43 0.06 0.95
-9.52 0.09 0.94
-9.49 0.11 0.94
-9.80 0.14 0.91
-9.77 0.16 0.91
-9.73 0.18 0.91
-9.97 0.21 0.88
-9.81 0.23 0.90
-9.81 0.25 0.90
-9.95 0.28 0.88
-10.14 0.31 0.86
-10.00 0.33 0.88
-10.20 0.36 0.85
-10.12 0.38 0.86
-10.16 0.41 0.85
-10.15 0.43 0.86
-10.08 0.45 0.87
-10.19 0.48 0.85
-10.19 0.51 0.85
-8.35 0.44 1.09
-10.23 0.56 0.84
-8.48 0.49 1.07
-7.77 0.46 1.16
-7.90 0.49 1.15
-8.01 0.52 1.13
-7.79 0.52 1.16
-7.96 0.55 1.14
-7.97 0.57 1.13
-7.86 0.58 1.15
-7.84 0.60 1.15
-8.01 0.63 1.13
-7.38 0.60 1.21
-7.34 0.62 1.21
-7.43 0.64 1.20
-7.35 0.65 1.21
-7.66 0.70 1.17
-8.12 0.76 1.11
-7.59 0.73 1.18
-7.35 0.73 1.21
-7.46 0.75 1.20
-7.52 0.78 1.19
-7.30 0.77 1.22
-11.80 1.27 0.63
-7.81 0.86 1.15
-7.41 0.84 1.20
-7.05 0.82 1.25
-6.93 0.82 1.26
-7.09 0.86 1.24
-7.02 0.86 1.25
-6.70 0.84 1.29
-6.92 0.89 1.26
-9.71 1.26 0.90
-9.63 1.28 0.91
-7.88 1.62 1.12
-7.71 1.62 1.14
-1.79 -1.43 1.58
-2.16 -1.52 1.53
-3.92 -1.32 1.31
-3.74 -1.27 1.33
-3.74 -1.20 1.33
-3.67 -1.16 1.34
-3.63 -1.14 1.35
-3.66 -1.13 1.34
-3.61 -1.10 1.35
-3.58 -1.08 1.35
-3.71 -1.09 1.34
-3.58 -1.05 1.35
-3.77 -1.07 1.33
-3.55 -1.02 1.36
-3.67 -1.02 1.34
-3.93 -1.04 1.31
-3.63 -0.98 1.35
-3.91 -1.01 1.31
-3.85 -0.98 1.32
-3.85 -0.97 1.32
-3.78 -0.94 1.33
-3.87 -0.94 1.32
-3.99 -0.94 1.30
-3.92 -0.92 1.31
-3.79 -0.88 1.33
-3.84 -0.87 1.32
-3.80 -0.85 1.33
-3.69 -0.82 1.34
-3.51 -0.78 1.37
-3.80 -0.80 1.33
-3.86 -0.80 1.32
-4.07 -0.80 1.29
-4.11 -0.79 1.29
-4.26 -0.79 1.27
-3.97 -0.74 1.31
-4.75 -0.81 1.21
-4.66 -0.78 1.22
-4.81 -0.78 1.20
-4.59 -0.74 1.23
-4.98 -0.76 1.17
-5.05 -0.75 1.17
-4.56 -0.69 1.23
-4.24 -0.64 1.27
-4.07 -0.61 1.29
-5.02 -0.67 1.17
-4.42 -0.60 1.25
-4.46 -0.59 1.24
-4.50 -0.58 1.24
-4.39 -0.55 1.25
-5.16 -0.59 1.15
-4.45 -0.52 1.25
-5.21 -0.56 1.15
-4.74 -0.50 1.21
-3.77 -0.43 1.33
-3.89 -0.42 1.32
-4.15 -0.42 1.28
-6.00 -0.50 1.04
-4.75 -0.42 1.21
-4.99 -0.41 1.17
-5.18 -0.40 1.15
-4.77 -0.36 1.20
-4.30 -0.32 1.26
-4.30 -0.31 1.26
-4.38 -0.29 1.25
-4.58 -0.28 1.23
-4.58 -0.27 1.23
-4.56 -0.25 1.23
-9.09 -0.37 0.65
-8.56 -0.32 0.71
-4.47 -0.19 1.24
-9.08 -0.28 0.65
-8.66 -0.25 0.70
-8.62 -0.22 0.71
-8.59 -0.19 0.71
-9.79 -0.12 0.91
-9.49 -0.09 0.95
-9.60 -0.07 0.93
-9.76 -0.05 0.91
-9.79 -0.03 0.91
-9.47 -0.00 0.95
-8.66 -0.00 0.62
-8.73 0.03 0.61
-8.80 0.05 0.60
-8.56 0.08 0.63
-8.71 0.11 0.61
-8.57 0.13 0.63
-8.41 0.16 0.65
-8.54 0.19 0.63
-8.43 0.21 0.65
-9.88 0.27 0.45
-7.45 0.24 0.78
-7.84 0.28 0.73
-10.06 0.31 0.80
-10.10 0.33 0.79
-10.14 0.36 0.79
-10.14 0.38 0.79
-10.13 0.41 0.79
-10.32 0.44 0.76
-10.60 0.48 0.72
-10.12 0.48 0.79
-10.31 0.51 0.76
-10.41 0.54 0.75
-8.66 0.47 0.99
-8.00 0.46 1.08
-7.84 0.47 1.10
-7.76 0.48 1.11
-7.81 0.50 1.10
-7.57 0.51 1.13
-7.68 0.53 1.12
-7.68 0.55 1.12
-7.48 0.55 1.15
-7.36 0.56 1.16
-7.71 0.61 1.11
-7.78 0.63 1.10
-7.52 0.63 1.14
-7.76 0.67 1.11
-7.97 0.71 1.08
-7.89 0.72 1.09
-7.50 0.70 1.14
-7.27 0.70 1.17
-7.48 0.74 1.14
-7.29 0.73 1.17
-10.73 1.10 0.69
-7.41 0.78 1.15
-7.19 0.78 1.18
-7.73 0.85 1.10
-10.87 1.22 0.67
-7.38 0.85 1.15
-7.27 0.86 1.17
-7.06 0.85 1.20
-7.15 0.88 1.18
-9.69 1.21 0.83
-4.66 0.60 1.53
-9.60 1.25 0.84
-12.62 1.66 0.42
-9.49 1.28 0.86
-9.66 1.32 0.83
-9.72 1.36 0.82
-9.66 1.37 0.83
-9.90 1.43 0.80
-9.59 1.41 0.84
-9.44 1.41 0.86
-4.15 0.77 1.59
-7.78 1.57 1.08
-1.06 -1.39 1.64
-1.57 -1.38 1.57
-1.70 -1.36 1.56
-0.59 -0.95 1.72
-1.55 -1.08 1.58
-1.79 -1.05 1.55
-1.42 -0.88 1.61
-1.84 -0.96 1.55
-3.47 -1.20 1.32
-3.52 -1.19 1.32
-3.75 -1.19 1.28
-3.66 -1.14 1.30
-3.49 -1.09 1.32
-3.37 -1.06 1.34
-1.30 -0.68 1.62
-1.00 -0.62 1.67
-3.36 -1.00 1.34
-3.46 -1.00 1.33
-3.72 -1.03 1.29
-3.90 -1.04 1.27
-3.76 -1.00 1.29
-3.70 -0.94 1.29
-3.76 -0.94 1.29
-3.81 -0.93 1.28
-8.63 -1.58 0.62
-3.73 -0.89 1.29
-3.45 -0.83 1.33
-3.41 -0.81 1.33
-3.34 -0.79 1.34
-3.59 -0.81 1.31
-4.03 -0.85 1.25
-4.32 -0.86 1.21
-4.19 -0.83 1.23
-4.66 -0.87 1.16
-4.82 -0.87 1.14
-4.85 -0.86 1.14
-4.75 -0.83 1.15
-4.83 -0.82 1.14
-4.89 -0.81 1.13
-4.89 -0.79 1.13
-4.84 -0.76 1.14
-4.93 -0.75 1.13
-4.82 -0.73 1.14
-4.88 -0.71 1.14
-5.03 -0.71 1.12
-5.03 -0.69 1.11
-4.62 -0.64 1.17
-5.39 -0.68 1.07
-4.89 -0.62 1.13
-4.54 -0.58 1.18
-4.34 -0.54 1.21
-3.98 -0.50 1.26
-4.02 -0.49 1.25
-5.00 -0.54 1.12
-4.17 -0.47 1.23
-3.94 -0.43 1.26
-3.51 -0.39 1.32
-3.68 -0.39 1.30
-3.87 -0.38 1.27
-3.98 -0.37 1.26
-4.67 -0.39 1.16
-4.34 -0.36 1.21
-4.34 -0.34 1.21
-4.28 -0.32 1.22
-4.54 -0.32 1.18
-4.64 -0.30 1.17
-4.61 -0.28 1.17
-4.36 -0.26 1.21
-4.17 -0.23 1.23
-4.33 -0.22 1.21
-4.16 -0.20 1.23
-9.08 -0.31 0.56
-8.58 -0.27 0.63
-8.37 -0.24 0.66
-8.45 -0.21 0.65
-8.61 -0.19 0.63
-8.66 -0.16 0.62
-9.07 -0.14 0.56
-8.83 -0.11 0.60
-9.19 -0.09 0.55
-8.87 -0.06 0.59
-8.90 -0.03 0.59
-9.58 0.02 0.79
-9.28 0.04 0.83
-9.53 0.06 0.80
-9.51 0.09 0.80
-9.50 0.11 0.80
-9.52 0.13 0.80
-9.40 0.15 0.82
-9.45 0.18 0.81
-9.73 0.21 0.77
-9.49 0.22 0.80
-9.52 0.25 0.80
-9.73 0.28 0.77
-9.79 0.30 0.76
-9.98 0.33 0.73
-10.42 0.37 0.66
-10.03 0.38 0.72
-10.07 0.41 0.72
-10.37 0.44 0.67
-10.33 0.46 0.68
-8.07 0.39 1.00
-8.46 0.42 0.95
-8.27 0.43 0.97
-7.96 0.44 1.02
-7.64 0.44 1.06
-7.73 0.46 1.05
-7.79 0.48 1.04
-7.64 0.49 1.06
-7.45 0.50 1.09
-7.30 0.51 1.11
-7.46 0.54 1.09
-7.45 0.55 1.09
-7.70 0.59 1.05
-7.37 0.58 1.10
-7.40 0.60 1.09
-7.32 0.62 1.11
-7.80 0.67 1.04
-7.36 0.65 1.10
-8.29 0.76 0.96
-7.63 0.72 1.06
-7.47 0.72 1.08
-7.29 0.72 1.11
-7.23 0.73 1.12
-7.03 0.73 1.15
-7.03 0.75 1.14
-7.09 0.77 1.14
-6.98 0.78 1.15
-7.00 0.79 1.15
-9.40 1.08 0.80
-9.58 1.13 0.77
-9.47 1.14 0.79
-6.72 0.83 1.19
-9.80 1.22 0.74
-9.48 1.21 0.78
-9.66 1.26 0.76
-9.62 1.27 0.76
-9.85 1.33 0.73
-9.64 1.32 0.76
-9.71 1.36 0.75
-9.74 1.39 0.74
-9.70 1.40 0.75
-7.65 1.57 1.03
-7.72 1.63 1.02
-7.69 1.64 1.02
-7.39 1.65 1.06
-1.90 -1.45 1.49
-1.97 -1.38 1.48
-2.06 -1.05 1.48
-2.04 -1.03 1.48
-3.79 -1.29 1.22
-3.74 -1.27 1.23
-3.88 -1.28 1.21
-3.67 -1.22 1.24
-3.64 -1.20 1.25
-3.82 -1.22 1.22
-3.74 -1.19 1.23
-3.86 -1.20 1.22
-3.81 -1.17 1.22
-3.92 -1.17 1.21
-3.74 -1.13 1.23
-3.91 -1.14 1.21
-4.13 -1.16 1.18
-3.89 -1.11 1.21
-3.51 -1.03 1.27
-4.00 -1.09 1.20
-3.77 -1.04 1.23
-3.49 -0.98 1.27
-3.51 -0.97 1.27
-3.78 -0.99 1.23
-3.78 -0.98 1.23
-3.47 -0.92 1.27
-3.58 -0.92 1.26
-3.39 -0.87 1.29
-3.39 -0.86 1.29
-3.44 -0.85 1.28
-3.36 -0.83 1.29
-3.37 -0.81 1.29
-3.32 -0.79 1.30
-3.52 -0.80 1.27
-3.56 -0.79 1.26
-4.47 -0.89 1.13
-4.31 -0.85 1.16
-4.44 -0.85 1.14
-4.73 -0.86 1.09
-4.71 -0.84 1.10
-4.82 -0.84 1.08
-4.66 -0.80 1.10
-4.43 -0.76 1.14
-4.54 -0.75 1.12
-4.59 -0.74 1.12
-4.60 -0.73 1.11
-4.70 -0.72 1.10
-4.74 -0.70 1.09
-4.82 -0.69 1.08
-4.71 -0.67 1.10
-4.89 -0.66 1.07
-5.11 -0.66 1.04
-4.94 -0.63 1.07
-4.59 -0.58 1.12
-4.54 -0.56 1.12
-4.45 -0.54 1.14
-4.38 -0.52 1.15
-4.32 -0.50 1.15
-4.42 -0.48 1.14
-4.23 -0.46 1.17
-3.92 -0.42 1.21
-4.00 -0.41 1.20
-4.39 -0.41 1.14
-3.90 -0.37 1.22
-4.10 -0.36 1.19
-4.29 -0.36 1.16
-4.32 -0.34 1.15
-4.28 -0.32 1.16
-4.35 -0.31 1.15
-4.34 -0.29 1.15
-4.34 -0.28 1.15
-4.16 -0.25 1.18
-10.05 -0.32 0.73
-10.00 -0.29 0.73
-10.02 -0.27 0.73
-9.89 -0.24 0.75
-10.02 -0.22 0.73
-9.88 -0.19 0.75
-9.80 -0.17 0.76
-10.09 -0.15 0.72
-9.97 -0.12 0.74
-9.84 -0.10 0.75
-9.87 -0.07 0.75
-9.85 -0.05 0.75
-9.88 -0.03 0.75
-9.77 -0.00 0.76
-9.32 0.00 0.35
-9.10 0.03 0.38
-9.34 0.06 0.34
-8.99 0.08 0.39
-8.91 0.11 0.41
-9.54 0.18 0.31
-9.29 0.20 0.35
-9.68 0.27 0.29
-9.52 0.32 0.31
-9.60 0.38 0.30
-9.32 0.43 0.34
-7.86 0.46 0.56
-10.41 0.52 0.59
-10.37 0.54 0.59
-7.87 0.43 0.97
-10.80 0.67 0.53
-10.84 0.72 0.52
-10.87 0.75 0.51
-8.20 0.61 0.92
-11.38 0.86 0.44
-12.30 1.05 0.29
-11.16 1.04 0.47
-9.75 0.98 0.68
-11.25 1.15 0.45
-9.36 1.10 0.73
-5.44 0.90 1.33
-3.60 1.05 1.59
-1.60 -1.43 1.50
-0.72 -0.69 1.65
-7.62 -1.49 0.60
-8.77 -1.49 0.42
-8.79 -1.46 0.42
-8.55 -1.35 0.46
-5.60 -0.70 0.91
-9.01 -0.78 0.39
-8.02 -0.57 0.54
-8.55 -0.57 0.46
-8.31 -0.53 0.50
-8.20 -0.50 0.52
-8.20 -0.44 0.52
-7.97 -0.41 0.55
-8.17 -0.39 0.52
-8.01 -0.36 0.55
-8.24 -0.34 0.51
-8.69 -0.33 0.44
-8.70 -0.30 0.44
-8.91 -0.28 0.41
-8.71 -0.25 0.44
-8.17 -0.21 0.52
-8.42 -0.19 0.48
-8.43 -0.16 0.48
-9.01 -0.14 0.39
-8.86 -0.11 0.42
-9.11 -0.08 0.38
-9.50 -0.06 0.32
-9.66 -0.03 0.29
-9.59 0.02 0.64
-9.59 0.04 0.64
-3.88 0.03 1.55
-9.70 0.09 0.62
-9.78 0.11 0.61
-9.93 0.14 0.58
-9.84 0.16 0.60
-9.77 0.18 0.61
-10.01 0.21 0.57
-9.71 0.23 0.62
-9.64 0.25 0.63
-9.58 0.27 0.64
-9.34 0.29 0.68
-10.02 0.33 0.57
-9.88 0.35 0.59
-10.46 0.40 0.49
-9.93 0.40 0.58
-10.45 0.45 0.50
-10.59 0.48 0.47
-10.46 0.50 0.49
-8.71 0.44 0.77
-8.67 0.45 0.78
-8.62 0.47 0.79
-7.91 0.45 0.90
-7.42 0.44 0.98
-7.40 0.46 0.98
-7.57 0.49 0.95
-7.36 0.49 0.99
-7.31 0.51 0.99
-7.57 0.54 0.95
-6.92 0.52 1.06
-7.71 0.59 0.93
-7.25 0.58 1.00
-7.12 0.58 1.02
-7.13 0.60 1.02
-7.05 0.61 1.03
-7.03 0.63 1.04
-7.05 0.65 1.03
-7.20 0.68 1.01
-11.09 1.06 0.38
-8.74 0.86 0.76
-6.99 0.71 1.04
-9.29 0.96 0.67
-9.14 0.97 0.69
-8.94 0.97 0.73
-6.83 0.76 1.06
-9.41 1.06 0.65
-9.39 1.08 0.65
-9.34 1.10 0.66
-9.61 1.16 0.61
-9.66 1.18 0.61
-9.45 1.18 0.64
-6.57 0.85 1.10
-9.66 1.26 0.60
-9.58 1.27 0.61
-9.34 1.26 0.65
-8.53 1.34 0.78
-7.52 1.49 0.93
-4.10 1.18 1.47
-1.40 -1.45 1.49
-1.84 -1.10 1.43
-3.35 -1.25 1.19
-3.79 -1.31 1.12
-3.56 -1.22 1.16
-3.75 -1.22 1.13
-3.83 -1.18 1.11
-3.92 -1.16 1.10
-3.85 -1.11 1.11
-3.91 -1.11 1.10
-7.58 -1.69 0.51
-3.75 -1.05 1.13
-3.31 -0.97 1.20
-3.38 -0.96 1.19
-3.52 -0.97 1.17
-3.58 -0.96 1.16
-3.88 -0.99 1.11
-3.59 -0.93 1.16
-3.67 -0.93 1.14
-3.49 -0.89 1.17
-3.35 -0.85 1.20
-3.50 -0.86 1.17
-3.31 -0.82 1.20
-3.19 -0.79 1.22
-3.28 -0.79 1.21
-3.22 -0.76 1.22
-3.30 -0.76 1.20
-3.36 -0.75 1.20
-3.43 -0.75 1.18
-4.68 -0.88 0.98
-3.35 -0.71 1.20
-4.80 -0.85 0.97
-5.61 -0.92 0.84
-5.22 -0.86 0.90
-4.61 -0.78 1.00
-4.64 -0.77 0.99
-4.13 -0.70 1.07
-4.33 -0.70 1.04
-4.44 -0.69 1.02
-4.53 -0.68 1.01
-4.66 -0.68 0.99
-4.54 -0.65 1.01
-5.02 -0.67 0.93
-5.05 -0.66 0.93
-5.09 -0.64 0.92
-4.55 -0.58 1.01
-4.36 -0.55 1.04
-4.38 -0.53 1.03
-4.38 -0.52 1.03
-4.18 -0.49 1.06
-4.77 -0.51 0.97
-4.85 -0.50 0.96
-5.11 -0.49 0.92
-4.08 -0.41 1.08
-5.43 -0.47 0.87
-3.69 -0.36 1.14
-10.84 -0.52 0.44
-9.70 -0.44 0.62
-10.11 -0.44 0.56
-9.58 -0.39 0.64
-9.58 -0.37 0.64
-9.58 -0.35 0.64
-9.96 -0.34 0.58
-9.95 -0.31 0.58
-10.25 -0.30 0.54
-10.23 -0.27 0.54
-10.38 -0.25 0.51
-10.35 -0.23 0.52
-10.07 -0.20 0.56
-9.88 -0.17 0.60
-9.84 -0.15 0.60
-9.93 -0.12 0.59
-9.89 -0.10 0.59
-10.00 -0.08 0.57
-9.80 -0.05 0.60
-9.84 -0.03 0.60
-9.76 -0.00 0.61
-9.97 0.11 0.50
-9.73 0.14 0.54
-9.76 0.18 0.53
-9.81 0.23 0.53
-10.25 0.26 0.45
-9.58 0.27 0.56
-10.20 0.31 0.46
-7.65 0.25 0.89
-10.42 0.39 0.42
-10.55 0.45 0.40
-10.38 0.47 0.43
-10.48 0.50 0.41
-8.26 0.41 0.78
-7.40 0.39 0.93
-7.48 0.43 0.91
-7.45 0.46 0.92
-7.66 0.49 0.88
-7.32 0.49 0.94
-7.45 0.52 0.92
-7.23 0.52 0.95
-7.36 0.56 0.93
-7.39 0.60 0.92
-6.99 0.59 0.99
-7.21 0.62 0.95
-6.98 0.62 0.99
-7.25 0.66 0.94
-4.62 0.45 1.39
-4.70 0.48 1.37
-4.62 0.48 1.39
-4.61 0.49 1.39
-4.67 0.51 1.38
-4.73 0.53 1.37
-9.16 1.05 0.62
-8.66 1.04 0.70
-9.24 1.13 0.60
-4.78 0.61 1.36
-9.03 1.15 0.63
-8.82 1.19 0.67
-7.96 1.13 0.81
-5.54 0.81 1.22
-8.41 1.24 0.73
-8.54 1.28 0.71
-8.27 1.28 0.76
-8.23 1.31 0.76
-8.38 1.36 0.73
-8.29 1.36 0.75
-8.23 1.50 0.76
-4.12 0.79 1.46
-7.51 1.43 0.88
-5.22 1.07 1.26
-4.11 1.08 1.44
-4.07 1.10 1.45
-4.01 1.14 1.46
-3.52 1.13 1.53
-0.49 -1.61 1.60
-1.60 -1.34 1.43
-3.62 -1.32 1.10
-3.57 -1.29 1.11
-1.34 -0.83 1.49
-3.83 -1.31 1.06
-3.79 -1.26 1.07
-3.93 -1.27 1.05
-3.87 -1.24 1.06
-3.81 -1.22 1.07
-3.93 -1.22 1.05
-3.61 -1.15 1.10
-3.63 -1.14 1.10
-3.71 -1.14 1.08
-3.89 -1.15 1.06
-3.52 -1.07 1.12
-3.63 -1.08 1.10
-3.85 -1.10 1.06
-4.12 -1.12 1.02
-3.52 -1.01 1.12
-3.85 -1.05 1.06
-3.99 -1.05 1.04
-3.87 -1.02 1.06
-4.12 -1.04 1.02
-3.58 -0.94 1.11
-3.49 -0.92 1.13
-3.48 -0.90 1.13
-3.45 -0.88 1.13
-3.30 -0.84 1.16
-3.37 -0.84 1.15
-4.11 -0.92 1.02
-3.32 -0.80 1.16
-3.21 -0.77 1.17
-3.16 -0.75 1.18
-3.34 -0.76 1.15
-3.16 -0.73 1.18
-3.27 -0.72 1.16
-3.38 -0.72 1.15
-3.71 -0.75 1.09
-4.59 -0.83 0.94
-4.13 -0.76 1.02
-3.91 -0.72 1.06
-3.41 -0.65 1.14
-4.75 -0.77 0.92
-2.90 -0.57 1.23
-4.49 -0.71 0.96
-4.33 -0.68 0.99
-4.93 -0.72 0.89
-4.77 -0.69 0.91
-4.49 -0.64 0.96
-4.62 -0.64 0.94
-4.56 -0.62 0.95
-4.03 -0.55 1.04
-4.10 -0.54 1.03
-4.13 -0.53 1.02
-4.57 -0.55 0.95
-4.39 -0.52 0.98
-5.12 -0.55 0.85
-4.30 -0.48 0.99
-4.32 -0.46 0.99
-4.24 -0.44 1.00
-4.21 -0.42 1.01
-4.12 -0.40 1.02
-3.93 -0.37 1.05
-4.06 -0.36 1.03
-4.48 -0.37 0.96
-4.30 -0.34 0.99
-4.79 -0.35 0.91
-4.54 -0.32 0.95
-4.21 -0.29 1.01
-4.59 -0.28 0.94
-4.18 -0.25 1.01
-7.68 -0.35 0.43
-4.25 -0.22 1.00
-4.36 -0.21 0.98
-4.46 -0.19 0.97
-4.45 -0.17 0.97
-4.36 -0.16 0.98
-4.63 -0.14 0.94
-9.73 0.02 0.46
-9.72 0.04 0.46
-9.73 0.07 0.46
-9.77 0.09 0.45
-9.98 0.11 0.41
-9.84 0.14 0.44
-9.91 0.16 0.42
-10.16 0.21 0.38
-9.91 0.23 0.42
-9.82 0.25 0.44
-10.53 0.30 0.31
-9.83 0.30 0.44
-9.91 0.33 0.42
-10.16 0.36 0.38
-8.80 0.33 0.62
-9.98 0.40 0.41
-7.66 0.33 0.82
-7.50 0.34 0.85
-7.64 0.36 0.82
-7.32 0.37 0.88
-7.42 0.39 0.86
-7.43 0.41 0.86
-8.20 0.47 0.72
-7.32 0.44 0.88
-7.34 0.46 0.87
-7.34 0.47 0.87
-7.34 0.49 0.87
-7.34 0.51 0.87
-7.49 0.54 0.84
-7.64 0.57 0.82
-7.28 0.56 0.88
-7.53 0.60 0.84
-7.58 0.62 0.83
-7.07 0.59 0.92
-7.20 0.62 0.89
-7.16 0.64 0.90
-7.08 0.65 0.91
-4.98 0.47 1.28
-4.87 0.47 1.30
-4.73 0.47 1.33
-6.89 0.70 0.94
-8.38 0.86 0.68
-4.74 0.51 1.33
-4.70 0.51 1.33
-5.01 0.56 1.28
-8.77 0.99 0.61
-4.91 0.57 1.29
-8.98 1.06 0.57
-4.93 0.60 1.29
-8.71 1.07 0.62
-8.72 1.09 0.61
-8.56 1.09 0.64
-8.45 1.10 0.66
-8.26 1.09 0.69
-5.16 0.70 1.25
-7.13 0.98 0.89
-8.12 1.14 0.71
-8.62 1.23 0.62
-8.02 1.16 0.73
-7.21 1.07 0.88
-7.62 1.14 0.80
-8.16 1.24 0.71
-8.11 1.26 0.71
-8.01 1.26 0.73
-7.97 1.27 0.74
-8.12 1.32 0.71
-8.37 1.38 0.66
-8.33 1.39 0.67
-8.12 1.38 0.71
-8.12 1.40 0.71
-7.89 1.38 0.75
-8.12 1.44 0.70
-7.66 1.42 0.78
-7.75 1.45 0.77
-7.45 1.46 0.82
-7.89 1.60 0.74
-3.87 -1.37 1.00
-3.87 -1.36 1.00
-3.88 -1.34 1.00
-3.65 -1.28 1.04
-3.82 -1.30 1.01
-3.85 -1.29 1.00
-3.89 -1.28 0.99
-3.79 -1.25 1.01
-3.65 -1.20 1.04
-3.76 -1.21 1.02
-3.65 -1.17 1.04
-3.55 -1.14 1.06
-3.55 -1.12 1.06
-3.68 -1.13 1.04
-3.67 -1.11 1.04
-3.70 -1.10 1.03
-3.72 -1.09 1.03
-3.72 -1.08 1.03
-3.75 -1.06 1.02
-3.63 -1.03 1.05
-3.71 -1.03 1.03
-3.94 -1.05 0.99
-3.79 -1.01 1.02
-3.87 -1.00 1.00
-4.28 -1.05 0.93
-3.65 -0.94 1.04
-4.09 -0.99 0.97
-4.36 -1.01 0.92
-4.28 -0.98 0.93
-4.10 -0.94 0.96
-4.29 -0.95 0.93
-3.82 -0.87 1.01
-4.02 -0.88 0.98
-3.54 -0.80 1.06
-4.21 -0.87 0.95
-3.99 -0.83 0.99
-3.79 -0.79 1.02
-3.81 -0.77 1.02
-4.19 -0.80 0.95
-4.43 -0.81 0.91
-4.47 -0.80 0.90
-4.05 -0.74 0.98
-4.23 -0.74 0.94
-4.16 -0.71 0.96
-4.23 -0.71 0.94
-4.27 -0.69 0.94
-4.04 -0.65 0.98
-4.21 -0.65 0.95
-4.38 -0.65 0.92
-5.43 -0.73 0.73
-4.86 -0.66 0.83
-4.53 -0.61 0.89
-4.27 -0.57 0.94
-4.25 -0.56 0.94
-4.64 -0.57 0.87
-4.16 -0.52 0.96
-4.34 -0.51 0.93
-5.18 -0.55 0.78
-4.45 -0.49 0.91
-5.02 -0.50 0.81
-5.41 -0.51 0.74
-7.46 -0.61 0.38
-5.36 -0.47 0.75
-4.03 -0.38 0.98
-4.14 -0.37 0.96
-4.08 -0.35 0.97
-4.19 -0.34 0.95
-4.18 -0.32 0.95
-4.13 -0.30 0.96
-5.11 -0.32 0.79
-4.33 -0.27 0.93
-7.26 -0.36 0.41
-7.08 -0.33 0.44
-7.50 -0.32 0.37
-4.19 -0.20 0.95
-4.62 -0.20 0.88
-3.93 -0.16 1.00
-4.38 -0.16 0.92
-4.37 -0.14 0.92
-4.58 -0.13 0.88
-10.28 -0.13 0.36
-10.06 -0.10 0.40
-10.06 -0.08 0.40
-9.94 -0.05 0.42
-9.84 -0.03 0.44
-9.68 -0.00 0.47
-3.11 -0.00 1.09
-3.19 0.01 1.07
-2.96 0.12 1.11
-3.79 0.15 0.96
-7.36 0.26 0.81
-7.55 0.29 0.77
-7.37 0.30 0.81
-7.35 0.31 0.81
-7.96 0.36 0.70
-7.50 0.36 0.78
-7.92 0.40 0.70
-8.27 0.43 0.64
-7.46 0.41 0.79
-7.58 0.43 0.77
-7.35 0.44 0.81
-7.33 0.45 0.81
-7.03 0.45 0.87
-7.37 0.49 0.80
-7.63 0.53 0.75
-7.72 0.55 0.74
-4.54 0.34 1.33
-7.81 0.60 0.72
-7.36 0.58 0.80
-7.52 0.61 0.77
-7.36 0.62 0.80
-4.72 0.41 1.29
-4.80 0.43 1.28
-4.87 0.45 1.26
-4.75 0.45 1.28
-7.77 0.74 0.72
-4.80 0.48 1.27
-8.20 0.82 0.64
-4.70 0.49 1.29
-4.85 0.52 1.26
-4.92 0.54 1.25
-5.14 0.57 1.21
-5.00 0.57 1.23
-4.71 0.55 1.29
-6.89 0.81 0.88
-8.36 1.00 0.61
-5.00 0.62 1.23
-8.55 1.07 0.57
-4.94 0.64 1.24
-8.34 1.08 0.61
-7.76 1.03 0.71
-8.16 1.10 0.64
-6.59 0.91 0.93
-8.12 1.13 0.65
-6.88 0.98 0.88
-7.07 1.03 0.84
-7.04 1.04 0.84
-7.39 1.11 0.78
-7.04 1.07 0.84
-7.88 1.22 0.69
-7.88 1.24 0.68
-8.07 1.29 0.65
-7.82 1.27 0.69
-7.78 1.28 0.70
-8.09 1.35 0.64
-7.74 1.31 0.71
-7.82 1.35 0.69
-7.96 1.39 0.66
-5.48 0.98 1.13
-7.83 1.46 0.68
-7.44 1.41 0.76
-3.82 1.05 1.42
-4.20 1.23 1.34
-1.56 -1.67 1.35
-1.56 -1.36 1.36
-3.59 -1.30 0.99
-3.62 -1.29 0.99
-3.88 -1.31 0.94
-3.88 -1.26 0.94
-3.92 -1.25 0.93
-3.64 -1.18 0.99
-3.66 -1.15 0.98
-3.76 -1.16 0.97
-3.90 -1.15 0.94
-3.71 -1.10 0.98
-3.57 -1.06 1.00
-3.86 -1.09 0.95
-3.63 -1.04 0.99
-3.68 -1.03 0.98
-3.76 -1.03 0.97
-3.86 -1.03 0.95
-4.23 -1.07 0.88
-4.42 -1.08 0.84
-4.41 -1.06 0.85
-3.96 -0.98 0.93
-3.88 -0.95 0.95
-3.73 -0.92 0.97
-3.86 -0.92 0.95
-3.92 -0.91 0.94
-3.46 -0.83 1.02
-3.94 -0.88 0.94
-4.30 -0.91 0.87
-4.45 -0.91 0.84
-4.02 -0.84 0.92
-4.79 -0.92 0.78
-3.75 -0.78 0.97
-3.64 -0.75 0.99
-3.67 -0.74 0.99
-3.56 -0.71 1.01
-3.98 -0.74 0.93
-4.83 -0.82 0.77
-4.51 -0.77 0.83
-4.01 -0.70 0.92
-3.65 -0.65 0.99
-4.08 -0.67 0.91
-3.70 -0.62 0.98
-4.38 -0.67 0.86
-4.27 -0.64 0.88
-5.41 -0.72 0.67
-5.29 -0.69 0.69
-5.45 -0.69 0.66
-5.34 -0.66 0.68
-5.33 -0.64 0.68
-5.27 -0.62 0.69
-5.17 -0.59 0.71
-5.09 -0.53 0.73
-3.96 -0.44 0.94
-5.15 -0.49 0.71
-4.75 -0.43 0.79
-3.83 -0.37 0.96
-4.32 -0.37 0.87
-4.09 -0.35 0.91
-4.33 -0.34 0.87
-5.05 -0.36 0.73
-4.07 -0.30 0.91
-4.29 -0.29 0.87
-3.13 -0.23 1.09
-4.03 -0.25 0.92
-3.06 -0.20 1.10
-2.93 -0.18 1.12
-2.68 -0.16 1.17
-7.28 -0.26 0.32
-3.29 -0.15 1.06
-9.16 0.04 0.40
-7.43 0.21 0.73
-7.48 0.23 0.72
-9.40 0.40 0.35
-7.48 0.34 0.72
-7.49 0.36 0.71
-7.20 0.36 0.77
-7.51 0.39 0.71
-7.32 0.40 0.75
-7.30 0.42 0.75
-7.57 0.45 0.70
-7.57 0.47 0.70
-7.62 0.49 0.69
-7.51 0.50 0.71
-7.36 0.51 0.74
-7.28 0.52 0.75
-7.54 0.56 0.70
-7.39 0.57 0.73
-7.63 0.60 0.68
-7.64 0.62 0.68
-6.73 0.57 0.85
-7.68 0.66 0.67
-7.47 0.66 0.71
-7.79 0.71 0.65
-7.61 0.71 0.68
-4.88 0.48 1.21
-4.75 0.47 1.24
-4.83 0.49 1.22
-8.07 0.83 0.59
-8.38 0.89 0.53
-4.78 0.52 1.23
-4.86 0.55 1.21
-8.41 0.95 0.52
-8.34 0.96 0.53
-8.30 0.98 0.54
-8.30 1.00 0.54
-5.50 0.68 1.09
-8.24 1.03 0.55
-8.04 1.03 0.59
-8.18 1.07 0.56
-8.07 1.07 0.58
-8.22 1.11 0.55
-7.93 1.09 0.61
-6.80 0.96 0.83
-6.75 0.97 0.84
-7.12 1.04 0.77
-7.54 1.11 0.68
-6.95 1.05 0.80
-7.42 1.13 0.70
-7.20 1.12 0.75
-6.98 1.10 0.79
-7.47 1.20 0.69
-7.40 1.21 0.70
-7.48 1.24 0.69
-7.41 1.24 0.70
-7.55 1.29 0.67
-7.71 1.33 0.64
-7.62 1.33 0.66
-7.32 1.30 0.72
-7.34 1.32 0.71
-7.75 1.42 0.63
-7.57 1.40 0.66
-7.55 1.42 0.67
-7.35 1.40 0.70
-5.36 1.06 1.10
-7.29 1.44 0.71
-5.49 1.11 1.07
-7.29 1.63 0.70
-3.17 -1.62 1.00
-3.67 -1.32 0.92
-3.85 -1.32 0.88
-3.88 -1.29 0.88
-3.92 -1.29 0.87
-3.96 -1.28 0.86
-3.80 -1.22 0.89
-3.87 -1.21 0.88
-3.89 -1.20 0.88
-3.80 -1.17 0.90
-3.69 -1.13 0.92
-3.62 -1.11 0.93
-3.80 -1.12 0.90
-3.89 -1.12 0.88
-3.95 -1.11 0.87
-3.89 -1.07 0.88
-4.06 -1.08 0.85
-3.99 -1.06 0.86
-3.99 -1.04 0.86
-4.12 -1.04 0.84
-4.68 -1.11 0.73
-4.26 -1.03 0.81
-4.37 -1.03 0.79
-4.05 -0.97 0.85
-4.39 -1.00 0.78
-4.22 -0.96 0.82
-3.95 -0.90 0.87
-4.35 -0.94 0.79
-4.25 -0.91 0.81
-4.05 -0.87 0.85
-4.18 -0.85 0.83
-4.14 -0.83 0.84
-4.16 -0.82 0.83
-5.62 -0.97 0.55
-4.11 -0.78 0.84
-4.17 -0.77 0.83
-4.16 -0.75 0.83
-4.34 -0.75 0.80
-4.40 -0.74 0.79
-4.50 -0.73 0.77
-4.69 -0.73 0.73
-4.75 -0.72 0.72
-5.03 -0.73 0.67
-4.51 -0.66 0.77
-4.34 -0.63 0.80
-4.07 -0.59 0.85
-5.21 -0.67 0.63
-4.41 -0.57 0.78
-5.28 -0.62 0.62
-5.05 -0.58 0.66
-4.98 -0.54 0.67
-5.28 -0.54 0.62
-5.14 -0.51 0.64
-4.91 -0.46 0.69
-5.05 -0.45 0.66
-4.14 -0.38 0.84
-4.75 -0.40 0.72
-4.45 -0.37 0.78
-4.07 -0.33 0.85
-4.34 -0.33 0.80
-4.21 -0.30 0.82
-4.45 -0.30 0.78
-9.28 -0.29 0.38
-9.38 -0.27 0.36
-9.30 -0.25 0.37
-9.27 -0.23 0.38
-5.02 0.30 0.60
-5.87 0.39 0.43
-7.62 0.54 0.62
-7.31 0.66 0.68
-4.61 0.45 1.23
-8.39 0.82 0.46
-4.52 0.46 1.25
-4.54 0.48 1.24
-4.61 0.50 1.23
-4.52 0.50 1.25
-4.91 0.58 1.17
-4.53 0.57 1.24
-5.10 0.68 1.12
-5.52 0.75 1.04
-5.48 0.76 1.04
-6.64 0.93 0.81
-5.05 0.72 1.13
-5.41 0.79 1.06
-5.60 0.84 1.02
-5.34 0.82 1.07
-5.45 0.85 1.05
-6.40 1.02 0.85
-5.66 0.94 1.00
-5.36 0.92 1.06
-5.34 0.93 1.06
-5.30 0.93 1.07
-2.91 0.96 1.53
-0.61 -0.57 1.50
-0.98 -0.60 1.42
-3.44 -0.93 0.92
-3.06 -0.79 1.00
-3.50 -0.82 0.91
-3.18 -0.77 0.98
-3.62 -0.81 0.89
-3.99 -0.84 0.81
-3.69 -0.79 0.87
-3.88 -0.79 0.83
-3.38 -0.71 0.94
-3.73 -0.71 0.87
-2.93 -0.55 1.03
-4.00 -0.63 0.81
-2.73 -0.47 1.07
-2.56 -0.45 1.10
-2.54 -0.43 1.11
-2.80 -0.44 1.05
-4.81 0.06 1.15
-7.86 0.20 0.50
-7.99 0.23 0.47
-7.69 0.31 0.53
-7.50 0.32 0.57
-7.43 0.34 0.59
-7.65 0.36 0.54
-7.63 0.38 0.55
-7.83 0.41 0.50
-7.82 0.43 0.50
-7.40 0.42 0.59
-7.76 0.46 0.52
-7.10 0.46 0.66
-7.64 0.51 0.54
-4.51 0.32 1.21
-4.50 0.33 1.21
-8.30 0.64 0.40
-4.38 0.35 1.23
-8.39 0.70 0.38
-4.98 0.44 1.10
-7.84 0.70 0.49
-8.07 0.74 0.44
-8.20 0.77 0.41
-8.25 0.79 0.40
-8.05 0.79 0.45
-7.88 0.80 0.48
-8.08 0.83 0.44
-7.80 0.83 0.50
-7.68 0.83 0.52
-7.80 0.86 0.50
-7.84 0.89 0.49
-7.92 0.92 0.47
-7.92 0.94 0.47
-7.80 0.94 0.49
-7.82 0.96 0.49
-7.68 0.96 0.52
-7.75 0.99 0.50
-7.19 0.94 0.62
-6.55 0.87 0.76
-6.38 0.87 0.79
-7.37 1.02 0.58
-7.21 1.01 0.61
-6.84 0.98 0.69
-6.78 0.99 0.70
-6.41 0.95 0.78
-6.39 0.96 0.79
-6.34 0.97 0.79
-6.91 1.08 0.67
-7.45 1.18 0.56
-5.88 0.95 0.89
-7.05 1.15 0.64
-7.57 1.25 0.53
-7.61 1.28 0.52
-7.51 1.28 0.54
-5.29 0.92 1.02
-6.96 1.22 0.65
-7.14 1.27 0.61
-5.48 1.00 0.97
-5.50 1.01 0.97
-5.43 1.02 0.98
-7.14 1.35 0.61
-7.29 1.39 0.58
-7.20 1.39 0.60
-7.16 1.40 0.60
-5.46 1.09 0.97
-7.35 1.48 0.56
-5.68 1.16 0.92
-5.75 1.19 0.91
-5.64 1.21 0.93
-5.64 1.23 0.93
-3.31 -1.44 0.87
-3.05 -1.31 0.93
-3.40 -1.33 0.85
-3.18 -1.26 0.90
-3.44 -1.30 0.85
-3.35 -1.25 0.87
-3.72 -1.32 0.79
-3.84 -1.32 0.76
-1.46 -0.84 1.27
-3.65 -1.25 0.80
-3.79 -1.27 0.77
-3.65 -1.22 0.80
-3.97 -1.27 0.73
-3.94 -1.25 0.74
-3.85 -1.21 0.76
-3.94 -1.21 0.74
-3.95 -1.20 0.74
-3.95 -1.18 0.74
-3.93 -1.16 0.75
-4.01 -1.16 0.73
-4.12 -1.16 0.71
-4.15 -1.15 0.70
-4.39 -1.17 0.65
-4.08 -1.10 0.72
-4.17 -1.10 0.70
-4.28 -1.10 0.67
-4.04 -1.05 0.73
-4.52 -1.11 0.62
-3.85 -0.99 0.77
-3.95 -0.99 0.75
-4.09 -0.99 0.72
-4.07 -0.97 0.72
-4.00 -0.94 0.74
-4.32 -0.97 0.67
-4.34 -0.96 0.67
-4.46 -0.96 0.64
-4.18 -0.90 0.70
-4.53 -0.93 0.62
-4.61 -0.92 0.61
-4.08 -0.84 0.72
-4.52 -0.88 0.63
-4.36 -0.84 0.66
-4.10 -0.79 0.72
-4.25 -0.79 0.69
-4.29 -0.78 0.68
-4.35 -0.77 0.66
-4.29 -0.75 0.68
-4.20 -0.72 0.70
-4.30 -0.71 0.67
-4.34 -0.70 0.67
-4.38 -0.69 0.66
-4.71 -0.70 0.59
-4.01 -0.62 0.74
-4.47 -0.64 0.64
-4.24 -0.61 0.69
-3.89 -0.56 0.76
-4.03 -0.56 0.73
-3.59 -0.51 0.83
-4.40 -0.55 0.65
-3.81 -0.49 0.78
-3.39 -0.45 0.87
-4.84 -0.53 0.56
-4.36 -0.48 0.66
-3.92 -0.44 0.76
-4.28 -0.44 0.68
-3.67 -0.39 0.81
-3.61 -0.37 0.82
-6.18 -0.31 0.86
-6.28 -0.30 0.84
-4.73 -0.16 1.17
-4.50 -0.14 1.22
-4.56 -0.13 1.21
-4.81 -0.13 1.15
-4.80 -0.11 1.16
-4.24 -0.00 0.62
-4.32 0.01 0.60
-4.43 0.03 0.58
-7.18 0.12 0.58
-7.82 0.31 0.44
-7.56 0.32 0.49
-7.07 0.44 0.60
-4.41 0.35 1.18
-4.61 0.38 1.14
-4.49 0.38 1.17
-4.50 0.39 1.16
-4.53 0.42 1.16
-4.44 0.42 1.18
-4.54 0.45 1.15
-7.74 0.78 0.44
-4.55 0.48 1.15
-4.50 0.48 1.16
-7.71 0.85 0.44
-7.55 0.85 0.48
-7.83 0.92 0.42
-7.73 0.93 0.44
-7.55 0.93 0.48
-7.57 0.95 0.47
-7.45 0.97 0.50
-6.99 0.93 0.60
-6.48 0.89 0.71
-6.49 0.91 0.71
-5.64 0.81 0.90
-6.95 1.01 0.60
-5.81 0.88 0.86
-5.62 0.86 0.90
-5.69 0.90 0.88
-5.52 0.89 0.92
-5.63 0.92 0.89
-6.97 1.15 0.59
-7.25 1.23 0.53
-5.57 0.97 0.90
-7.04 1.25 0.57
-5.15 0.94 1.00
-7.34 1.36 0.50
-5.53 1.07 0.91
-5.67 1.14 0.87
-5.57 1.15 0.89
-3.74 -1.31 0.72
-3.41 -1.22 0.80
-3.58 -1.23 0.76
-3.83 -1.27 0.71
-3.87 -1.26 0.70
-4.03 -1.27 0.66
-3.99 -1.23 0.67
-3.91 -1.20 0.69
-3.85 -1.18 0.70
-3.67 -1.13 0.74
-4.05 -1.18 0.66
-3.85 -1.13 0.70
-3.88 -1.12 0.70
-4.30 -1.17 0.60
-4.15 -1.13 0.64
-4.22 -1.12 0.62
-4.39 -1.13 0.58
-4.25 -1.09 0.62
-4.11 -1.05 0.65
-3.69 -0.98 0.74
-4.21 -1.04 0.63
-3.71 -0.95 0.74
-4.11 -0.97 0.65
-4.22 -0.97 0.63
-4.10 -0.94 0.65
-3.62 -0.86 0.76
-3.50 -0.83 0.79
-4.70 -0.97 0.52
-4.45 -0.90 0.58
-4.35 -0.87 0.60
-3.94 -0.80 0.69
-3.77 -0.77 0.73
-4.63 -0.85 0.54
-4.32 -0.80 0.61
-3.67 -0.71 0.75
-3.50 -0.66 0.79
-3.39 -0.64 0.81
-3.24 -0.59 0.85
-3.34 -0.59 0.82
-3.26 -0.56 0.84
-4.54 -0.67 0.56
-5.08 -0.68 0.44
-3.83 -0.55 0.72
-3.01 -0.46 0.90
-2.96 -0.44 0.91
-3.34 -0.46 0.82
-3.55 -0.46 0.78
-3.38 -0.42 0.81
-3.20 -0.39 0.85
-3.46 -0.38 0.80
-3.62 -0.37 0.76
-3.47 -0.35 0.80
-4.11 -0.35 0.65
-3.78 -0.32 0.73
-3.98 -0.31 0.68
-4.32 -0.29 0.61
-3.64 -0.23 0.76
-4.12 -0.23 0.65
-4.34 -0.22 0.60
-4.30 -0.02 0.61
-7.36 0.74 0.45
-7.43 0.77 0.43
-7.32 0.77 0.46
-7.16 0.78 0.49
-7.22 0.80 0.48
-7.31 0.83 0.46
-7.32 0.85 0.45
-7.07 0.85 0.51
-6.89 0.85 0.55
-7.01 0.88 0.52
-7.18 0.92 0.48
-6.96 0.91 0.53
-6.91 0.92 0.54
-7.04 0.95 0.51
-7.07 0.98 0.50
-7.11 1.00 0.49
-7.09 1.01 0.50
-7.27 1.05 0.46
-7.09 1.05 0.50
-7.34 1.10 0.44
-6.85 1.05 0.55
-7.38 1.14 0.43
-7.16 1.13 0.48
-7.02 1.12 0.51
-6.81 1.11 0.56
-7.23 1.19 0.46
-7.04 1.18 0.50
-6.71 1.14 0.58
-7.07 1.22 0.49
-6.92 1.21 0.53
-7.27 1.31 0.44
-7.07 1.31 0.49
-7.12 1.37 0.47
-4.20 -1.29 0.55
-3.95 -1.21 0.61
-4.20 -1.24 0.55
-4.03 -1.19 0.59
-4.00 -1.17 0.60
-4.20 -1.19 0.56
-4.36 -1.20 0.52
-4.12 -1.14 0.57
-4.25 -1.15 0.54
-4.25 -1.13 0.54
-4.12 -1.09 0.57
-4.25 -1.09 0.54
-4.29 -1.08 0.54
-4.39 -1.08 0.51
-4.29 -1.05 0.54
-4.15 -1.01 0.57
-4.43 -1.04 0.50
-4.16 -0.98 0.57
-3.99 -0.94 0.61
-4.28 -0.95 0.54
-4.73 -0.97 0.44
-4.54 -0.89 0.48
-4.35 -0.85 0.53
-3.81 -0.76 0.65
-4.38 -0.81 0.52
-3.63 -0.71 0.69
-3.53 -0.68 0.72
-3.23 -0.46 0.79
-3.46 -0.47 0.73
-3.73 -0.47 0.67
-3.80 -0.43 0.65
-3.44 -0.39 0.74
-3.54 -0.38 0.72
-4.14 -0.40 0.58
-3.66 -0.36 0.69
-3.55 -0.32 0.71
-4.63 -0.36 0.46
-4.36 -0.26 0.52
-4.90 -0.26 0.40
-4.66 -0.23 0.46
-4.85 -0.22 0.41
-4.67 -0.20 0.45
-4.88 -0.19 0.40
-4.84 -0.17 0.41
-0.32 -1.62 1.20
-4.28 1.22 0.78
-0.90 -1.02 0.50
-0.81 -0.86 0.45
-3.00 0.57 0.36
-2.99 0.78 0.30
-0.79 -0.84 0.33
-0.80 -0.85 0.31
-0.82 -0.87 0.30
-0.84 -0.71 0.32
-0.83 -0.74 0.32
-0.83 -0.78 0.31
-12.01 0.51 1.58
-11.34 -0.11 1.62
-15.30 -0.01 1.43
-11.80 0.53 1.54
-12.05 -0.46 1.40
-11.85 0.51 1.48
-11.97 0.54 1.48
-12.19 0.58 1.46
-12.48 0.68 1.45
-14.16 -0.68 1.20
-11.66 0.41 1.38
-12.05 0.80 1.35
-14.25 -0.52 0.94
-14.45 0.24 1.03
-9.58 0.27 1.42
-12.21 0.64 1.21
-12.27 0.67 1.20
-12.27 0.88 1.20
-12.11 0.90 1.21
-11.80 0.93 1.24
-12.12 1.04 1.21
-14.80 -0.75 1.01
-14.27 -0.85 0.76
-14.61 -0.82 0.73
-14.38 -0.77 0.75
-14.44 -0.73 0.74
-9.47 -0.47 1.16
-15.12 -0.64 0.69
-14.10 -0.52 0.77
-13.85 -0.47 0.79
-14.39 -0.45 0.75
-14.38 -0.41 0.75
-13.97 0.19 0.91
-11.65 0.66 1.12
-11.96 0.71 1.09
-13.05 0.99 0.99
-9.66 0.79 1.30
-12.69 1.64 1.01
-8.79 -0.69 1.14
-14.90 -0.92 0.59
-13.49 -0.73 0.72
-14.21 -0.73 0.65
-14.76 -0.62 0.60
-13.47 -0.54 0.72
-14.54 -0.45 0.62
-14.12 -0.40 0.66
-13.48 0.20 0.63
-13.11 1.06 0.91
-12.33 1.24 0.98
-8.01 -0.77 1.15
-8.88 -0.69 1.07
-13.39 -0.77 0.64
-13.48 -0.65 0.63
-12.82 -0.55 0.69
-13.70 0.26 0.77
-11.56 0.69 0.99
-10.81 0.67 1.06
-12.76 1.13 0.86
-12.94 1.20 0.84
-12.71 1.21 0.86
-12.38 1.21 0.90
-12.36 1.24 0.90
-12.40 1.27 0.89
-12.62 1.33 0.87
-12.26 1.35 0.91
-11.64 -1.44 0.71
-11.52 -1.33 0.72
-12.23 -1.36 0.65
-10.91 -1.08 0.78
-10.70 -0.99 0.81
-11.04 -0.99 0.77
-8.22 -0.76 1.06
-8.18 -0.71 1.06
-8.90 -0.58 0.99
-13.29 -0.65 0.54
-13.11 -0.60 0.56
-14.55 -0.49 0.69
-14.60 -0.46 0.68
-14.70 -0.43 0.67
-13.66 0.43 0.40
-12.88 1.01 0.77
-13.03 1.05 0.75
-13.35 -0.73 0.43
-13.24 -0.61 0.45
-13.20 -0.57 0.45
-12.98 -0.52 0.47
-13.05 -0.49 0.47
-13.15 -0.45 0.46
-14.75 0.13 0.47
-14.27 0.23 0.52
