# .PCD v0.7 - Point Cloud Data file format
VERSION 0.7
FIELDS x y z
SIZE 4 4 4
TYPE F F F
COUNT 1 1 1
WIDTH 2852
HEIGHT 1
VIEWPOINT 0 0 0 1 0 0 0
POINTS 2852
DATA ASCII
-5.31 -1.21 1.67
-5.11 -1.16 1.68
-5.23 -1.16 1.68
-1.54 -0.55 1.91
-12.97 -1.63 1.19
-12.94 -1.56 1.19
-12.98 -1.52 1.19
-13.09 -1.34 1.18
-12.66 -1.27 1.21
-13.04 -1.26 1.18
-12.87 -1.21 1.20
-13.14 -1.20 1.18
-13.11 -1.16 1.18
-12.50 -1.08 1.22
-6.23 -0.55 1.61
-11.11 -0.78 1.31
-12.15 -0.77 1.24
-6.57 -0.46 1.59
-11.07 -0.51 1.31
-7.04 -0.34 1.56
-6.93 -0.32 1.57
-6.70 -0.22 1.58
-6.52 -0.15 1.59
-13.91 -0.06 1.13
-6.04 0.01 1.77
-11.13 0.04 1.43
-11.00 0.07 1.44
-10.68 0.09 1.46
-14.41 0.19 1.21
-14.96 0.23 1.17
-14.84 0.30 1.18
-9.85 0.25 1.51
-9.30 0.26 1.55
-9.90 0.32 1.51
-9.82 0.39 1.51
-9.65 0.50 1.53
-9.87 0.53 1.51
-10.05 0.59 1.50
-9.66 0.59 1.52
-9.77 0.62 1.52
-5.10 0.36 1.83
-9.68 0.71 1.52
-7.95 0.62 1.64
-8.89 0.87 1.57
-8.95 1.11 1.57
-9.01 1.48 1.56
-8.78 1.50 1.57
-1.52 -0.88 1.89
-1.57 -0.88 1.88
-1.70 -0.90 1.88
-1.44 -0.83 1.89
-5.18 -1.52 1.64
-5.42 -1.55 1.62
-5.34 -1.51 1.63
-1.28 -0.74 1.91
-5.29 -1.40 1.63
-5.29 -1.38 1.63
-5.13 -1.34 1.64
-5.22 -1.33 1.63
-5.20 -1.31 1.64
-5.50 -1.34 1.62
-5.28 -1.29 1.63
-5.27 -1.26 1.63
-5.26 -1.24 1.63
-5.26 -1.22 1.63
-5.32 -1.21 1.63
-5.32 -1.19 1.63
-5.17 -1.15 1.64
-5.43 -1.17 1.62
-5.08 -1.10 1.65
-5.32 -1.12 1.63
-5.92 -1.18 1.59
-5.52 -1.10 1.62
-5.19 -1.02 1.64
-5.34 -0.98 1.63
-4.75 -0.88 1.67
-5.72 -0.93 1.60
-13.11 -1.69 1.10
-13.27 -1.67 1.09
-13.17 -1.62 1.09
-6.22 -0.89 1.57
-6.18 -0.87 1.57
-6.34 -0.86 1.56
-6.25 -0.83 1.57
-12.51 -1.30 1.14
-12.59 -1.27 1.13
-12.95 -1.26 1.11
-12.57 -1.19 1.14
-12.83 -1.18 1.12
-12.69 -1.13 1.13
-6.25 -0.64 1.57
-12.77 -1.06 1.12
-12.33 -0.99 1.15
-6.10 -0.56 1.58
-12.84 -0.95 1.12
-5.95 -0.51 1.59
-6.23 -0.51 1.57
-11.33 -0.76 1.22
-6.25 -0.47 1.57
-6.60 -0.46 1.54
-6.83 -0.45 1.53
-11.53 -0.63 1.21
-6.98 -0.41 1.52
-11.26 -0.56 1.23
-6.75 -0.22 1.72
-6.48 -0.19 1.74
-6.89 -0.17 1.71
-5.86 -0.03 1.78
-10.95 -0.04 1.44
-8.21 0.22 1.37
-8.71 0.34 1.33
-8.65 0.45 1.34
-15.48 0.80 0.83
-15.45 0.84 0.84
-10.13 0.59 1.44
-10.14 0.62 1.44
-9.63 0.68 1.47
-8.59 0.85 1.55
-1.88 -1.05 1.84
-5.27 -1.49 1.59
-4.99 -1.42 1.61
-5.17 -1.32 1.60
-1.92 -0.77 1.84
-5.38 -1.14 1.58
-12.81 -1.62 1.04
-13.18 -1.62 1.01
-12.99 -1.56 1.02
-13.10 -1.53 1.01
-6.23 -0.85 1.52
-13.27 -1.47 1.00
-2.01 -0.42 1.83
-13.33 -1.36 1.00
-12.79 -1.28 1.04
-12.64 -1.23 1.05
-12.72 -1.20 1.04
-12.66 -1.16 1.05
-12.94 -1.14 1.03
-12.59 -0.90 1.05
-11.18 -0.78 1.16
-6.71 -0.51 1.49
-11.48 -0.70 1.13
-7.12 -0.44 1.46
-6.82 -0.40 1.48
-12.52 -0.60 1.06
-11.92 -0.51 1.10
-6.75 -0.31 1.48
-6.94 -0.29 1.47
-13.34 -0.37 1.00
-13.45 -0.33 0.99
-13.60 -0.26 0.98
-9.80 -0.17 1.26
-5.39 -0.09 1.58
-13.35 -0.14 1.00
-10.91 0.01 1.32
-10.73 0.04 1.34
-8.48 0.05 1.51
-14.46 0.12 1.04
-5.19 0.06 1.77
-10.71 0.14 1.34
-5.54 0.09 1.74
-9.59 0.20 1.42
-14.70 0.33 1.02
-9.21 0.23 1.45
-5.34 0.16 1.76
-9.63 0.31 1.42
-10.06 0.35 1.39
-9.92 0.39 1.40
-9.80 0.41 1.41
-9.77 0.43 1.41
-9.84 0.51 1.40
-9.69 0.52 1.41
-9.84 0.58 1.40
-9.98 0.61 1.39
-10.05 0.64 1.38
-9.80 0.65 1.40
-9.95 0.68 1.39
-9.78 0.69 1.41
-9.80 0.72 1.40
-9.80 0.76 1.40
-8.24 0.72 1.53
-7.15 0.70 1.61
-8.64 1.08 1.49
-8.23 1.13 1.52
-8.44 1.24 1.50
-5.58 0.84 1.73
-8.38 1.58 1.50
-1.81 -1.02 1.82
-4.89 -1.69 1.57
-5.31 -1.67 1.54
-5.17 -1.62 1.55
-5.11 -1.57 1.55
-5.46 -1.62 1.52
-5.29 -1.56 1.54
-5.79 -1.64 1.50
-5.45 -1.55 1.53
-5.28 -1.50 1.54
-5.23 -1.47 1.54
-5.36 -1.48 1.53
-1.42 -0.75 1.85
-5.22 -1.41 1.54
-4.91 -1.34 1.57
-4.94 -1.33 1.57
-5.03 -1.32 1.56
-5.04 -1.30 1.56
-4.97 -1.28 1.57
-5.10 -1.26 1.56
-5.18 -1.25 1.55
-1.91 -0.73 1.81
-5.01 -1.19 1.56
-4.85 -1.15 1.58
-5.23 -1.16 1.55
-1.70 -0.61 1.83
-5.45 -1.10 1.53
-1.98 -0.62 1.80
-2.08 -0.54 1.80
-13.08 -1.65 0.93
-13.38 -1.64 0.90
-2.23 -0.50 1.79
-2.12 -0.48 1.79
-6.29 -0.86 1.46
-6.19 -0.83 1.47
-6.23 -0.81 1.47
-13.29 -1.36 0.91
-13.18 -1.32 0.92
-6.85 -0.77 1.42
-6.32 -0.71 1.46
-12.87 -1.18 0.94
-12.65 -1.13 0.96
-12.98 -1.00 0.93
-6.85 -0.59 1.42
-6.68 -0.56 1.43
-6.64 -0.53 1.44
-12.48 -0.64 1.20
-7.09 -0.35 1.62
-7.74 -0.36 1.57
-10.51 -0.46 1.35
-10.42 -0.43 1.36
-7.14 -0.26 1.62
-10.51 -0.34 1.35
-10.51 -0.31 1.35
-10.68 -0.29 1.34
-10.66 -0.27 1.34
-6.58 -0.15 1.66
-11.25 -0.12 1.29
-10.94 -0.09 1.32
-10.90 -0.06 1.32
-14.45 -0.05 1.04
-14.38 0.15 0.98
-14.38 0.19 0.98
-9.36 0.15 1.40
-9.38 0.17 1.39
-9.31 0.23 1.40
-9.30 0.26 1.40
-9.35 0.28 1.40
-9.47 0.31 1.39
-9.77 0.34 1.36
-9.73 0.36 1.36
-9.44 0.37 1.39
-9.55 0.40 1.38
-10.04 0.44 1.34
-10.10 0.47 1.33
-9.94 0.49 1.35
-9.78 0.50 1.36
-9.75 0.55 1.36
-9.95 0.58 1.34
-10.12 0.62 1.33
-9.95 0.63 1.34
-9.92 0.65 1.35
-9.89 0.67 1.35
-9.80 0.69 1.36
-9.81 0.72 1.35
-9.72 0.73 1.36
-7.34 0.57 1.56
-8.74 1.04 1.44
-8.29 1.03 1.48
-8.57 1.08 1.45
-8.04 1.04 1.50
-8.23 1.08 1.48
-8.24 1.12 1.48
-5.80 0.81 1.69
-8.58 1.25 1.45
-8.10 1.20 1.49
-8.18 1.28 1.48
-5.69 0.92 1.69
-1.10 -0.96 1.85
-5.30 -1.60 1.50
-5.25 -1.57 1.50
-4.96 -1.44 1.53
-5.47 -1.51 1.48
-5.09 -1.42 1.52
-5.14 -1.41 1.51
-5.23 -1.39 1.50
-5.19 -1.37 1.51
-4.97 -1.21 1.53
-4.85 -1.18 1.54
-5.19 -1.19 1.51
-1.62 -0.62 1.81
-5.47 -1.06 1.49
-5.23 -1.00 1.51
-2.05 -0.47 1.78
-6.43 -0.87 1.41
-13.04 -1.38 0.85
-12.87 -1.33 0.87
-13.07 -1.31 0.85
-6.55 -0.75 1.40
-6.75 -0.74 1.38
-13.02 -1.19 0.85
-6.94 -0.71 1.36
-6.53 -0.66 1.40
-6.77 -0.65 1.38
-6.64 -0.62 1.39
-6.98 -0.62 1.36
-6.79 -0.58 1.38
-6.70 -0.56 1.38
-6.59 -0.53 1.39
-6.60 -0.51 1.39
-6.57 -0.48 1.39
-6.60 -0.46 1.39
-6.74 -0.45 1.38
-6.72 -0.42 1.38
-7.06 -0.41 1.35
-6.38 -0.36 1.41
-6.48 -0.35 1.40
-6.61 -0.33 1.39
-11.46 -0.46 0.98
-6.40 -0.28 1.41
-6.55 -0.26 1.40
-6.41 -0.23 1.41
-6.63 -0.22 1.39
-13.26 -0.33 0.83
-10.05 -0.23 1.10
-13.41 -0.26 0.82
-10.49 -0.18 1.06
-10.35 -0.15 1.08
-10.49 -0.11 1.06
-10.30 -0.08 1.08
-13.49 -0.06 0.81
-10.57 0.01 1.23
-10.55 0.06 1.23
-14.20 0.12 0.90
-10.52 0.11 1.23
-10.51 0.14 1.23
-6.67 0.12 1.58
-9.45 0.19 1.33
-6.08 0.14 1.63
-9.22 0.23 1.35
-9.27 0.25 1.34
-9.41 0.28 1.33
-5.65 0.18 1.67
-9.36 0.32 1.33
-9.40 0.35 1.33
-9.43 0.37 1.33
-9.63 0.40 1.31
-6.76 0.30 1.57
-9.60 0.45 1.31
-9.61 0.47 1.31
-9.66 0.50 1.31
-6.51 0.35 1.59
-9.84 0.55 1.29
-9.66 0.57 1.31
-9.62 0.59 1.31
-9.62 0.61 1.31
-9.72 0.64 1.30
-7.14 0.49 1.53
-7.16 0.51 1.53
-7.46 0.55 1.50
-7.30 0.55 1.52
-7.50 0.59 1.50
-5.54 0.45 1.68
-9.63 0.82 1.31
-8.64 1.05 1.39
-8.20 1.02 1.43
-8.66 1.10 1.39
-8.44 1.09 1.41
-7.43 0.98 1.50
-8.35 1.12 1.42
-8.24 1.14 1.42
-8.44 1.21 1.41
-8.60 1.26 1.39
-8.40 1.25 1.41
-8.15 1.29 1.43
-8.20 1.32 1.42
-8.02 1.37 1.44
-7.97 1.57 1.44
-5.39 -1.62 1.44
-5.69 -1.64 1.41
-5.23 -1.53 1.45
-5.19 -1.50 1.46
-1.81 -0.85 1.76
-5.13 -1.43 1.46
-5.00 -1.39 1.47
-5.10 -1.37 1.46
-4.93 -1.32 1.48
-4.89 -1.30 1.48
-4.89 -1.28 1.48
-5.39 -1.34 1.44
-1.91 -0.76 1.76
-1.93 -0.75 1.75
-4.83 -1.14 1.49
-4.97 -1.10 1.48
-1.86 -0.65 1.76
-2.12 -0.66 1.74
-4.99 -1.03 1.48
-5.02 -0.98 1.47
-1.55 -0.47 1.79
-6.89 -1.03 1.30
-1.85 -0.43 1.76
-1.92 -0.42 1.76
-6.38 -0.80 1.35
-6.16 -0.76 1.37
-2.06 -0.40 1.74
-2.14 -0.39 1.74
-6.86 -0.73 1.31
-12.67 -1.09 0.78
-6.55 -0.64 1.34
-6.45 -0.61 1.35
-6.36 -0.58 1.35
-6.42 -0.56 1.35
-6.37 -0.45 1.35
-6.66 -0.42 1.33
-6.80 -0.36 1.31
-6.54 -0.30 1.34
-6.53 -0.28 1.34
-6.36 -0.25 1.35
-6.48 -0.24 1.34
-6.15 -0.21 1.37
-6.48 -0.15 1.34
-6.85 -0.09 1.56
-6.87 -0.07 1.56
-14.29 -0.12 0.89
-14.17 -0.08 0.90
-10.27 -0.04 1.25
-7.05 -0.01 1.54
-5.23 0.03 1.41
-9.12 0.07 1.04
-9.40 0.13 1.01
-9.49 0.19 1.00
-9.61 0.22 0.99
-9.38 0.24 1.01
-9.45 0.27 1.00
-8.16 0.27 1.13
-9.91 0.27 1.23
-10.12 0.30 1.21
-10.55 0.34 1.17
-9.42 0.33 1.28
-9.42 0.35 1.28
-9.32 0.37 1.29
-9.54 0.40 1.27
-9.46 0.42 1.27
-9.60 0.45 1.26
-9.60 0.47 1.26
-9.59 0.49 1.26
-9.84 0.53 1.24
-9.78 0.55 1.24
-9.87 0.58 1.23
-9.78 0.60 1.24
-9.54 0.60 1.26
-9.73 0.64 1.25
-9.94 0.68 1.23
-9.72 0.69 1.25
-9.91 0.72 1.23
-6.23 0.47 1.58
-5.91 0.46 1.61
-7.44 0.81 1.46
-9.16 1.04 1.29
-8.35 0.97 1.37
-8.26 1.06 1.38
-4.98 0.66 1.70
-8.68 1.18 1.34
-8.16 1.13 1.39
-8.22 1.18 1.38
-8.05 1.18 1.40
-8.37 1.24 1.36
-8.22 1.24 1.38
-8.45 1.29 1.36
-8.16 1.27 1.38
-7.87 1.25 1.41
-8.05 1.29 1.39
-8.50 1.64 1.34
-8.32 1.69 1.36
-0.89 -1.07 1.83
-1.14 -0.98 1.80
-1.33 -0.96 1.79
-1.68 -0.98 1.75
-1.15 -0.77 1.81
-1.31 -0.80 1.79
-1.84 -0.88 1.74
-1.71 -0.84 1.75
-5.19 -1.42 1.41
-1.26 -0.70 1.79
-5.21 -1.37 1.41
-4.97 -1.31 1.43
-1.70 -0.71 1.75
-1.68 -0.70 1.75
-5.14 -1.20 1.42
-1.38 -0.62 1.78
-1.50 -0.63 1.77
-5.28 -1.13 1.41
-1.23 -0.50 1.80
-6.59 -0.84 1.28
-12.88 -1.25 0.68
-12.75 -1.17 0.69
-12.82 -1.14 0.68
-12.64 -1.09 0.70
-6.30 -0.62 1.31
-6.52 -0.61 1.29
-6.47 -0.59 1.29
-6.47 -0.54 1.29
-6.95 -0.55 1.25
-6.77 -0.47 1.26
-7.12 -0.46 1.23
-7.03 -0.44 1.24
-6.71 -0.40 1.27
-6.72 -0.38 1.27
-6.71 -0.35 1.27
-6.19 -0.29 1.32
-6.37 -0.28 1.30
-6.44 -0.26 1.30
-6.50 -0.24 1.29
-9.82 -0.29 0.97
-6.66 -0.17 1.27
-6.42 -0.15 1.30
-5.95 -0.12 1.34
-6.27 -0.10 1.31
-6.35 -0.08 1.30
-13.01 -0.10 0.66
-6.48 -0.04 1.29
-10.52 -0.02 0.90
-10.50 0.01 1.11
-10.56 0.04 1.10
-5.56 0.05 1.61
-10.46 0.11 1.11
-5.79 0.09 1.59
-10.16 0.18 1.14
-10.23 0.21 1.13
-9.80 0.22 1.18
-9.09 0.23 1.25
-9.95 0.27 1.16
-9.78 0.29 1.18
-9.40 0.30 1.22
-9.88 0.34 1.17
-7.13 0.27 1.45
-9.21 0.36 1.24
-9.38 0.39 1.22
-9.74 0.43 1.18
-7.28 0.34 1.43
-6.29 0.31 1.53
-7.00 0.36 1.46
-9.60 0.52 1.20
-6.23 0.35 1.54
-9.64 0.57 1.19
-9.69 0.59 1.19
-6.77 0.43 1.48
-9.62 0.63 1.19
-7.33 0.50 1.43
-7.19 0.51 1.44
-9.77 0.71 1.18
-9.59 0.72 1.19
-6.88 0.54 1.47
-7.48 0.64 1.41
-8.37 0.77 1.32
-8.59 0.94 1.29
-6.03 0.68 1.55
-5.66 0.70 1.59
-5.68 0.74 1.59
-5.57 0.74 1.60
-5.90 0.81 1.56
-5.82 0.81 1.57
-7.88 1.12 1.36
-8.09 1.23 1.34
-8.27 1.27 1.32
-7.98 1.25 1.35
-8.25 1.31 1.32
-8.15 1.32 1.33
-8.19 1.34 1.32
-8.04 1.34 1.34
-5.20 0.89 1.63
-8.03 1.48 1.34
-5.81 1.09 1.57
-8.12 1.66 1.32
-5.51 1.22 1.59
-2.52 -1.61 1.63
-1.13 -1.14 1.78
-1.40 -1.03 1.75
-2.12 -1.07 1.67
-4.87 -1.63 1.39
-1.92 -0.99 1.70
-2.17 -1.03 1.67
-1.66 -0.84 1.72
-4.98 -1.44 1.38
-2.09 -0.88 1.68
-2.07 -0.87 1.68
-2.02 -0.85 1.69
-1.93 -0.82 1.70
-1.74 -0.78 1.72
-2.00 -0.81 1.69
-1.42 -0.70 1.75
-1.79 -0.75 1.71
-1.87 -0.75 1.70
-1.70 -0.70 1.72
-5.16 -1.15 1.36
-2.17 -0.71 1.67
-1.90 -0.66 1.70
-11.09 -1.68 0.76
-11.20 -1.62 0.75
-11.06 -1.54 0.76
-11.27 -1.50 0.74
-11.40 -1.48 0.73
-10.81 -1.38 0.79
-11.21 -1.36 0.74
-13.41 -1.49 0.52
-5.85 -0.73 1.30
-2.18 -0.41 1.67
-1.99 -0.37 1.69
-6.14 -0.67 1.27
-12.34 -1.10 0.63
-12.31 -1.07 0.63
-6.27 -0.62 1.25
-2.34 -0.34 1.66
-6.28 -0.58 1.25
-6.45 -0.57 1.23
-6.10 -0.52 1.27
-6.14 -0.50 1.27
-6.50 -0.50 1.23
-6.34 -0.36 1.25
-6.30 -0.34 1.25
-7.65 -0.26 1.40
-11.45 -0.37 1.01
-13.30 -0.40 0.82
-10.98 -0.30 1.06
-6.35 -0.16 1.53
-7.11 -0.16 1.46
-7.25 -0.15 1.44
-6.88 -0.12 1.48
-6.90 -0.11 1.48
-6.54 -0.09 1.51
-10.35 -0.11 1.12
-10.34 -0.09 1.12
-6.61 -0.04 1.50
-10.76 -0.04 1.08
-10.27 -0.01 1.13
-10.54 0.04 0.73
-10.53 0.07 0.73
-11.06 0.11 0.67
-11.57 0.15 0.61
-11.35 0.18 0.64
-11.25 0.21 0.65
-11.55 0.32 0.62
-8.76 0.28 0.92
-8.92 0.37 0.90
-8.61 0.39 0.94
-8.61 0.42 0.93
-8.45 0.44 0.95
-8.57 0.47 0.94
-8.63 0.50 0.93
-9.87 0.48 1.11
-9.81 0.50 1.11
-9.88 0.55 1.10
-9.70 0.57 1.12
-9.59 0.58 1.13
-9.90 0.63 1.10
-9.98 0.65 1.09
-1.28 -1.02 1.74
-1.07 -0.72 1.76
-1.28 -0.75 1.74
-1.66 -0.68 1.70
-11.21 -1.49 0.65
-11.23 -1.45 0.65
-11.28 -1.39 0.65
-13.12 -1.39 0.45
-13.05 -1.34 0.46
-12.88 -1.29 0.47
-12.94 -1.26 0.47
-6.27 -0.70 1.20
-12.72 -1.17 0.49
-12.83 -1.14 0.48
-12.74 -1.09 0.49
-6.07 -0.60 1.22
-12.53 -1.01 0.51
-5.98 -0.56 1.23
-12.21 -0.88 0.55
-12.50 -0.86 0.52
-12.45 -0.82 0.52
-6.61 -0.48 1.16
-6.39 -0.45 1.18
-6.56 -0.44 1.16
-12.62 -0.68 0.50
-6.38 -0.39 1.18
-6.77 -0.38 1.14
-6.64 -0.35 1.16
-6.46 -0.32 1.17
-6.61 -0.31 1.16
-6.49 -0.28 1.17
-6.41 -0.26 1.18
-6.40 -0.23 1.18
-6.68 -0.20 1.15
-9.80 -0.23 0.81
-13.09 -0.21 0.45
-10.21 -0.08 0.76
-13.32 -0.06 0.43
-10.38 -0.02 0.75
-7.49 0.01 1.31
-10.95 0.04 0.91
-12.62 0.07 0.72
-5.04 0.04 1.60
-10.19 0.11 1.00
-10.34 0.14 0.98
-10.17 0.16 1.00
-10.16 0.18 1.00
-9.66 0.20 1.06
-9.57 0.22 1.07
-9.57 0.24 1.07
-10.37 0.28 0.98
-9.76 0.29 1.05
-9.40 0.30 1.09
-9.87 0.34 1.04
-10.16 0.38 1.00
-5.93 0.24 1.49
-9.66 0.40 1.06
-10.02 0.44 1.02
-9.72 0.45 1.05
-9.70 0.48 1.05
-9.38 0.48 1.09
-9.47 0.51 1.08
-9.27 0.52 1.10
-10.03 0.59 1.02
-10.12 0.62 1.00
-10.20 0.65 1.00
-10.38 0.68 0.97
-10.28 0.70 0.98
-8.95 0.63 1.14
-6.68 0.49 1.40
-7.56 0.57 1.30
-7.55 0.59 1.30
-6.86 0.55 1.38
-9.07 0.75 1.12
-6.71 0.58 1.40
-7.30 0.64 1.33
-6.95 0.63 1.37
-6.82 0.63 1.38
-7.12 0.68 1.35
-7.00 0.68 1.36
-6.96 0.70 1.36
-7.00 0.72 1.36
-6.60 0.69 1.41
-7.21 0.78 1.33
-7.20 0.79 1.34
-6.88 0.77 1.37
-8.34 1.20 1.20
-7.95 1.21 1.24
-8.18 1.34 1.21
-8.23 1.47 1.20
-7.99 1.47 1.23
-1.33 -0.98 1.70
-1.55 -1.03 1.67
-1.15 -0.92 1.72
-1.82 -1.04 1.64
-1.49 -0.93 1.68
-1.50 -0.92 1.68
-1.47 -0.91 1.68
-1.43 -0.89 1.69
-1.39 -0.87 1.69
-1.81 -0.94 1.65
-1.53 -0.87 1.68
-1.58 -0.87 1.67
-1.63 -0.87 1.67
-1.66 -0.86 1.66
-1.78 -0.87 1.65
-1.70 -0.85 1.66
-1.82 -0.86 1.65
-2.49 -0.97 1.57
-1.90 -0.85 1.63
-1.91 -0.82 1.63
-5.10 -1.34 1.26
-1.85 -0.64 1.64
-1.61 -0.57 1.67
-11.19 -1.66 0.56
-6.61 -1.07 1.09
-11.45 -1.58 0.53
-10.97 -1.50 0.58
-11.07 -1.44 0.57
-11.00 -1.40 0.58
-11.00 -1.37 0.58
-10.83 -1.32 0.60
-11.01 -1.30 0.58
-5.74 -0.79 1.19
-10.77 -1.22 0.61
-10.68 -1.18 0.62
-13.06 -1.35 0.34
-10.62 -1.11 0.63
-12.88 -1.26 0.37
-10.47 -1.03 0.64
-5.84 -0.65 1.18
-5.90 -0.64 1.17
-5.75 -0.61 1.19
-5.69 -0.58 1.20
-5.69 -0.56 1.20
-6.13 -0.57 1.15
-6.62 -0.58 1.09
-6.28 -0.53 1.13
-6.39 -0.52 1.12
-7.61 -0.41 1.30
-7.48 -0.38 1.32
-7.49 -0.37 1.32
-7.52 -0.35 1.31
-7.38 -0.33 1.33
-7.53 -0.31 1.31
-7.57 -0.30 1.31
-7.39 -0.27 1.33
-7.26 -0.25 1.34
-7.57 -0.24 1.31
-12.75 -0.38 0.71
-7.20 -0.20 1.35
-10.75 -0.27 0.94
-8.25 -0.19 1.23
-8.50 -0.17 1.20
-7.19 -0.13 1.35
-7.11 -0.11 1.36
-7.75 -0.10 1.28
-10.47 -0.11 0.97
-7.25 -0.06 1.34
-12.92 -0.08 0.69
-10.69 -0.04 0.94
-10.70 -0.01 0.94
-11.05 0.01 0.48
-7.46 0.03 0.92
-10.03 0.08 0.95
-10.16 0.11 0.94
-10.09 0.13 0.95
-9.41 0.15 1.03
-9.70 0.17 0.99
-9.48 0.19 1.02
-9.47 0.21 1.02
-9.50 0.24 1.02
-9.75 0.29 0.99
-9.81 0.32 0.98
-9.92 0.34 0.97
-9.45 0.35 1.02
-9.55 0.38 1.01
-9.91 0.41 0.97
-9.48 0.42 1.02
-9.91 0.46 0.97
-9.93 0.49 0.96
-10.18 0.52 0.93
-9.91 0.53 0.96
-9.46 0.53 1.02
-9.68 0.57 0.99
-10.79 0.66 0.86
-10.42 0.66 0.90
-10.73 0.70 0.86
-10.61 0.72 0.88
-6.46 0.46 1.38
-6.55 0.48 1.37
-6.49 0.49 1.38
-6.61 0.52 1.37
-6.58 0.53 1.37
-6.57 0.54 1.37
-6.68 0.57 1.36
-6.67 0.59 1.36
-6.72 0.61 1.35
-6.67 0.62 1.36
-6.73 0.64 1.35
-7.10 0.69 1.30
-7.15 0.71 1.30
-9.40 0.96 1.02
-9.12 0.95 1.05
-8.69 0.93 1.11
-7.59 0.85 1.24
-7.70 0.88 1.23
-9.45 1.10 1.01
-8.57 1.23 1.11
-8.45 1.24 1.13
-8.57 1.27 1.11
-1.26 -1.02 1.68
-1.39 -1.04 1.67
-1.19 -0.97 1.69
-1.08 -0.94 1.71
-1.06 -0.92 1.71
-1.35 -0.98 1.67
-1.08 -0.90 1.71
-1.39 -0.95 1.67
-1.37 -0.94 1.67
-1.65 -0.98 1.64
-1.76 -1.00 1.62
-1.53 -0.93 1.65
-1.37 -0.89 1.67
-1.77 -0.95 1.62
-1.85 -0.96 1.61
-1.38 -0.84 1.67
-4.72 -1.50 1.25
-4.85 -1.49 1.24
-4.52 -1.36 1.28
-1.35 -0.59 1.68
-11.55 -1.66 0.42
-11.37 -1.61 0.44
-11.30 -1.57 0.45
-11.13 -1.51 0.47
-11.19 -1.49 0.47
-6.61 -0.98 1.03
-10.98 -1.40 0.49
-10.71 -1.34 0.53
-6.28 -0.88 1.07
-10.72 -1.27 0.53
-6.19 -0.81 1.08
-5.95 -0.76 1.11
-6.02 -0.75 1.10
-5.91 -0.72 1.12
-5.67 -0.68 1.15
-5.70 -0.66 1.14
-6.07 -0.67 1.10
-5.97 -0.64 1.11
-6.09 -0.63 1.09
-5.98 -0.60 1.11
-6.01 -0.58 1.10
-6.12 -0.57 1.09
-6.16 -0.55 1.08
-6.30 -0.51 1.07
-6.26 -0.49 1.07
-6.45 -0.48 1.05
-6.50 -0.46 1.04
-6.48 -0.43 1.05
-6.75 -0.42 1.01
-6.57 -0.39 1.04
-6.46 -0.37 1.05
-6.87 -0.36 1.00
-6.71 -0.33 1.02
-6.32 -0.30 1.07
-6.50 -0.28 1.04
-6.59 -0.26 1.03
-6.62 -0.24 1.03
-6.57 -0.22 1.03
-6.57 -0.19 1.03
-6.29 -0.17 1.07
-6.55 -0.13 1.04
-6.83 -0.11 1.00
-6.94 -0.09 0.99
-6.56 -0.06 1.03
-10.10 -0.05 0.60
-7.09 -0.02 0.97
-6.75 0.01 1.31
-11.37 0.04 0.71
-10.25 0.06 0.85
-10.03 0.08 0.88
-9.70 0.10 0.92
-9.60 0.13 0.94
-9.56 0.15 0.94
-9.44 0.17 0.96
-9.39 0.19 0.96
-9.57 0.22 0.94
-9.64 0.24 0.93
-9.73 0.27 0.92
-9.75 0.29 0.92
-9.76 0.31 0.91
-9.81 0.34 0.91
-9.75 0.36 0.91
-9.80 0.39 0.91
-9.95 0.42 0.89
-10.08 0.45 0.87
-9.62 0.45 0.93
-9.76 0.48 0.91
-9.31 0.48 0.97
-9.74 0.52 0.91
-10.27 0.58 0.84
-9.66 0.57 0.92
-9.33 0.57 0.97
-10.21 0.65 0.85
-9.96 0.66 0.88
-6.25 0.43 1.36
-6.80 0.48 1.29
-6.30 0.46 1.36
-8.00 0.60 1.14
-6.36 0.50 1.35
-6.54 0.53 1.33
-6.43 0.53 1.34
-6.52 0.56 1.33
-6.63 0.58 1.31
-6.83 0.62 1.29
-6.86 0.64 1.28
-7.29 0.69 1.23
-7.49 0.73 1.20
-7.74 0.77 1.17
-7.97 0.82 1.14
-7.88 0.83 1.15
-8.04 0.86 1.13
-7.91 0.87 1.14
-9.55 1.07 0.93
-9.63 1.10 0.92
-9.49 1.11 0.94
-7.66 0.95 1.17
-8.68 1.10 1.04
-8.88 1.14 1.01
-6.64 0.88 1.30
-8.70 1.17 1.03
-8.56 1.17 1.05
-8.58 1.19 1.05
-8.53 1.21 1.06
-5.76 0.83 1.42
-5.64 0.85 1.43
-5.70 0.94 1.42
-1.66 -1.06 1.60
-2.14 -1.15 1.54
-1.88 -1.07 1.57
-2.15 -1.11 1.54
-4.60 -1.64 1.21
-2.02 -1.04 1.55
-2.23 -1.08 1.53
-2.47 -1.12 1.49
-4.27 -1.48 1.26
-1.96 -0.98 1.56
-4.65 -1.53 1.21
-4.55 -1.49 1.22
-2.13 -0.98 1.54
-2.19 -0.98 1.53
-4.71 -1.47 1.20
-4.55 -1.42 1.22
-2.08 -0.93 1.55
-4.58 -1.37 1.22
-4.38 -1.31 1.25
-4.86 -1.38 1.18
-4.49 -1.30 1.23
-4.66 -1.29 1.21
-2.20 -0.85 1.53
-2.07 -0.82 1.55
-4.71 -1.25 1.20
-4.70 -1.23 1.21
-4.59 -1.19 1.22
-4.51 -1.16 1.23
-4.55 -1.15 1.22
-4.56 -1.13 1.22
-4.92 -1.13 1.18
-4.93 -1.12 1.18
-1.77 -0.65 1.59
-4.84 -1.07 1.19
-4.93 -1.04 1.18
-6.30 -1.08 1.00
-5.41 -0.95 1.12
-6.23 -1.03 1.01
-6.27 -1.01 1.00
-6.38 -1.00 0.99
-11.21 -1.49 0.36
-6.25 -0.94 1.01
-11.16 -1.42 0.37
-10.94 -1.36 0.40
-10.77 -1.31 0.42
-5.82 -0.81 1.06
-5.31 -0.75 1.13
-3.17 -0.54 1.41
-5.91 -0.76 1.05
-5.87 -0.74 1.06
-5.45 -0.68 1.11
-5.76 -0.69 1.07
-5.69 -0.66 1.08
-5.88 -0.65 1.06
-5.77 -0.63 1.07
-5.83 -0.61 1.06
-5.69 -0.58 1.08
-5.81 -0.57 1.06
-2.65 -0.35 1.48
-2.27 -0.31 1.52
-5.79 -0.50 1.07
-6.14 -0.50 1.02
-6.02 -0.48 1.04
-6.36 -0.47 0.99
-6.70 -0.47 0.95
-6.70 -0.45 0.95
-6.57 -0.42 0.97
-6.82 -0.40 0.93
-6.60 -0.37 0.96
-6.64 -0.35 0.96
-6.60 -0.33 0.96
-6.43 -0.30 0.98
-6.15 -0.27 1.02
-6.18 -0.25 1.02
-6.11 -0.23 1.03
-6.29 -0.21 1.00
-6.31 -0.19 1.00
-6.12 -0.16 1.02
-6.22 -0.14 1.01
-6.81 -0.09 1.30
-10.55 -0.11 0.81
-10.71 -0.09 0.79
-10.77 -0.06 0.79
-10.88 -0.04 0.77
-6.73 -0.01 1.31
-6.38 0.01 0.92
-6.36 0.03 0.93
-9.28 0.07 0.53
-9.52 0.10 0.49
-6.55 0.10 0.90
-6.20 0.11 0.95
-6.43 0.14 0.92
-7.88 0.19 0.72
-6.70 0.19 0.88
-6.54 0.21 0.90
-6.36 0.22 0.92
-9.52 0.28 0.88
-9.61 0.31 0.87
-9.73 0.34 0.85
-9.66 0.36 0.86
-9.65 0.38 0.86
-9.75 0.41 0.85
-9.74 0.43 0.85
-9.30 0.43 0.91
-9.48 0.46 0.88
-9.77 0.50 0.84
-9.30 0.50 0.91
-9.66 0.54 0.86
-5.65 0.33 1.40
-9.90 0.60 0.82
-5.74 0.37 1.39
-9.93 0.65 0.82
-9.84 0.67 0.83
-10.00 0.70 0.81
-10.18 0.74 0.78
-10.04 0.76 0.80
-9.76 0.76 0.84
-6.48 0.52 1.29
-6.80 0.56 1.24
-6.68 0.57 1.26
-7.47 0.65 1.15
-7.22 0.65 1.18
-9.34 0.86 0.89
-6.87 0.65 1.23
-6.95 0.68 1.22
-7.85 0.78 1.10
-7.47 0.76 1.15
-8.12 0.85 1.06
-9.41 1.00 0.88
-9.52 1.06 0.87
-9.29 1.06 0.90
-9.45 1.10 0.87
-9.58 1.16 0.86
-9.61 1.19 0.85
-9.18 1.16 0.91
-9.34 1.20 0.89
-9.17 1.20 0.91
-9.03 1.21 0.93
-8.92 1.21 0.94
-6.14 0.86 1.32
-5.89 0.83 1.36
-5.63 0.81 1.39
-8.69 1.27 0.97
-5.68 0.85 1.39
-5.65 0.89 1.39
-5.41 0.88 1.42
-5.77 0.95 1.37
-5.48 0.91 1.41
-5.46 0.93 1.41
-5.57 0.96 1.40
-1.31 -1.32 1.61
-1.18 -1.24 1.63
-1.08 -1.20 1.65
-0.93 -1.04 1.67
-0.74 -0.98 1.70
-0.96 -1.01 1.67
-1.27 -1.08 1.62
-2.42 -1.38 1.46
-1.26 -1.05 1.62
-1.12 -1.00 1.64
-1.40 -1.06 1.60
-1.14 -0.97 1.64
-1.18 -0.97 1.64
-1.58 -1.06 1.58
-1.29 -0.98 1.62
-1.29 -0.95 1.62
-1.28 -0.93 1.62
-1.43 -0.95 1.60
-1.46 -0.95 1.60
-4.80 -1.68 1.13
-4.89 -1.65 1.12
-1.67 -0.94 1.57
-4.82 -1.59 1.13
-4.80 -1.57 1.13
-4.79 -1.55 1.14
-4.83 -1.54 1.13
-1.63 -0.88 1.58
-4.38 -1.42 1.19
-4.62 -1.39 1.16
-4.68 -1.26 1.15
-4.66 -1.24 1.16
-4.22 -1.15 1.22
-6.46 -1.16 0.91
-6.07 -1.05 0.97
-6.55 -1.04 0.90
-11.13 -1.51 0.27
-6.63 -1.00 0.89
-6.39 -0.95 0.92
-6.49 -0.94 0.91
-6.16 -0.89 0.96
-10.64 -1.30 0.34
-9.68 -1.18 0.47
-5.63 -0.77 1.03
-5.73 -0.76 1.01
-5.57 -0.73 1.04
-5.65 -0.72 1.03
-5.80 -0.71 1.00
-5.75 -0.68 1.01
-5.61 -0.65 1.03
-5.74 -0.64 1.01
-5.77 -0.62 1.01
-5.64 -0.60 1.03
-6.12 -0.61 0.96
-5.88 -0.57 1.00
-6.02 -0.56 0.98
-5.72 -0.52 1.02
-6.01 -0.52 0.98
-5.86 -0.49 1.00
-5.51 -0.45 1.05
-6.27 -0.47 0.94
-6.68 -0.47 0.89
-6.77 -0.45 0.87
-6.77 -0.42 0.87
-6.80 -0.40 0.87
-6.71 -0.38 0.88
-6.61 -0.35 0.89
-6.56 -0.33 0.90
-6.28 -0.30 0.94
-6.49 -0.28 0.91
-6.45 -0.26 0.92
-6.17 -0.23 0.95
-6.11 -0.21 0.96
-6.20 -0.19 0.95
-6.33 -0.17 0.93
-6.18 -0.14 0.95
-6.30 -0.12 0.94
-6.36 -0.10 0.93
-6.39 -0.08 0.92
-6.30 -0.06 0.93
-6.47 -0.04 0.91
-6.26 -0.02 0.94
-9.64 0.01 0.79
-9.51 0.03 0.81
-9.75 0.06 0.77
-9.77 0.08 0.77
-9.52 0.10 0.80
-9.55 0.13 0.80
-9.50 0.15 0.81
-5.53 0.10 1.38
-9.60 0.19 0.79
-9.34 0.21 0.83
-9.40 0.24 0.82
-9.42 0.26 0.82
-9.22 0.28 0.85
-8.72 0.28 0.92
-9.33 0.32 0.83
-9.42 0.35 0.82
-9.44 0.37 0.81
-9.41 0.39 0.82
-9.66 0.43 0.78
-9.41 0.44 0.82
-9.45 0.46 0.81
-9.12 0.47 0.86
-9.37 0.50 0.82
-9.46 0.53 0.81
-9.70 0.57 0.77
-9.96 0.61 0.73
-10.02 0.64 0.73
-9.75 0.64 0.76
-7.54 0.52 1.08
-7.39 0.52 1.10
-7.05 0.52 1.15
-7.19 0.54 1.13
-7.02 0.55 1.16
-6.90 0.56 1.17
-6.96 0.58 1.16
-6.97 0.60 1.16
-7.02 0.62 1.16
-6.74 0.61 1.20
-6.66 0.62 1.21
-6.94 0.66 1.17
-6.57 0.64 1.22
-6.73 0.67 1.20
-7.19 0.74 1.13
-8.84 0.93 0.89
-9.41 1.01 0.81
-8.88 0.97 0.88
-8.53 0.96 0.93
-8.59 0.98 0.92
-8.70 1.02 0.91
-8.88 1.06 0.88
-8.78 1.07 0.89
-8.33 1.04 0.96
-8.80 1.12 0.89
-9.05 1.17 0.85
-8.89 1.17 0.88
-8.93 1.20 0.87
-8.91 1.21 0.87
-7.04 0.98 1.14
-5.96 0.86 1.30
-5.66 0.83 1.34
-5.61 0.84 1.35
-5.68 0.88 1.34
-5.59 0.88 1.35
-5.57 0.89 1.35
-5.48 0.89 1.37
-5.62 0.93 1.34
-5.66 0.95 1.34
-5.66 0.96 1.34
-5.36 0.93 1.38
-5.45 0.96 1.37
-5.38 0.96 1.38
-5.47 0.99 1.36
-1.55 -1.14 1.55
-1.88 -1.12 1.50
-2.34 -1.15 1.43
-2.25 -1.09 1.45
-4.54 -1.54 1.11
-4.99 -1.62 1.04
-2.20 -1.02 1.46
-4.83 -1.51 1.07
-4.90 -1.49 1.06
-4.52 -1.38 1.12
-4.92 -1.42 1.06
-4.66 -1.29 1.10
-2.38 -0.86 1.43
-4.64 -1.22 1.10
-4.59 -1.18 1.11
-4.89 -1.21 1.06
-4.39 -1.11 1.14
-1.42 -0.64 1.57
-4.87 -1.13 1.07
-4.94 -1.12 1.06
-4.69 -1.07 1.09
-1.92 -0.64 1.50
-6.58 -1.13 0.82
-6.64 -1.07 0.81
-6.79 -1.07 0.79
-6.64 -1.03 0.81
-6.50 -0.99 0.84
-6.39 -0.96 0.85
-3.52 -0.63 1.27
-10.41 -1.28 0.27
-3.21 -0.57 1.31
-5.91 -0.80 0.92
-5.95 -0.79 0.92
-5.59 -0.73 0.97
-5.16 -0.68 1.03
-5.44 -0.68 0.99
-5.69 -0.68 0.95
-5.34 -0.63 1.00
-5.52 -0.63 0.98
-5.69 -0.62 0.95
-5.74 -0.60 0.95
-5.66 -0.58 0.96
-2.36 -0.34 1.44
-5.62 -0.54 0.96
-5.69 -0.52 0.95
-5.76 -0.50 0.94
-5.55 -0.47 0.97
-5.73 -0.46 0.95
-5.89 -0.45 0.92
-5.77 -0.42 0.94
-5.76 -0.40 0.94
-6.09 -0.38 0.90
-6.06 -0.35 0.90
-6.18 -0.34 0.88
-6.68 -0.33 0.81
-7.80 -0.25 1.05
-7.70 -0.23 1.07
-7.37 -0.20 1.12
-7.76 -0.19 1.06
-7.77 -0.18 1.06
-7.63 -0.15 1.08
-7.38 -0.13 1.12
-7.63 -0.12 1.08
-10.00 -0.13 0.74
-7.65 -0.08 1.08
-9.77 -0.08 0.77
-9.71 -0.06 0.78
-9.62 -0.03 0.79
-9.78 -0.01 0.77
-6.23 0.05 0.81
-6.44 0.07 0.77
-6.44 0.09 0.77
-8.43 0.17 0.47
-6.44 0.16 0.77
-6.21 0.18 0.81
-6.52 0.23 0.76
-6.22 0.24 0.81
-6.63 0.28 0.74
-6.68 0.32 0.74
-6.26 0.33 0.80
-6.49 0.36 0.76
-6.57 0.41 0.75
-9.57 0.47 0.72
-9.59 0.49 0.72
-9.83 0.53 0.68
-9.91 0.55 0.67
-9.55 0.56 0.72
-10.39 0.63 0.60
-9.84 0.62 0.68
-8.06 0.57 0.95
-8.16 0.59 0.93
-9.84 0.74 0.68
-9.89 0.77 0.67
-7.29 0.58 1.07
-7.11 0.60 1.09
-8.66 0.76 0.86
-7.16 0.64 1.08
-7.09 0.65 1.09
-6.96 0.66 1.11
-7.86 0.76 0.97
-7.53 0.75 1.02
-9.30 0.95 0.75
-8.93 0.93 0.81
-8.59 0.92 0.86
-8.75 0.95 0.84
-8.67 0.97 0.85
-8.59 0.98 0.86
-8.87 1.03 0.82
-8.98 1.07 0.80
-8.91 1.08 0.81
-8.96 1.11 0.80
-8.85 1.12 0.82
-9.07 1.17 0.78
-9.09 1.19 0.78
-8.96 1.20 0.80
-0.75 -0.97 1.64
-1.16 -1.06 1.58
-0.91 -0.98 1.62
-0.97 -0.98 1.61
-0.78 -0.91 1.64
-1.10 -0.62 1.59
-4.59 -1.08 1.06
-6.41 -1.07 0.78
-9.34 -1.06 0.33
-9.43 -1.04 0.32
-9.63 -1.02 0.29
-9.49 -0.98 0.31
-9.24 -0.93 0.35
-5.93 -0.57 0.85
-6.84 -0.47 0.72
-7.20 -0.44 0.66
-6.91 -0.41 0.71
-6.80 -0.38 0.72
-6.41 -0.34 0.78
-6.15 -0.31 0.82
-6.51 -0.30 0.77
-6.58 -0.28 0.76
-6.62 -0.26 0.75
-9.34 -0.31 0.33
-6.22 -0.21 0.81
-6.70 -0.20 0.74
-9.55 -0.23 0.30
-8.90 -0.16 0.40
-8.66 -0.13 0.44
-8.26 -0.10 0.50
-8.20 -0.07 0.51
-8.80 -0.05 0.42
-8.20 -0.02 0.51
-9.89 0.01 0.60
-9.46 0.03 0.67
-9.62 0.06 0.64
-8.78 0.07 0.77
-9.43 0.10 0.67
-9.13 0.12 0.72
-9.36 0.15 0.68
-9.08 0.16 0.73
-9.06 0.18 0.73
-9.25 0.21 0.70
-9.05 0.23 0.73
-8.98 0.25 0.74
-9.08 0.27 0.72
-9.18 0.30 0.71
-9.38 0.32 0.68
-9.17 0.34 0.71
-9.26 0.37 0.69
-9.22 0.39 0.70
-7.84 0.35 0.92
-9.26 0.43 0.69
-9.32 0.46 0.68
-9.31 0.48 0.68
-9.37 0.50 0.67
-7.77 0.44 0.93
-7.82 0.46 0.92
-7.54 0.46 0.96
-9.26 0.59 0.69
-7.59 0.50 0.96
-7.70 0.53 0.94
-7.70 0.55 0.94
-7.41 0.54 0.98
-7.46 0.57 0.98
-7.61 0.60 0.95
-7.18 0.58 1.02
-7.31 0.61 1.00
-7.22 0.62 1.01
-7.32 0.64 1.00
-7.01 0.63 1.04
-7.50 0.70 0.97
-8.28 0.79 0.84
-8.27 0.81 0.84
-8.00 0.80 0.88
-8.01 0.82 0.88
-7.89 0.83 0.90
-8.19 0.88 0.85
-8.73 0.96 0.77
-8.41 0.94 0.82
-8.84 1.01 0.75
-8.59 1.00 0.79
-9.55 1.14 0.63
-5.30 0.68 1.31
-5.77 0.78 1.24
-5.97 0.84 1.20
-5.47 0.78 1.28
-5.66 0.82 1.25
-5.60 0.83 1.26
-5.46 0.82 1.28
-5.57 0.85 1.26
-5.47 0.85 1.28
-5.43 0.86 1.29
-5.33 0.86 1.30
-5.38 0.88 1.29
-5.02 0.88 1.35
-5.20 0.94 1.32
-5.29 0.98 1.30
-1.10 -1.34 1.54
-0.94 -1.08 1.57
-1.06 -1.10 1.55
-1.21 -1.09 1.53
-1.34 -1.09 1.51
-1.43 -0.99 1.50
-4.66 -1.53 0.97
-1.36 -0.78 1.51
-4.42 -1.31 1.02
-1.30 -0.73 1.52
-1.29 -0.65 1.52
-1.18 -0.61 1.54
-1.60 -0.62 1.48
-1.78 -0.53 1.45
-6.28 -0.90 0.72
-6.22 -0.88 0.73
-6.52 -0.82 0.69
-5.49 -0.71 0.85
-5.90 -0.72 0.79
-5.87 -0.70 0.79
-5.76 -0.67 0.81
-5.91 -0.66 0.78
-6.49 -0.68 0.69
-6.00 -0.62 0.77
-5.02 -0.54 0.93
-5.39 -0.54 0.87
-5.21 -0.51 0.90
-7.16 -0.61 0.58
-5.96 -0.52 0.78
-5.76 -0.48 0.81
-8.24 -0.42 0.86
-8.88 -0.43 0.76
-8.41 -0.39 0.83
-10.98 -0.48 0.42
-8.37 -0.35 0.84
-7.70 -0.30 0.95
-7.36 -0.27 1.00
-7.55 -0.26 0.97
-7.51 -0.24 0.98
-7.79 -0.23 0.93
-7.55 -0.21 0.97
-7.57 -0.19 0.97
-7.40 -0.17 1.00
-7.68 -0.16 0.95
-7.77 -0.14 0.94
-11.27 -0.18 0.38
-7.65 -0.10 0.96
-11.69 -0.10 0.31
-7.61 -0.05 0.96
-11.55 -0.04 0.33
-11.63 -0.01 0.32
-5.75 0.01 0.74
-5.79 0.03 0.74
-5.84 0.05 0.73
-7.90 0.07 0.85
-9.65 0.10 0.56
-9.06 0.12 0.66
-9.20 0.14 0.64
-9.12 0.16 0.65
-9.54 0.19 0.58
-9.43 0.21 0.60
-9.12 0.23 0.65
-9.19 0.25 0.64
-9.31 0.28 0.62
-9.33 0.30 0.61
-9.16 0.32 0.64
-9.33 0.34 0.61
-9.38 0.37 0.60
-9.41 0.39 0.60
-8.02 0.35 0.83
-9.14 0.43 0.64
-8.26 0.40 0.79
-7.68 0.40 0.88
-7.59 0.41 0.90
-7.29 0.41 0.95
-7.55 0.44 0.91
-7.69 0.47 0.88
-7.46 0.47 0.92
-7.57 0.50 0.90
-7.46 0.51 0.92
-7.58 0.54 0.90
-7.58 0.55 0.90
-7.58 0.57 0.90
-7.30 0.57 0.94
-7.36 0.59 0.93
-7.11 0.59 0.98
-7.40 0.63 0.93
-7.77 0.68 0.86
-7.23 0.65 0.95
-7.50 0.69 0.91
-6.91 0.66 1.01
-6.83 0.67 1.02
-8.34 0.83 0.77
-8.19 0.84 0.79
-8.21 0.86 0.79
-5.07 0.65 1.31
-5.16 0.67 1.30
-5.29 0.70 1.27
-5.21 0.70 1.29
-5.48 0.75 1.24
-5.38 0.75 1.26
-5.08 0.72 1.31
-5.29 0.77 1.27
-5.37 0.79 1.26
-5.38 0.80 1.26
-5.27 0.80 1.27
-5.45 0.84 1.24
-5.27 0.83 1.27
-5.27 0.84 1.27
-5.24 0.85 1.28
-5.29 0.87 1.27
-5.55 0.93 1.22
-5.43 0.94 1.24
-5.04 0.88 1.31
-5.28 0.94 1.27
-5.24 0.94 1.27
-5.30 0.97 1.26
-5.20 0.96 1.28
-5.37 1.01 1.25
-5.24 1.00 1.27
-1.46 -1.69 1.44
-0.91 -1.24 1.55
-0.80 -1.19 1.57
-0.69 -1.15 1.59
-0.73 -1.12 1.58
-1.17 -1.25 1.50
-0.75 -1.08 1.58
-1.15 -1.18 1.51
-0.81 -1.07 1.57
-0.97 -1.11 1.54
-0.81 -1.05 1.57
-0.87 -1.06 1.56
-1.03 -1.10 1.53
-1.09 -1.11 1.52
-1.07 -1.10 1.53
-0.85 -1.01 1.56
-0.70 -0.96 1.59
-0.78 -0.98 1.58
-0.94 -1.01 1.55
-1.31 -1.08 1.49
-1.17 -1.04 1.51
-1.19 -1.03 1.51
-1.17 -1.02 1.51
-1.48 -1.05 1.46
-2.04 -1.14 1.36
-3.87 -1.43 1.05
-1.37 -0.83 1.48
-1.74 -0.88 1.42
-1.33 -0.79 1.49
-1.63 -0.84 1.44
-1.21 -0.75 1.51
-2.66 -1.00 1.26
-1.08 -0.67 1.53
-1.05 -0.66 1.54
-4.88 -1.26 0.89
-4.63 -1.20 0.93
-1.28 -0.65 1.50
-1.00 -0.59 1.54
-1.28 -0.63 1.50
-4.54 -1.11 0.95
-1.19 -0.59 1.51
-4.43 -1.01 0.97
-4.21 -0.96 1.00
-4.27 -0.94 0.99
-4.45 -0.94 0.96
-4.39 -0.92 0.97
-1.48 -0.54 1.46
-3.72 -0.80 1.08
-6.68 -0.96 0.59
-6.14 -0.89 0.68
-1.31 -0.40 1.49
-1.46 -0.40 1.47
-6.17 -0.83 0.67
-5.98 -0.79 0.71
-3.05 -0.51 1.20
-6.14 -0.76 0.68
-1.61 -0.36 1.44
-8.47 -0.88 0.29
-6.30 -0.66 0.65
-6.81 -0.68 0.57
-1.94 -0.32 1.39
-5.70 -0.56 0.75
-5.43 -0.52 0.80
-5.45 -0.50 0.80
-5.36 -0.48 0.81
-2.31 -0.29 1.32
-4.98 -0.42 0.88
-5.46 -0.43 0.79
-5.48 -0.41 0.79
-5.79 -0.40 0.74
-5.68 -0.38 0.76
-5.46 -0.35 0.79
-5.73 -0.34 0.75
-6.03 -0.33 0.70
-6.20 -0.32 0.67
-5.85 -0.28 0.73
-6.29 -0.28 0.65
-6.22 -0.25 0.67
-6.40 -0.23 0.64
-6.67 -0.22 0.59
-6.44 -0.19 0.63
-6.43 -0.17 0.63
-6.20 -0.14 0.67
-6.20 -0.12 0.67
-6.36 -0.10 0.64
-6.08 -0.08 0.69
-6.23 -0.06 0.66
-6.21 -0.04 0.66
-6.32 -0.02 0.65
-7.41 0.01 0.87
-7.73 0.03 0.82
-7.59 0.05 0.84
-7.57 0.06 0.84
-7.57 0.08 0.84
-10.49 0.14 0.33
-10.02 0.15 0.41
-9.73 0.17 0.46
-9.62 0.19 0.48
-9.60 0.22 0.49
-9.68 0.24 0.47
-9.31 0.26 0.54
-8.68 0.26 0.65
-8.54 0.28 0.67
-8.48 0.29 0.68
-8.46 0.31 0.69
-8.39 0.33 0.70
-8.45 0.35 0.69
-8.29 0.37 0.71
-8.05 0.38 0.75
-8.20 0.40 0.73
-7.93 0.41 0.78
-7.73 0.42 0.81
-7.61 0.43 0.83
-7.54 0.44 0.84
-7.60 0.46 0.83
-7.58 0.48 0.84
-7.66 0.50 0.82
-7.73 0.53 0.81
-7.69 0.54 0.81
-7.68 0.56 0.82
-7.80 0.59 0.79
-7.62 0.59 0.83
-7.63 0.61 0.82
-7.45 0.62 0.86
-7.23 0.62 0.89
-6.95 0.61 0.94
-7.57 0.68 0.83
-5.24 0.68 1.24
-5.22 0.69 1.24
-5.37 0.72 1.21
-5.35 0.74 1.22
-5.16 0.72 1.25
-5.34 0.76 1.22
-5.26 0.78 1.23
-5.48 0.82 1.19
-5.45 0.83 1.19
-5.48 0.85 1.19
-5.53 0.87 1.18
-5.49 0.88 1.19
-5.47 0.89 1.19
-5.50 0.91 1.18
-5.59 0.94 1.17
-5.63 0.96 1.16
-5.45 0.94 1.19
-5.41 0.95 1.20
-5.49 1.00 1.18
-4.62 -1.65 0.86
-4.48 -1.55 0.88
-4.73 -1.43 0.84
-4.78 -1.41 0.84
-4.55 -1.35 0.88
-4.41 -1.27 0.90
-4.85 -1.31 0.82
-4.84 -1.29 0.83
-4.33 -1.17 0.92
-4.42 -1.15 0.90
-4.62 -1.15 0.87
-4.45 -1.10 0.90
-4.73 -1.13 0.85
-4.16 -1.01 0.95
-4.19 -0.99 0.95
-4.21 -0.96 0.94
-4.04 -0.92 0.97
-4.25 -0.94 0.93
-4.07 -0.90 0.97
-4.12 -0.87 0.96
-4.44 -0.89 0.90
-4.44 -0.86 0.90
-4.48 -0.85 0.89
-4.52 -0.81 0.89
-4.02 -0.73 0.98
-4.45 -0.76 0.90
-4.17 -0.69 0.95
-3.99 -0.66 0.98
-6.12 -0.84 0.61
-7.07 -0.79 0.44
-6.64 -0.73 0.52
-6.62 -0.71 0.52
-6.82 -0.70 0.48
-5.86 -0.59 0.65
-5.54 -0.55 0.71
-5.34 -0.48 0.75
-6.21 -0.51 0.59
-6.21 -0.49 0.59
-5.51 -0.41 0.71
-5.79 -0.40 0.67
-5.72 -0.36 0.68
-5.52 -0.33 0.71
-5.76 -0.32 0.67
-5.82 -0.30 0.66
-5.91 -0.26 0.64
-5.99 -0.25 0.63
-5.85 -0.20 0.65
-5.57 -0.17 0.70
-5.89 -0.16 0.65
-7.36 -0.10 0.88
-7.32 -0.08 0.89
-7.50 -0.06 0.86
-7.31 -0.04 0.89
-7.36 -0.03 0.88
-7.44 -0.01 0.87
-6.26 0.01 0.50
-5.28 0.02 0.68
-5.52 0.04 0.64
-6.34 0.07 0.49
-5.50 0.08 0.64
-6.18 0.11 0.52
-5.60 0.12 0.62
-5.92 0.15 0.56
-5.39 0.16 0.66
-5.30 0.18 0.68
-5.41 0.20 0.66
-8.69 0.26 0.57
-8.56 0.28 0.59
-8.71 0.30 0.57
-8.18 0.30 0.66
-8.30 0.33 0.64
-4.56 0.19 1.33
-7.95 0.35 0.71
-7.83 0.36 0.73
-7.79 0.38 0.73
-7.70 0.40 0.75
-7.61 0.41 0.77
-7.48 0.42 0.79
-7.45 0.44 0.80
-7.57 0.46 0.77
-7.57 0.48 0.77
-7.56 0.50 0.77
-7.68 0.52 0.75
-7.55 0.53 0.77
-7.45 0.54 0.79
-6.30 0.49 1.00
-5.02 0.56 1.24
-5.18 0.60 1.21
-5.12 0.60 1.22
-5.19 0.62 1.20
-5.00 0.61 1.24
-5.04 0.64 1.23
-4.89 0.63 1.26
-4.80 0.63 1.27
-5.00 0.67 1.24
-5.10 0.70 1.22
-4.94 0.69 1.25
-5.10 0.72 1.22
-5.14 0.74 1.21
-5.34 0.78 1.17
-5.53 0.83 1.13
-5.46 0.83 1.15
-5.20 0.80 1.19
-5.43 0.85 1.15
-5.43 0.87 1.15
-5.32 0.91 1.17
-5.37 0.94 1.16
-4.93 0.87 1.24
-4.71 0.85 1.28
-5.18 0.94 1.19
-5.11 0.97 1.20
-0.42 -1.32 1.57
-0.71 -1.00 1.53
-0.88 -1.03 1.50
-0.86 -1.01 1.50
-0.81 -0.99 1.51
-1.00 -1.04 1.47
-0.81 -0.97 1.51
-0.92 -0.96 1.49
-0.81 -0.92 1.51
-1.31 -1.03 1.42
-1.25 -1.01 1.43
-1.26 -1.00 1.43
-1.26 -0.86 1.43
-1.52 -0.91 1.38
-1.24 -0.77 1.44
-1.36 -0.77 1.41
-1.35 -0.75 1.42
-1.54 -0.78 1.38
-1.29 -0.73 1.43
-1.41 -0.74 1.40
-1.19 -0.69 1.45
-4.43 -1.23 0.84
-0.95 -0.62 1.49
-4.50 -1.02 0.83
-1.41 -0.58 1.41
-1.17 -0.53 1.45
-1.35 -0.48 1.42
-3.60 -0.71 1.00
-1.32 -0.45 1.42
-1.44 -0.45 1.40
-3.36 -0.64 1.04
-3.52 -0.64 1.01
-1.36 -0.37 1.41
-1.48 -0.37 1.39
-1.47 -0.36 1.39
-1.40 -0.34 1.41
-6.70 -0.74 0.42
-6.53 -0.70 0.45
-1.63 -0.32 1.36
-6.92 -0.64 0.38
-6.69 -0.60 0.43
-6.34 -0.56 0.49
-6.25 -0.53 0.51
-5.98 -0.50 0.56
-5.75 -0.46 0.60
-6.26 -0.47 0.51
-5.55 -0.41 0.64
-5.32 -0.38 0.68
-5.95 -0.39 0.56
-5.60 -0.35 0.63
-5.66 -0.34 0.62
-5.74 -0.32 0.60
-5.71 -0.30 0.61
-5.74 -0.28 0.60
-5.83 -0.26 0.58
-5.75 -0.24 0.60
-5.84 -0.22 0.58
-5.99 -0.20 0.55
-5.71 -0.18 0.60
-5.84 -0.16 0.58
-5.84 -0.14 0.58
-5.88 -0.12 0.57
-6.08 -0.10 0.54
-6.06 -0.08 0.54
-6.34 -0.06 0.49
-5.87 -0.04 0.58
-5.76 -0.02 0.59
-7.05 0.01 0.81
-7.17 0.03 0.79
-7.27 0.04 0.77
-7.23 0.08 0.78
-6.79 0.09 0.86
-7.48 0.12 0.73
-6.36 0.14 0.94
-7.80 0.20 0.66
-8.55 0.28 0.52
-8.04 0.28 0.62
-8.56 0.32 0.52
-8.48 0.33 0.53
-7.83 0.33 0.66
-7.74 0.34 0.67
-7.54 0.35 0.71
-7.54 0.37 0.71
-7.61 0.39 0.70
-7.58 0.41 0.70
-7.41 0.42 0.73
-5.41 0.80 1.10
-5.57 0.83 1.07
-4.41 -1.69 0.76
-4.26 -1.60 0.79
-4.39 -1.60 0.77
-3.93 -1.48 0.86
-3.96 -1.47 0.86
-3.74 -1.41 0.90
-3.53 -1.34 0.94
-3.62 -1.35 0.93
-4.20 -1.45 0.81
-4.43 -1.48 0.77
-5.05 -1.58 0.64
-4.96 -1.54 0.66
-4.64 -1.46 0.73
-4.44 -1.40 0.77
-4.50 -1.38 0.75
-4.50 -1.36 0.76
-4.61 -1.36 0.73
-4.47 -1.32 0.76
-4.56 -1.31 0.75
-4.20 -1.23 0.81
-4.31 -1.24 0.79
-4.43 -1.24 0.77
-4.71 -1.27 0.72
-4.55 -1.22 0.75
-4.70 -1.23 0.72
-5.01 -1.26 0.66
-4.61 -1.18 0.74
-5.01 -1.23 0.66
-5.07 -1.22 0.65
-4.88 -1.17 0.69
-4.71 -1.12 0.72
-4.87 -1.13 0.69
-4.64 -1.08 0.73
-4.75 -1.08 0.71
-4.91 -1.08 0.68
-3.76 -0.90 0.91
-3.81 -0.89 0.90
-3.71 -0.87 0.92
-3.93 -0.88 0.87
-4.04 -0.88 0.85
-4.25 -0.89 0.81
-3.91 -0.83 0.88
-3.96 -0.82 0.87
-3.60 -0.76 0.94
-3.67 -0.75 0.92
-4.03 -0.78 0.86
-4.67 -0.83 0.73
-3.61 -0.70 0.94
-3.95 -0.72 0.87
-4.42 -0.75 0.78
-4.53 -0.75 0.76
-3.82 -0.66 0.90
-4.62 -0.72 0.74
-4.45 -0.69 0.77
-4.73 -0.70 0.72
-3.02 -0.52 1.05
-4.57 -0.65 0.75
-4.68 -0.64 0.73
-4.45 -0.60 0.77
-6.68 -0.76 0.34
-4.20 -0.53 0.82
-6.51 -0.66 0.37
-6.30 -0.62 0.42
-6.09 -0.59 0.46
-5.99 -0.56 0.48
-6.16 -0.55 0.44
-6.02 -0.52 0.47
-6.15 -0.51 0.45
-5.99 -0.48 0.48
-6.08 -0.46 0.46
-5.82 -0.43 0.51
-5.64 -0.40 0.54
-5.21 -0.36 0.62
-5.15 -0.34 0.64
-5.21 -0.32 0.62
-5.28 -0.30 0.61
-7.43 -0.24 0.74
-7.27 -0.22 0.77
-7.29 -0.20 0.77
-7.17 -0.18 0.79
-7.22 -0.16 0.78
-7.30 -0.15 0.77
-7.27 -0.13 0.77
-7.27 -0.11 0.77
-7.24 -0.10 0.78
-7.30 -0.08 0.76
-6.96 -0.06 0.83
-6.93 -0.04 0.84
-6.97 -0.02 0.83
-7.04 -0.01 0.81
-5.18 0.06 0.57
-4.98 0.12 0.60
-5.11 0.16 0.58
-5.21 0.20 0.56
-5.32 0.24 0.53
-5.30 0.26 0.54
-5.51 0.28 0.50
-5.52 0.30 0.49
-5.56 0.32 0.48
-5.32 0.33 0.53
-5.00 0.34 0.60
-4.93 0.35 0.61
-4.77 0.23 1.21
-4.91 0.25 1.18
-4.60 0.25 1.25
-5.04 0.28 1.16
-6.72 0.41 0.81
-5.18 0.33 1.13
-4.90 0.34 1.18
-6.31 0.45 0.90
-5.54 0.41 1.05
-6.03 0.46 0.95
-5.93 0.46 0.97
-5.32 0.43 1.10
-5.41 0.45 1.08
-5.35 0.46 1.09
-5.18 0.45 1.12
-4.79 0.43 1.20
-4.93 0.46 1.17
-4.98 0.47 1.16
-4.92 0.49 1.17
-4.94 0.51 1.17
-5.65 0.59 1.02
-4.74 0.51 1.21
-6.06 0.66 0.94
-4.68 0.53 1.22
-5.27 0.60 1.10
-5.03 0.59 1.15
-4.92 0.59 1.17
-4.86 0.59 1.18
-4.92 0.63 1.17
-4.90 0.63 1.17
-5.03 0.66 1.15
-4.80 0.65 1.19
-5.78 0.79 0.99
-4.59 0.64 1.23
-4.77 0.68 1.20
-4.38 0.63 1.27
-4.82 0.71 1.18
-4.93 0.74 1.16
-4.91 0.75 1.17
-5.56 0.86 1.03
-5.12 0.80 1.12
-5.32 0.85 1.08
-5.19 0.84 1.10
-5.35 0.89 1.07
-5.45 0.92 1.05
-5.31 0.91 1.08
-1.07 -1.01 1.40
-0.91 -0.95 1.43
-0.88 -0.94 1.44
-0.97 -0.95 1.42
-0.91 -0.79 1.43
-0.92 -0.79 1.43
-1.34 -0.74 1.35
-4.34 -0.96 0.74
-4.40 -0.95 0.73
-4.16 -0.89 0.77
-4.34 -0.89 0.74
-3.10 -0.70 0.99
-2.96 -0.65 1.02
-3.54 -0.69 0.90
-1.39 -0.44 1.34
-3.30 -0.62 0.95
-6.33 -0.54 0.34
-6.27 -0.51 0.35
-5.97 -0.47 0.41
-5.64 -0.44 0.48
-5.70 -0.42 0.46
-5.93 -0.41 0.42
-5.55 -0.37 0.49
-5.76 -0.34 0.45
-6.02 -0.23 0.40
-5.89 -0.20 0.42
-5.89 -0.16 0.42
-5.90 -0.10 0.42
-6.82 0.06 0.73
-6.57 0.07 0.78
-6.63 0.09 0.77
-6.28 0.10 0.84
-6.35 0.11 0.83
-6.17 0.13 0.87
-6.21 0.14 0.86
-6.15 0.16 0.87
-6.18 0.17 0.86
-6.20 0.19 0.86
-6.32 0.20 0.83
-6.82 0.27 0.72
-6.85 0.29 0.72
-6.80 0.30 0.73
-6.53 0.31 0.79
-6.47 0.32 0.80
-6.90 0.36 0.71
-6.73 0.36 0.74
-6.70 0.38 0.75
-6.83 0.40 0.72
-6.00 0.47 0.89
-5.26 0.65 1.04
-5.47 0.70 0.99
-5.30 0.69 1.03
-5.25 0.70 1.04
-5.17 0.71 1.06
-5.17 0.73 1.06
-5.28 0.75 1.03
-5.40 0.78 1.00
-5.43 0.80 1.00
-5.17 0.78 1.05
-5.30 0.81 1.02
-5.35 0.85 1.01
-5.44 0.89 0.99
-3.38 -1.63 0.85
-3.46 -1.64 0.83
-3.64 -1.67 0.79
-3.64 -1.62 0.79
-3.97 -1.67 0.72
-3.44 -1.52 0.84
-2.61 -1.31 1.02
-3.34 -1.46 0.86
-3.39 -1.45 0.85
-3.74 -1.52 0.78
-3.48 -1.44 0.83
-3.27 -1.38 0.88
-3.67 -1.46 0.79
-3.36 -1.37 0.86
-3.40 -1.37 0.85
-4.02 -1.48 0.72
-3.60 -1.38 0.81
-3.79 -1.40 0.77
-4.02 -1.43 0.72
-3.98 -1.41 0.73
-3.08 -1.21 0.92
-4.33 -1.45 0.65
-4.37 -1.44 0.65
-1.75 -0.90 1.21
-4.29 -1.39 0.66
-4.22 -1.36 0.68
-4.43 -1.38 0.63
-4.22 -1.32 0.68
-4.22 -1.31 0.68
-4.14 -1.27 0.70
-2.26 -0.92 1.10
-1.97 -0.85 1.16
-4.51 -1.29 0.62
-1.53 -0.75 1.26
-1.84 -0.80 1.19
-4.43 -1.22 0.64
-4.44 -1.21 0.64
-4.18 -1.15 0.69
-4.09 -1.12 0.71
-4.06 -1.09 0.72
-4.41 -1.13 0.64
-3.98 -1.05 0.74
-3.97 -1.03 0.74
-4.02 -1.02 0.73
-4.08 -1.02 0.71
-4.30 -1.03 0.67
-4.41 -1.03 0.65
-4.41 -1.01 0.65
-4.29 -0.98 0.67
-4.23 -0.95 0.68
-4.23 -0.94 0.68
-4.22 -0.92 0.69
-4.36 -0.92 0.66
-4.28 -0.89 0.67
-4.17 -0.86 0.70
-4.30 -0.86 0.67
-4.34 -0.85 0.66
-3.63 -0.75 0.81
-3.45 -0.71 0.85
-3.61 -0.72 0.82
-3.45 -0.68 0.85
-3.49 -0.67 0.84
-3.18 -0.63 0.91
-3.34 -0.63 0.88
-3.47 -0.63 0.85
-4.81 -0.74 0.56
-3.57 -0.61 0.83
-4.96 -0.70 0.53
-5.11 -0.69 0.50
-5.07 -0.67 0.51
-4.46 -0.57 0.64
-4.11 -0.47 0.71
-4.24 -0.47 0.68
-3.78 -0.42 0.78
-7.62 -0.41 0.56
-7.32 -0.38 0.63
-7.50 -0.37 0.59
-7.63 -0.36 0.56
-7.43 -0.33 0.61
-7.25 -0.30 0.64
-7.61 -0.30 0.57
-7.53 -0.28 0.58
-7.33 -0.25 0.63
-7.32 -0.24 0.63
-7.47 -0.22 0.60
-7.45 -0.20 0.60
-7.31 -0.18 0.63
-7.26 -0.17 0.64
-7.23 -0.15 0.65
-7.34 -0.13 0.62
-8.02 -0.12 0.48
-7.36 -0.10 0.62
-7.27 -0.08 0.64
-7.73 -0.06 0.54
-7.43 -0.04 0.60
-4.75 0.00 0.50
-4.69 0.02 0.52
-4.77 0.04 0.50
-6.21 0.07 0.80
-6.19 0.08 0.81
-6.23 0.11 0.80
-6.12 0.12 0.82
-6.14 0.14 0.82
-6.14 0.15 0.82
-6.07 0.18 0.83
-6.11 0.20 0.82
-6.05 0.22 0.83
-6.05 0.24 0.83
-6.27 0.26 0.79
-6.21 0.27 0.80
-6.41 0.31 0.75
-6.50 0.33 0.73
-6.77 0.38 0.67
-5.23 0.54 1.00
-5.25 0.56 1.00
-5.21 0.57 1.01
-5.09 0.59 1.03
-5.04 0.59 1.04
-5.04 0.60 1.04
-5.11 0.63 1.03
-5.05 0.64 1.04
-5.05 0.66 1.04
-4.98 0.67 1.05
-5.12 0.70 1.02
-4.92 0.69 1.06
-5.02 0.71 1.04
-5.00 0.74 1.04
-5.18 0.78 1.00
-5.13 0.79 1.01
-5.20 0.82 1.00
-5.17 0.83 1.00
-5.32 0.86 0.97
-3.79 -1.40 0.71
-3.73 -1.34 0.72
-2.01 -0.96 1.11
-2.11 -0.97 1.09
-1.82 -0.89 1.16
-1.88 -0.88 1.14
-1.87 -0.86 1.14
-1.99 -0.87 1.12
-1.46 -0.77 1.24
-3.99 -1.18 0.67
-4.04 -1.17 0.66
-2.71 -0.93 0.96
-1.71 -0.75 1.18
-1.87 -0.76 1.15
-3.29 -0.98 0.83
-3.54 -1.01 0.77
-3.58 -1.00 0.76
-3.27 -0.94 0.83
-3.46 -0.95 0.79
-3.56 -0.95 0.77
-3.81 -0.97 0.71
-3.96 -0.98 0.68
-4.18 -0.99 0.63
-4.12 -0.97 0.65
-4.03 -0.94 0.67
-4.02 -0.92 0.67
-3.94 -0.89 0.69
-3.95 -0.88 0.69
-3.57 -0.81 0.77
-3.29 -0.77 0.83
-3.50 -0.78 0.79
-3.79 -0.79 0.72
-3.45 -0.74 0.80
-3.31 -0.71 0.83
-3.36 -0.70 0.82
-3.44 -0.69 0.80
-3.32 -0.67 0.83
-3.39 -0.66 0.81
-3.36 -0.64 0.82
-3.29 -0.62 0.83
-3.43 -0.62 0.80
-3.59 -0.62 0.77
-4.54 -0.69 0.55
-3.89 -0.62 0.70
-4.09 -0.62 0.65
-4.48 -0.64 0.57
-4.80 -0.65 0.50
-4.21 -0.58 0.63
-4.73 -0.60 0.51
-4.42 -0.55 0.58
-3.89 -0.49 0.70
-3.88 -0.47 0.70
-4.14 -0.46 0.64
-3.83 -0.42 0.71
-3.91 -0.40 0.70
-3.98 -0.30 0.68
-4.85 -0.29 0.49
-4.22 -0.25 0.63
-4.23 -0.23 0.62
-4.43 -0.22 0.58
-4.51 -0.21 0.56
-4.53 -0.19 0.56
-4.66 -0.17 0.53
-4.51 -0.15 0.56
-4.59 -0.14 0.54
-5.20 -0.13 0.41
-4.75 -0.09 0.51
-5.00 -0.01 0.45
-6.69 0.07 0.63
-6.32 0.08 0.71
-6.13 0.10 0.76
-6.29 0.13 0.72
-6.70 0.15 0.63
-6.87 0.17 0.58
-6.49 0.18 0.67
-5.07 0.62 0.98
-5.22 0.67 0.95
-5.09 0.66 0.98
-5.05 0.67 0.98
-5.06 0.68 0.98
-5.12 0.70 0.97
-5.19 0.73 0.95
-5.21 0.74 0.95
-5.25 0.76 0.93
-5.29 0.78 0.92
-5.33 0.80 0.92
-4.07 -1.26 0.58
-4.24 -1.26 0.54
-4.18 -1.23 0.56
-3.98 -1.18 0.60
-4.34 -1.21 0.52
-4.53 -1.22 0.48
-3.90 -1.10 0.62
-4.11 -1.10 0.57
-3.92 -1.05 0.62
-3.73 -1.01 0.66
-4.14 -1.05 0.57
-4.25 -1.06 0.54
-4.20 -1.03 0.56
-4.35 -1.02 0.52
-4.26 -0.99 0.54
-4.11 -0.95 0.58
-4.09 -0.93 0.58
-4.14 -0.92 0.57
-3.95 -0.88 0.61
-3.62 -0.82 0.69
-4.09 -0.87 0.58
-4.26 -0.87 0.54
-3.84 -0.80 0.64
-4.09 -0.82 0.58
-3.65 -0.75 0.68
-4.06 -0.78 0.59
-3.85 -0.74 0.64
-4.22 -0.77 0.55
-3.87 -0.71 0.64
-3.50 -0.66 0.72
-3.74 -0.67 0.66
-3.36 -0.61 0.75
-3.93 -0.65 0.62
-4.38 -0.48 0.52
-4.28 -0.45 0.54
-3.23 -0.34 0.78
-4.79 -0.18 0.42
-4.65 -0.16 0.45
-4.57 -0.14 0.47
-7.26 -0.10 0.50
-7.21 -0.08 0.51
-7.39 -0.06 0.47
-3.52 0.54 0.29
-3.48 0.58 0.29
-3.02 0.05 0.31
-3.45 0.65 0.26
-3.28 0.63 0.28
-3.18 0.62 0.29
-3.21 0.65 0.28
-3.49 0.59 0.24
-3.35 0.60 0.25
-3.46 0.66 0.24
-3.39 0.69 0.22
-3.08 0.03 0.24
-3.08 0.01 0.20
-0.61 -0.84 0.35
-0.76 -0.59 0.34
-0.86 -0.71 0.31
-0.53 -0.79 0.24
-0.60 -0.73 0.25
-0.95 -0.69 0.26
-0.71 -0.65 0.21
-1.08 -0.62 0.25
-0.84 -0.57 0.24
-0.83 -0.56 0.21
-1.05 -0.41 0.25
-0.76 -0.20 0.22
-15.94 1.20 1.77
-5.50 -0.94 1.97
-15.80 0.62 1.66
-12.48 -1.37 1.67
-10.77 0.32 1.65
-15.62 0.73 1.41
-8.70 1.02 1.75
-5.65 -1.04 1.77
-12.82 -1.10 1.41
-5.18 -1.34 1.75
-14.02 -0.34 1.28
-15.83 1.11 1.26
-12.82 -1.17 1.27
-12.71 -1.13 1.28
-5.29 -1.58 1.67
-11.05 -0.68 1.31
-11.27 -0.46 1.29
-11.32 0.01 1.41
-14.73 0.12 1.18
-7.51 0.53 1.67
-9.75 0.76 1.52
-5.39 -1.48 1.62
-12.96 -1.56 1.11
-12.91 -1.52 1.11
-12.69 -1.46 1.13
-13.36 -1.49 1.08
-12.91 -1.11 1.11
-11.61 -0.91 1.20
-11.52 -0.74 1.21
-11.74 -0.71 1.19
-10.95 -0.35 1.44
-10.95 -0.33 1.44
-10.91 -0.27 1.44
-13.12 -1.50 1.01
-12.99 -1.37 1.02
-11.59 -0.77 1.13
-11.77 -0.64 1.11
-11.55 -0.60 1.13
-13.56 -0.22 0.98
-12.24 -0.16 1.08
-14.48 0.05 1.04
-10.77 0.06 1.33
-10.41 0.11 1.36
-14.68 0.19 1.02
-14.59 0.23 1.03
-14.80 0.30 1.01
-14.58 0.36 1.03
-9.95 0.30 1.40
-14.96 0.48 1.00
-15.91 0.82 0.92
-8.12 1.21 1.53
-4.95 -1.38 1.57
-12.97 -1.53 0.94
-12.77 -1.47 0.95
-12.92 -1.45 0.94
-13.16 -1.43 0.92
-12.92 -1.26 0.94
-12.67 -1.20 0.96
-12.67 -0.94 0.96
-12.62 -0.90 0.96
-12.38 -0.57 1.21
-12.57 -0.52 1.19
-13.45 -0.46 1.12
-11.02 -0.14 1.31
-14.58 0.26 0.96
-14.77 0.37 0.94
-9.79 0.76 1.36
-8.12 1.13 1.49
-12.93 -1.48 0.86
-12.84 -1.25 0.87
-12.93 -1.22 0.86
-12.88 -1.10 0.86
-12.91 -1.07 0.86
-12.40 -0.93 0.90
-12.42 -0.89 0.90
-11.47 -0.80 0.98
-12.30 -0.81 0.91
-12.41 -0.71 0.90
-12.55 -0.68 0.89
-12.16 -0.63 0.92
-12.04 -0.59 0.94
-11.88 -0.55 0.95
-10.00 -0.35 1.11
-13.05 -0.40 0.85
-13.16 -0.36 0.84
-14.12 -0.31 0.76
-13.37 -0.22 0.82
-13.55 -0.18 0.81
-13.53 -0.14 0.81
-13.50 -0.10 0.81
-14.46 0.09 0.88
-9.15 0.16 1.35
-9.13 0.21 1.36
-15.05 0.38 0.82
-15.59 0.46 0.77
-9.34 0.30 1.34
-9.66 0.43 1.31
-9.72 0.52 1.30
-9.84 0.67 1.29
-9.91 0.70 1.28
-9.77 0.71 1.29
-9.73 0.73 1.30
-9.80 0.76 1.29
-5.36 -1.51 1.44
-4.92 -1.23 1.48
-4.86 -1.03 1.49
-12.58 -1.34 0.79
-6.11 -0.74 1.38
-12.75 -1.21 0.77
-12.82 -1.17 0.77
-12.75 -1.06 0.78
-12.78 -1.02 0.77
-12.51 -0.97 0.80
-12.53 -0.93 0.79
-6.50 -0.52 1.34
-6.39 -0.50 1.35
-6.71 -0.49 1.32
-6.51 -0.44 1.34
-6.76 -0.40 1.32
-10.00 -0.48 1.02
-12.00 -0.48 0.84
-11.82 -0.44 0.86
-10.26 -0.36 1.00
-9.90 -0.32 1.03
-10.41 -0.14 1.24
-10.56 -0.11 1.23
-14.16 -0.05 0.90
-10.23 -0.01 1.26
-9.48 0.04 1.00
-9.59 0.16 0.99
-12.30 0.37 1.00
-15.82 0.70 0.66
-9.88 0.74 1.23
-9.87 0.77 1.23
-5.61 0.94 1.63
-13.17 -1.43 0.65
-12.60 -1.05 0.70
-12.69 -1.02 0.70
-12.02 -0.94 0.76
-6.73 -0.58 1.27
-12.44 -0.85 0.72
-6.43 -0.50 1.30
-6.60 -0.48 1.28
-11.84 -0.61 0.78
-11.72 -0.57 0.79
-11.59 -0.53 0.80
-6.47 -0.32 1.29
-12.02 -0.48 0.76
-12.29 -0.45 0.73
-12.56 -0.42 0.71
-12.27 -0.38 0.74
-12.42 -0.35 0.72
-6.20 -0.19 1.32
-9.51 -0.22 1.00
-12.78 -0.25 0.69
-12.33 -0.20 0.73
-12.95 -0.14 0.67
-11.12 -0.05 0.84
-14.16 0.02 0.73
-7.83 0.07 1.38
-10.21 0.16 1.14
-14.12 0.29 0.74
-12.07 0.36 0.95
-15.91 0.51 0.55
-15.40 0.53 0.60
-11.86 0.47 0.97
-9.48 0.44 1.21
-9.51 0.47 1.21
-9.66 0.50 1.19
-9.52 0.54 1.20
-9.59 0.61 1.20
-9.70 0.66 1.18
-9.70 0.69 1.18
-7.88 0.96 1.36
-7.87 1.08 1.36
-7.82 1.09 1.37
-7.98 1.35 1.34
-4.96 -1.46 1.38
-5.04 -1.42 1.38
-5.26 -1.44 1.35
-5.34 -1.41 1.34
-4.96 -1.33 1.38
-5.09 -1.33 1.37
-4.91 -1.28 1.39
-5.15 -1.30 1.36
-5.07 -1.12 1.37
-5.11 -1.11 1.37
-13.05 -1.34 0.56
-12.41 -1.25 0.62
-12.72 -1.21 0.59
-12.53 -1.15 0.61
-12.80 -1.06 0.58
-6.02 -0.58 1.28
-12.25 -0.95 0.64
-11.31 -0.86 0.74
-12.46 -0.82 0.62
-6.21 -0.47 1.26
-6.28 -0.45 1.25
-6.42 -0.43 1.24
-6.41 -0.41 1.24
-6.17 -0.38 1.26
-12.02 -0.55 0.66
-11.04 -0.38 1.05
-13.29 -0.43 0.82
-13.62 -0.37 0.79
-13.53 -0.31 0.80
-13.68 -0.28 0.78
-10.61 -0.14 1.10
-13.92 -0.15 0.76
-14.21 -0.12 0.73
-10.27 -0.06 1.13
-14.01 -0.05 0.75
-14.02 -0.02 0.75
-12.67 -1.05 0.50
-12.25 -0.95 0.54
-12.49 -0.79 0.52
-10.40 -0.65 0.75
-12.04 -0.62 0.57
-10.14 -0.48 0.77
-10.91 -0.48 0.69
-11.88 -0.48 0.58
-11.19 -0.42 0.66
-10.22 -0.36 0.76
-11.01 -0.35 0.68
-8.86 -0.24 0.91
-12.38 0.01 0.75
-12.59 0.10 0.73
-12.41 0.13 0.75
-12.53 0.16 0.73
-12.34 0.19 0.75
-12.26 0.22 0.76
-12.27 0.25 0.76
-12.20 0.28 0.77
-12.21 0.31 0.77
-15.18 0.42 0.43
-12.06 0.36 0.78
-11.99 0.39 0.79
-11.98 0.41 0.79
-11.95 0.44 0.80
-9.35 0.37 1.10
-15.68 0.65 0.36
-9.30 0.75 1.10
-9.42 0.80 1.08
-9.04 0.81 1.13
-9.17 0.85 1.11
-9.05 0.86 1.12
-4.31 -1.55 1.35
-11.14 -1.58 0.56
-13.34 -1.52 0.31
-10.81 -1.25 0.60
-12.87 -1.41 0.36
-13.23 -1.40 0.32
-13.10 -1.31 0.34
-12.98 -1.23 0.35
-10.30 -0.99 0.66
-12.92 -1.15 0.36
-13.06 -1.12 0.34
-10.14 -0.88 0.68
-12.90 -1.03 0.36
-12.68 -0.98 0.39
-12.67 -0.94 0.39
-8.40 -0.66 0.88
-12.12 -0.65 0.78
-11.94 -0.61 0.80
-13.00 -0.60 0.68
-10.51 -0.46 0.97
-12.48 -0.52 0.74
-12.66 -0.50 0.72
-12.59 -0.46 0.73
-12.38 -0.43 0.75
-12.51 -0.40 0.74
-12.84 -0.35 0.70
-13.41 -0.34 0.63
-10.51 -0.24 0.97
-10.45 -0.21 0.97
-10.56 -0.19 0.96
-10.67 -0.17 0.95
-10.59 -0.14 0.96
-13.66 -0.15 0.60
-13.66 -0.11 0.60
-14.10 -0.05 0.55
-13.03 -0.02 0.67
-10.76 0.04 0.52
-14.35 0.12 0.43
-12.21 0.13 0.69
-12.20 0.16 0.69
-12.00 0.19 0.71
-12.03 0.21 0.71
-12.05 0.24 0.71
-12.01 0.27 0.71
-15.33 0.46 0.31
-15.62 0.50 0.27
-14.78 0.54 0.37
-9.35 0.73 1.03
-9.54 0.77 1.01
-9.54 0.79 1.01
-9.84 0.84 0.97
-9.38 0.82 1.02
-9.45 0.87 1.02
-9.41 0.89 1.02
-9.10 0.88 1.06
-4.97 -1.61 1.22
-4.65 -1.51 1.26
-11.45 -1.48 0.43
-10.56 -1.13 0.54
-12.91 -1.29 0.26
-12.73 -1.24 0.28
-10.36 -0.99 0.57
-10.02 -0.90 0.61
-10.30 -0.89 0.58
-10.03 -0.84 0.61
-9.89 -0.80 0.63
-12.58 -0.94 0.30
-6.41 -0.54 1.05
-10.22 -0.73 0.59
-11.16 -0.75 0.47
-10.07 -0.66 0.61
-10.27 -0.64 0.58
-12.45 -0.71 0.32
-9.56 -0.52 0.67
-9.93 -0.50 0.62
-10.01 -0.48 0.61
-9.66 -0.43 0.66
-10.14 -0.42 0.60
-9.80 -0.38 0.64
-9.66 -0.35 0.66
-10.77 -0.34 0.52
-10.00 -0.29 0.61
-9.75 -0.26 0.64
-10.30 -0.24 0.58
-6.55 -0.15 1.04
-11.18 -0.19 0.47
-10.34 -0.15 0.57
-10.35 -0.11 0.57
-9.59 -0.08 0.66
-10.82 -0.02 0.51
-11.64 0.01 0.67
-14.36 0.05 0.32
-12.08 0.16 0.62
-12.12 0.19 0.61
-12.15 0.25 0.61
-12.22 0.31 0.60
-10.14 0.69 0.86
-10.09 0.71 0.87
-10.27 0.75 0.84
-10.23 0.77 0.85
-9.76 0.83 0.91
-8.95 0.78 1.01
-8.99 0.81 1.01
-9.52 0.88 0.94
-8.72 1.15 1.03
-8.61 1.28 1.04
-7.69 1.26 1.16
-4.62 -1.66 1.21
-4.69 -1.61 1.20
-4.88 -1.63 1.18
-4.77 -1.57 1.19
-4.34 -1.43 1.25
-4.49 -1.44 1.23
-4.54 -1.40 1.22
-4.39 -1.23 1.24
-4.68 -1.26 1.21
-5.12 -1.13 1.15
-11.44 -1.65 0.33
-11.41 -1.61 0.33
-11.24 -1.56 0.36
-11.14 -1.51 0.37
-11.12 -1.45 0.37
-10.80 -1.28 0.42
-10.59 -1.23 0.44
-5.79 -0.77 1.07
-9.93 -1.11 0.53
-10.33 -1.08 0.48
-10.50 -1.07 0.46
-10.07 -1.00 0.51
-10.01 -0.96 0.52
-9.69 -0.91 0.56
