# .PCD v0.7 - Point Cloud Data file format
VERSION 0.7
FIELDS x y z
SIZE 4 4 4
TYPE F F F
COUNT 1 1 1
WIDTH 2900
HEIGHT 1
VIEWPOINT 0 0 0 1 0 0 0
POINTS 2900
DATA ASCII
-4.65 -1.54 1.82
-4.90 -1.50 1.81
-4.55 -0.97 1.83
-5.04 -0.89 1.80
-4.59 -0.77 1.83
-4.52 -0.72 1.83
-4.55 -0.71 1.83
-4.21 -0.64 1.84
-4.57 -0.64 1.83
-4.62 -0.63 1.83
-4.82 -0.63 1.82
-4.57 -0.59 1.83
-4.55 -0.53 1.83
-4.55 -0.52 1.83
-4.59 -0.50 1.83
-4.42 -0.47 1.83
-4.86 -0.48 1.81
-4.64 -0.10 1.95
-9.81 -0.13 1.69
-9.66 -0.08 1.69
-9.78 -0.06 1.69
-9.89 0.38 1.64
-8.91 0.47 1.69
-8.94 0.52 1.69
-8.00 0.81 1.74
-8.05 1.03 1.73
-8.70 1.14 1.70
-8.37 1.11 1.71
-8.29 1.17 1.72
-7.31 1.16 1.77
-0.93 -1.58 1.98
-1.16 -1.66 1.97
-1.18 -1.66 1.97
-1.14 -1.63 1.97
-1.16 -1.63 1.97
-1.23 -1.63 1.96
-1.32 -1.65 1.96
-1.18 -1.57 1.97
-1.22 -1.58 1.97
-1.18 -1.55 1.97
-1.26 -1.58 1.96
-1.39 -1.62 1.96
-1.13 -1.50 1.97
-1.10 -1.42 1.97
-1.28 -1.48 1.96
-1.43 -1.51 1.96
-1.92 -1.68 1.93
-1.62 -1.56 1.95
-1.42 -1.39 1.96
-1.16 -1.18 1.97
-1.18 -1.00 1.97
-4.71 -0.81 1.79
-5.13 -0.65 1.77
-9.47 -0.04 1.54
-9.27 -0.01 1.55
-4.85 0.10 1.89
-4.80 0.11 1.89
-9.33 0.47 1.62
-9.30 0.50 1.62
-9.23 0.51 1.63
-9.07 0.53 1.64
-9.02 0.55 1.64
-7.96 0.83 1.70
-8.00 0.85 1.70
-8.09 0.88 1.69
-8.05 0.90 1.69
-7.91 0.90 1.70
-8.09 0.94 1.69
-8.20 0.97 1.68
-8.03 0.97 1.69
-8.23 1.02 1.68
-8.24 1.04 1.68
-8.40 1.10 1.67
-7.96 1.06 1.70
-7.88 1.07 1.70
-8.04 1.11 1.69
-8.16 1.15 1.68
-8.00 1.15 1.69
-7.12 1.04 1.75
-7.83 1.16 1.70
-8.00 1.22 1.69
-7.80 1.21 1.70
-8.02 1.27 1.69
-7.64 1.23 1.71
-7.35 1.20 1.73
-7.73 1.28 1.71
-7.28 1.22 1.74
-7.25 1.26 1.74
-7.73 1.36 1.71
-7.38 1.32 1.73
-8.03 1.55 1.69
-0.37 -1.09 2.00
-1.94 -1.18 1.91
-4.80 -1.68 1.74
-4.90 -0.96 1.74
-4.76 -0.82 1.75
-4.42 -0.76 1.77
-4.59 -0.69 1.76
-4.50 -0.67 1.76
-4.56 -0.62 1.76
-4.62 -0.57 1.76
-4.63 -0.54 1.76
-4.52 -0.50 1.76
-4.60 -0.47 1.76
-4.93 -0.38 1.74
-4.80 -0.35 1.75
-10.08 -0.47 1.44
-4.77 -0.22 1.75
-4.54 -0.17 1.76
-9.93 -0.09 1.59
-8.84 0.02 1.46
-6.69 0.04 1.59
-6.02 0.20 1.63
-8.30 0.64 1.64
-7.87 0.82 1.67
-7.82 0.85 1.67
-8.04 0.89 1.66
-8.04 0.91 1.66
-7.92 0.92 1.66
-8.28 0.98 1.64
-7.90 0.95 1.67
-8.06 1.01 1.65
-7.70 1.04 1.68
-8.38 1.15 1.63
-7.88 1.22 1.66
-7.83 1.24 1.67
-1.00 -1.64 1.94
-1.16 -1.67 1.93
-1.20 -1.65 1.93
-1.19 -1.63 1.93
-1.28 -1.65 1.92
-1.22 -1.59 1.93
-1.02 -1.49 1.94
-1.02 -1.49 1.94
-1.34 -1.57 1.92
-1.21 -1.47 1.93
-1.31 -1.50 1.92
-0.51 -1.15 1.98
-1.37 -1.44 1.92
-1.15 -1.33 1.93
-1.53 -1.45 1.91
-1.39 -1.35 1.92
-4.77 -1.65 1.71
-4.74 -0.62 1.72
-4.50 -0.53 1.73
-10.10 -0.35 1.38
-9.58 -0.31 1.42
-8.96 -0.04 1.45
-8.87 -0.01 1.46
-8.86 0.01 1.57
-8.80 0.03 1.57
-8.97 0.07 1.56
-9.16 0.09 1.54
-8.86 0.11 1.57
-8.90 0.13 1.56
-6.84 0.17 1.71
-8.55 0.58 1.58
-8.50 0.74 1.59
-7.90 0.80 1.63
-8.36 0.87 1.59
-8.01 0.85 1.62
-8.04 0.88 1.62
-8.03 0.90 1.62
-7.83 0.89 1.63
-7.77 0.90 1.63
-7.68 0.91 1.64
-8.11 0.98 1.61
-8.01 0.99 1.62
-8.13 1.03 1.61
-7.59 0.98 1.65
-8.08 1.06 1.61
-8.14 1.09 1.61
-7.64 1.04 1.64
-8.08 1.12 1.61
-8.07 1.14 1.61
-7.80 1.12 1.63
-7.67 1.12 1.64
-7.71 1.14 1.63
-7.94 1.20 1.62
-7.48 1.15 1.65
-7.82 1.22 1.63
-8.09 1.28 1.61
-7.71 1.24 1.63
-7.82 1.28 1.62
-7.49 1.26 1.65
-7.68 1.45 1.63
-7.88 1.52 1.62
-7.31 1.43 1.66
-7.83 1.57 1.62
-1.60 -1.36 1.88
-4.73 -1.69 1.67
-4.80 -1.63 1.67
-4.68 -1.41 1.68
-4.67 -1.19 1.68
-4.55 -0.76 1.69
-4.54 -0.74 1.69
-4.76 -0.71 1.68
-4.83 -0.70 1.67
-4.83 -0.66 1.67
-4.76 -0.64 1.68
-4.83 -0.59 1.67
-4.76 -0.55 1.68
-4.79 -0.50 1.67
-4.77 -0.46 1.68
-4.77 -0.42 1.67
-4.81 -0.34 1.67
-10.25 -0.36 1.47
-10.30 -0.33 1.47
-10.37 -0.31 1.46
-10.09 -0.28 1.48
-9.95 -0.25 1.49
-10.27 -0.24 1.47
-10.29 -0.21 1.47
-10.03 -0.18 1.49
-10.13 -0.16 1.48
-9.92 -0.13 1.49
-9.75 -0.11 1.50
-9.75 -0.09 1.50
-10.33 -0.07 1.46
-10.02 -0.04 1.49
-9.26 -0.01 1.54
-5.91 0.14 1.55
-6.02 0.18 1.54
-6.06 0.26 1.54
-8.06 0.84 1.57
-7.55 0.88 1.61
-7.30 0.88 1.63
-7.68 1.10 1.60
-8.27 1.24 1.55
-1.03 -1.63 1.90
-1.13 -1.63 1.89
-0.93 -1.53 1.91
-1.17 -1.56 1.89
-1.07 -1.43 1.90
-1.19 -1.46 1.89
-1.42 -1.52 1.87
-1.51 -1.15 1.87
-7.98 -0.40 1.40
-5.77 -0.25 1.56
-9.00 -0.07 1.33
-8.76 -0.04 1.35
-9.45 0.07 1.42
-9.21 0.09 1.44
-8.99 0.14 1.46
-8.81 0.20 1.47
-8.46 0.21 1.50
-8.72 0.30 1.48
-8.87 0.35 1.47
-8.94 0.39 1.46
-5.52 0.26 1.73
-9.34 0.45 1.43
-8.79 0.45 1.47
-8.80 0.47 1.47
-8.64 0.48 1.48
-9.17 0.53 1.44
-8.66 0.61 1.48
-9.06 0.66 1.45
-6.57 0.50 1.65
-7.72 0.64 1.55
-7.32 0.62 1.59
-7.62 0.74 1.56
-7.84 0.80 1.54
-7.79 0.81 1.55
-8.12 0.87 1.52
-7.86 0.86 1.54
-7.73 0.86 1.55
-7.66 0.87 1.56
-7.46 0.87 1.57
-7.66 0.91 1.55
-7.29 0.89 1.58
-7.45 0.92 1.57
-7.25 0.92 1.59
-7.35 0.95 1.58
-7.18 0.94 1.59
-7.62 1.02 1.56
-7.40 1.01 1.58
-7.49 1.04 1.57
-7.68 1.08 1.55
-7.38 1.06 1.58
-7.72 1.13 1.55
-7.82 1.16 1.54
-7.74 1.17 1.54
-7.84 1.20 1.54
-7.90 1.23 1.53
-8.09 1.28 1.52
-7.85 1.26 1.54
-7.86 1.28 1.53
-8.01 1.33 1.52
-7.25 1.22 1.58
-7.38 1.28 1.57
-6.95 1.23 1.61
-7.10 1.27 1.59
-7.43 1.37 1.57
-7.38 1.37 1.57
-7.24 1.37 1.58
-8.05 1.58 1.51
-7.25 1.44 1.58
-7.55 1.59 1.55
-1.29 -1.62 1.85
-1.05 -1.41 1.87
-1.38 -1.52 1.85
-1.97 -1.69 1.80
-1.53 -1.50 1.84
-1.63 -1.52 1.83
-2.21 -1.63 1.78
-4.79 -1.68 1.58
-1.41 -0.90 1.85
-2.16 -1.04 1.79
-2.44 -1.09 1.77
-2.47 -1.02 1.77
-4.64 -1.16 1.60
-4.41 -1.09 1.62
-4.52 -1.09 1.61
-4.50 -1.07 1.61
-4.36 -1.00 1.62
-4.80 -0.97 1.59
-4.31 -0.77 1.63
-4.64 -0.68 1.60
-10.09 -0.52 1.37
-10.13 -0.50 1.37
-10.27 -0.48 1.36
-10.20 -0.45 1.36
-9.94 -0.39 1.38
-10.03 -0.37 1.38
-9.70 -0.34 1.40
-9.55 -0.31 1.41
-9.62 -0.29 1.41
-9.88 -0.27 1.39
-10.06 -0.26 1.37
-10.00 -0.23 1.38
-10.12 -0.21 1.37
-9.47 -0.17 1.42
-9.62 -0.15 1.41
-9.60 -0.13 1.41
-9.57 -0.11 1.41
-9.72 -0.09 1.40
-9.71 -0.06 1.40
-9.90 -0.04 1.39
-9.53 -0.02 1.42
-8.99 0.05 1.41
-8.69 0.07 1.44
-6.51 0.07 1.63
-8.77 0.11 1.43
-9.22 0.14 1.39
-8.23 0.22 1.48
-8.77 0.45 1.43
-8.86 0.47 1.42
-8.19 0.46 1.48
-8.45 0.67 1.45
-7.54 0.66 1.53
-8.12 0.79 1.48
-7.74 0.77 1.51
-7.88 0.80 1.50
-8.10 0.84 1.48
-7.77 0.84 1.51
-7.92 0.88 1.50
-7.77 0.88 1.51
-7.76 0.90 1.51
-7.69 0.91 1.51
-7.52 0.91 1.53
-7.70 0.95 1.51
-7.96 1.00 1.49
-7.62 0.98 1.52
-7.78 1.02 1.51
-7.34 0.98 1.54
-7.38 1.00 1.54
-7.33 1.01 1.54
-7.43 1.04 1.54
-7.77 1.11 1.51
-7.81 1.14 1.50
-7.96 1.18 1.49
-7.95 1.20 1.49
-8.03 1.23 1.48
-7.80 1.21 1.50
-8.05 1.27 1.48
-7.77 1.25 1.50
-7.75 1.28 1.50
-7.20 1.21 1.55
-6.89 1.18 1.58
-6.83 1.18 1.58
-7.22 1.27 1.55
-7.58 1.37 1.52
-7.23 1.34 1.54
-7.48 1.41 1.52
-7.09 1.35 1.56
-7.58 1.50 1.51
-7.54 1.51 1.52
-7.15 1.45 1.55
-7.16 1.47 1.55
-1.46 -1.61 1.82
-1.40 -1.55 1.82
-1.47 -1.53 1.82
-1.77 -1.57 1.79
-2.31 -1.69 1.75
-0.99 -1.10 1.87
-4.84 -1.60 1.54
-4.46 -1.43 1.58
-4.35 -0.94 1.59
-7.05 -0.93 1.37
-4.57 -0.67 1.57
-6.97 -0.85 1.37
-7.02 -0.83 1.37
-6.90 -0.80 1.38
-7.39 -0.71 1.34
-6.73 -0.65 1.39
-7.99 -0.60 1.29
-5.83 -0.40 1.47
-5.39 -0.36 1.50
-5.39 -0.32 1.50
-7.89 -0.39 1.29
-8.04 -0.37 1.28
-5.84 -0.07 1.46
-9.31 0.01 1.33
-9.24 0.03 1.33
-9.28 0.05 1.33
-6.46 0.05 1.59
-6.62 0.07 1.57
-8.96 0.11 1.36
-6.18 0.09 1.61
-8.95 0.16 1.36
-6.83 0.14 1.55
-6.82 0.15 1.55
-4.00 0.11 1.81
-6.94 0.24 1.54
-8.61 0.31 1.39
-9.03 0.35 1.35
-7.09 0.29 1.53
-9.41 0.41 1.31
-6.79 0.31 1.56
-8.16 0.40 1.43
-8.67 0.44 1.38
-8.56 0.46 1.39
-8.49 0.47 1.40
-8.29 0.48 1.42
-7.97 0.48 1.44
-8.24 0.52 1.42
-8.25 0.54 1.42
-7.11 0.48 1.52
-7.45 0.52 1.49
-7.36 0.53 1.50
-7.75 0.58 1.46
-7.45 0.58 1.49
-7.23 0.58 1.51
-7.42 0.61 1.49
-7.26 0.61 1.51
-7.57 0.66 1.48
-7.52 0.67 1.48
-7.09 0.65 1.52
-7.36 0.69 1.50
-7.75 0.75 1.46
-7.36 0.73 1.50
-7.83 0.80 1.45
-7.76 0.81 1.46
-7.54 0.80 1.48
-7.44 0.81 1.49
-7.59 0.85 1.47
-7.39 0.84 1.49
-7.50 0.87 1.48
-7.38 0.88 1.49
-7.37 0.89 1.49
-7.64 0.94 1.47
-7.46 0.94 1.48
-7.27 0.93 1.50
-7.36 0.96 1.49
-7.25 0.97 1.50
-7.55 1.03 1.47
-7.45 1.03 1.48
-7.55 1.06 1.47
-7.39 1.06 1.49
-7.36 1.07 1.49
-7.84 1.16 1.45
-7.77 1.17 1.45
-7.73 1.18 1.46
-8.15 1.27 1.42
-7.68 1.21 1.46
-8.21 1.32 1.41
-7.89 1.29 1.44
-8.02 1.33 1.43
-7.48 1.26 1.48
-7.83 1.33 1.44
-7.05 1.24 1.52
-7.31 1.30 1.49
-7.57 1.37 1.47
-7.18 1.32 1.50
-7.34 1.36 1.49
-7.59 1.45 1.46
-7.20 1.39 1.50
-7.09 1.39 1.51
-7.59 1.51 1.46
-7.64 1.55 1.46
-7.28 1.50 1.49
-7.08 1.48 1.51
-7.59 1.60 1.46
-7.18 1.59 1.50
-7.40 1.66 1.47
-1.74 -1.56 1.77
-4.56 -1.54 1.52
-4.66 -1.31 1.51
-4.50 -1.18 1.53
-4.30 -1.12 1.55
-4.54 -1.15 1.52
-4.52 -1.04 1.53
-4.80 -1.02 1.50
-4.32 -0.94 1.54
-4.25 -0.92 1.55
-4.03 -0.81 1.57
-4.32 -0.81 1.55
-4.01 -0.75 1.57
-3.96 -0.72 1.58
-4.10 -0.71 1.57
-7.01 -0.97 1.30
-7.02 -0.95 1.30
-6.89 -0.91 1.32
-6.94 -0.89 1.31
-6.96 -0.87 1.31
-6.84 -0.84 1.32
-6.86 -0.81 1.32
-6.86 -0.79 1.32
-6.84 -0.77 1.32
-6.88 -0.75 1.32
-7.04 -0.74 1.30
-6.93 -0.71 1.31
-4.16 -0.49 1.56
-7.14 -0.67 1.29
-7.06 -0.64 1.30
-7.75 -0.59 1.24
-8.80 -0.62 1.15
-4.99 -0.40 1.49
-7.69 -0.51 1.25
-5.49 -0.38 1.44
-5.46 -0.36 1.44
-5.60 -0.35 1.43
-5.37 -0.32 1.45
-8.22 -0.41 1.20
-5.49 -0.29 1.44
-5.16 -0.26 1.47
-4.95 -0.21 1.49
-8.94 -0.29 1.13
-8.20 -0.25 1.20
-5.93 -0.18 1.40
-9.30 -0.13 1.33
-9.45 -0.11 1.31
-9.22 -0.08 1.33
-9.13 -0.06 1.34
-8.86 -0.04 1.37
-9.24 -0.02 1.33
-5.63 0.01 1.38
-8.14 0.04 1.14
-5.54 0.05 1.39
-5.79 0.07 1.37
-5.82 0.11 1.36
-5.80 0.13 1.36
-5.74 0.15 1.37
-5.63 0.17 1.38
-5.65 0.19 1.38
-5.70 0.21 1.37
-8.58 0.23 1.35
-8.59 0.25 1.34
-8.97 0.39 1.31
-8.95 0.41 1.31
-8.52 0.43 1.35
-8.17 0.45 1.38
-7.84 0.47 1.42
-8.09 0.51 1.39
-8.29 0.54 1.37
-7.27 0.51 1.47
-8.32 0.60 1.37
-7.86 0.59 1.41
-7.50 0.58 1.45
-7.80 0.62 1.42
-7.64 0.63 1.43
-7.65 0.65 1.43
-7.32 0.64 1.46
-7.75 0.69 1.42
-7.33 0.67 1.46
-7.27 0.68 1.47
-7.27 0.70 1.47
-7.11 0.70 1.48
-7.93 0.80 1.40
-8.05 0.83 1.39
-8.16 0.87 1.38
-7.89 0.86 1.40
-7.50 0.83 1.44
-7.59 0.86 1.43
-7.31 0.85 1.46
-7.43 0.90 1.45
-7.48 0.92 1.44
-7.22 0.91 1.47
-6.68 0.86 1.52
-7.21 0.94 1.47
-7.83 1.04 1.41
-7.34 1.00 1.46
-7.38 1.02 1.45
-7.65 1.08 1.42
-7.45 1.06 1.44
-7.51 1.09 1.44
-7.84 1.16 1.40
-7.73 1.16 1.41
-7.82 1.19 1.40
-8.30 1.29 1.36
-8.17 1.31 1.37
-7.62 1.24 1.42
-7.82 1.33 1.40
-7.37 1.31 1.45
-7.30 1.32 1.45
-7.70 1.45 1.41
-7.45 1.42 1.43
-7.29 1.41 1.45
-7.57 1.48 1.42
-7.02 1.39 1.48
-7.65 1.61 1.41
-1.30 -1.67 1.78
-1.15 -1.60 1.79
-1.47 -1.69 1.76
-1.53 -1.69 1.76
-1.55 -1.68 1.76
-1.36 -1.58 1.78
-1.24 -1.52 1.79
-1.70 -1.69 1.74
-1.31 -1.53 1.78
-1.44 -1.56 1.77
-1.40 -1.53 1.77
-1.58 -1.59 1.75
-1.62 -1.59 1.75
-1.33 -1.47 1.78
-1.76 -1.58 1.74
-1.48 -1.47 1.77
-1.51 -1.44 1.76
-1.89 -1.55 1.73
-2.20 -1.64 1.70
-1.48 -1.39 1.77
-1.40 -1.35 1.78
-1.39 -1.29 1.78
-2.23 -1.00 1.70
-2.31 -0.98 1.70
-5.13 -1.46 1.43
-4.55 -1.29 1.48
-4.06 -1.04 1.53
-7.24 -1.04 1.23
-6.77 -0.94 1.27
-6.82 -0.93 1.27
-6.82 -0.90 1.27
-6.84 -0.88 1.27
-6.80 -0.83 1.27
-6.72 -0.73 1.28
-6.84 -0.72 1.27
-7.14 -0.72 1.24
-6.94 -0.68 1.26
-7.32 -0.68 1.22
-7.13 -0.65 1.24
-7.31 -0.64 1.22
-7.30 -0.61 1.22
-8.27 -0.59 1.13
-5.57 -0.43 1.39
-5.54 -0.41 1.39
-6.06 -0.41 1.34
-5.64 -0.37 1.38
-5.62 -0.35 1.38
-5.51 -0.33 1.39
-5.61 -0.31 1.38
-5.48 -0.28 1.40
-8.02 -0.35 1.16
-7.96 -0.32 1.16
-8.88 -0.32 1.08
-8.63 -0.28 1.10
-5.83 -0.17 1.36
-5.60 -0.15 1.38
-5.53 -0.11 1.39
-5.84 -0.09 1.36
-5.60 -0.07 1.38
-5.81 -0.05 1.36
-8.08 -0.01 1.15
-6.49 0.01 1.51
-9.10 0.03 1.24
-6.30 0.04 1.53
-6.39 0.05 1.52
-9.02 0.09 1.24
-6.48 0.08 1.51
-9.50 0.14 1.19
-6.30 0.11 1.53
-6.73 0.13 1.48
-6.89 0.15 1.46
-8.86 0.22 1.26
-8.90 0.24 1.26
-6.79 0.20 1.47
-6.99 0.22 1.45
-8.51 0.29 1.30
-7.12 0.26 1.44
-6.69 0.26 1.48
-8.66 0.36 1.28
-9.08 0.40 1.24
-7.72 0.36 1.38
-6.94 0.34 1.46
-6.91 0.35 1.46
-8.52 0.45 1.29
-8.51 0.47 1.29
-8.73 0.51 1.27
-7.29 0.44 1.42
-7.61 0.48 1.39
-8.40 0.55 1.30
-8.22 0.56 1.32
-7.77 0.55 1.37
-8.02 0.58 1.34
-7.92 0.59 1.35
-8.61 0.67 1.28
-7.15 0.57 1.43
-7.21 0.59 1.42
-7.05 0.60 1.44
-7.29 0.64 1.42
-7.43 0.67 1.40
-7.47 0.69 1.40
-7.45 0.70 1.40
-7.79 0.75 1.36
-8.08 0.80 1.33
-7.66 0.78 1.38
-7.75 0.81 1.37
-7.51 0.80 1.39
-7.57 0.83 1.38
-7.56 0.84 1.38
-7.75 0.88 1.37
-7.33 0.85 1.41
-7.37 0.88 1.40
-7.23 0.88 1.42
-6.98 0.86 1.44
-6.96 0.88 1.45
-7.18 0.92 1.42
-7.05 0.93 1.44
-7.21 0.96 1.42
-7.45 1.01 1.39
-7.71 1.07 1.37
-7.91 1.11 1.34
-8.21 1.18 1.31
-7.78 1.13 1.36
-7.60 1.13 1.38
-7.70 1.16 1.37
-7.48 1.15 1.39
-7.48 1.17 1.39
-7.76 1.23 1.36
-7.59 1.22 1.37
-7.57 1.24 1.38
-7.09 1.18 1.43
-7.42 1.25 1.39
-7.12 1.22 1.42
-7.12 1.24 1.42
-7.49 1.32 1.38
-7.05 1.26 1.43
-7.46 1.35 1.38
-7.11 1.30 1.42
-7.08 1.32 1.42
-7.00 1.32 1.43
-7.47 1.43 1.38
-7.38 1.43 1.39
-7.60 1.49 1.37
-7.50 1.49 1.38
-7.61 1.53 1.36
-7.55 1.54 1.37
-7.63 1.57 1.36
-7.46 1.56 1.38
-7.52 1.59 1.37
-6.92 1.48 1.44
-7.15 1.62 1.41
-7.13 1.65 1.41
-1.67 -1.69 1.71
-1.27 -1.43 1.76
-2.74 -1.50 1.61
-3.99 -1.66 1.48
-2.01 -1.14 1.69
-2.13 -1.12 1.68
-2.34 -1.15 1.66
-4.50 -1.60 1.43
-4.36 -1.55 1.45
-2.19 -1.07 1.67
-4.75 -1.51 1.41
-2.25 -1.00 1.67
-4.48 -1.37 1.44
-4.58 -1.33 1.43
-4.34 -1.27 1.45
-4.49 -1.25 1.44
-4.21 -1.18 1.47
-4.95 -1.21 1.39
-4.59 -1.03 1.43
-4.19 -0.96 1.47
-3.98 -0.87 1.49
-4.50 -0.88 1.44
-3.97 -0.77 1.50
-4.05 -0.76 1.49
-3.52 -0.69 1.54
-3.70 -0.69 1.52
-4.14 -0.72 1.48
-3.92 -0.68 1.50
-4.10 -0.68 1.48
-4.18 -0.67 1.47
-9.80 -1.18 0.90
-3.82 -0.61 1.51
-3.87 -0.60 1.50
-10.04 -1.12 0.88
-9.97 -1.08 0.89
-6.86 -0.79 1.20
-7.01 -0.78 1.19
-6.94 -0.75 1.19
-6.80 -0.72 1.21
-4.48 -0.53 1.44
-7.00 -0.69 1.19
-7.34 -0.69 1.15
-7.21 -0.66 1.17
-7.24 -0.63 1.16
-6.77 -0.58 1.21
-7.16 -0.58 1.17
-6.98 -0.55 1.19
-7.61 -0.56 1.13
-7.36 -0.52 1.15
-6.96 -0.48 1.19
-7.68 -0.49 1.12
-8.34 -0.49 1.05
-8.19 -0.46 1.07
-5.43 -0.32 1.35
-8.73 -0.42 1.01
-9.86 -0.34 1.16
-9.66 -0.31 1.18
-9.80 -0.30 1.16
-9.61 -0.27 1.18
-9.66 -0.25 1.18
-9.66 -0.22 1.18
-9.42 -0.20 1.20
-9.62 -0.18 1.18
-9.21 -0.15 1.23
-9.40 -0.13 1.21
-9.42 -0.11 1.20
-9.45 -0.08 1.20
-9.38 -0.06 1.21
-9.34 -0.04 1.21
-8.96 -0.01 1.25
-8.02 0.04 1.01
-8.18 0.09 1.00
-7.99 0.12 1.02
-5.64 0.11 1.27
-7.92 0.19 1.02
-8.03 0.27 1.01
-8.27 0.80 1.26
-7.68 0.78 1.33
-7.86 0.81 1.30
-8.37 1.19 1.24
-0.64 -1.64 1.79
-0.50 -1.50 1.81
-1.14 -1.68 1.74
-1.13 -1.63 1.74
-1.13 -1.59 1.74
-1.15 -1.56 1.74
-1.36 -1.64 1.72
-1.08 -1.50 1.75
-1.07 -1.45 1.75
-1.04 -1.25 1.76
-9.90 -1.28 0.81
-9.73 -1.23 0.83
-9.86 -1.22 0.82
-7.21 -0.82 1.10
-7.19 -0.79 1.11
-7.02 -0.76 1.12
-7.13 -0.72 1.11
-7.21 -0.70 1.10
-7.48 -0.70 1.07
-7.10 -0.65 1.12
-8.31 -0.54 0.98
-8.23 -0.48 0.99
-8.09 -0.45 1.01
-9.07 -0.44 0.90
-8.76 -0.37 0.94
-9.01 -0.35 0.91
-9.04 -0.32 0.91
-8.90 -0.29 0.92
-8.57 -0.20 0.96
-8.31 -0.04 0.98
-6.33 0.00 1.44
-4.33 0.01 1.67
-6.33 0.04 1.44
-6.46 0.07 1.42
-6.31 0.08 1.44
-6.31 0.10 1.44
-8.73 0.15 1.16
-6.63 0.13 1.40
-6.76 0.15 1.39
-8.17 0.20 1.22
-8.40 0.25 1.19
-6.77 0.22 1.38
-9.17 0.33 1.10
-8.71 0.34 1.16
-8.41 0.35 1.19
-8.65 0.40 1.16
-8.11 0.39 1.23
-8.24 0.42 1.21
-7.29 0.39 1.32
-7.59 0.42 1.29
-7.05 0.41 1.35
-7.19 0.44 1.33
-7.22 0.46 1.33
-7.28 0.49 1.32
-7.48 0.53 1.30
-7.46 0.54 1.30
-7.30 0.55 1.32
-7.92 0.61 1.25
-7.52 0.60 1.29
-7.82 0.64 1.26
-7.17 0.63 1.33
-7.50 0.67 1.29
-7.81 0.72 1.26
-7.82 0.74 1.25
-7.98 0.77 1.23
-7.63 0.76 1.28
-8.10 0.82 1.22
-8.31 0.89 1.19
-7.87 0.86 1.25
-8.02 0.89 1.23
-7.74 0.88 1.26
-7.84 0.91 1.25
-7.71 0.92 1.26
-7.40 0.90 1.30
-7.41 0.94 1.30
-7.23 0.93 1.32
-7.23 0.95 1.32
-7.41 0.99 1.30
-7.61 1.04 1.27
-7.75 1.07 1.25
-7.84 1.11 1.24
-8.11 1.18 1.21
-8.29 1.23 1.19
-7.86 1.21 1.24
-8.20 1.28 1.20
-7.44 1.18 1.29
-7.36 1.18 1.30
-7.67 1.27 1.26
-7.29 1.23 1.30
-7.71 1.32 1.25
-7.18 1.25 1.32
-7.70 1.35 1.25
-7.87 1.40 1.23
-7.80 1.43 1.24
-7.45 1.39 1.28
-7.57 1.46 1.27
-7.61 1.49 1.26
-7.71 1.53 1.25
-7.73 1.55 1.25
-7.62 1.59 1.26
-7.20 1.52 1.31
-7.25 1.55 1.30
-6.82 1.48 1.35
-6.97 1.53 1.33
-6.98 1.55 1.33
-7.23 1.64 1.30
-1.61 -1.61 1.66
-1.87 -1.67 1.63
-1.22 -1.37 1.71
-4.21 -1.59 1.37
-4.21 -1.56 1.37
-4.06 -1.09 1.39
-4.09 -0.90 1.39
-3.68 -0.80 1.44
-3.49 -0.76 1.46
-3.47 -0.73 1.46
-3.58 -0.72 1.45
-3.65 -0.70 1.44
-3.86 -0.69 1.42
-3.52 -0.64 1.46
-4.02 -0.68 1.40
-3.66 -0.62 1.44
-9.62 -1.17 0.76
-9.87 -1.16 0.73
-9.56 -1.04 0.76
-3.98 -0.56 1.40
-7.18 -0.80 1.04
-4.64 -0.58 1.33
-7.06 -0.74 1.05
-7.22 -0.73 1.03
-9.23 -0.85 0.80
-7.32 -0.69 1.02
-9.41 -0.80 0.78
-9.25 -0.76 0.80
-5.50 -0.51 1.23
-6.90 -0.57 1.07
-10.74 -0.76 0.63
-9.10 -0.49 1.12
-9.50 -0.47 1.07
-8.69 -0.41 1.16
-9.12 -0.41 1.11
-9.21 -0.39 1.10
-9.49 -0.38 1.07
-9.27 -0.35 1.10
-9.42 -0.33 1.08
-9.87 -0.32 1.03
-9.50 -0.29 1.07
-9.63 -0.27 1.05
-9.43 -0.24 1.08
-9.44 -0.22 1.08
-9.05 -0.19 1.12
-9.17 -0.17 1.11
-9.32 -0.15 1.09
-9.00 -0.12 1.13
-9.06 -0.08 1.12
-9.07 -0.06 1.12
-9.11 -0.04 1.11
-6.36 -0.01 1.44
-1.40 0.00 1.67
-5.74 0.03 1.14
-6.39 0.04 1.39
-6.41 0.05 1.39
-6.54 0.07 1.37
-6.61 0.08 1.36
-6.32 0.10 1.40
-6.52 0.11 1.37
-6.47 0.13 1.38
-6.43 0.14 1.38
-8.63 0.23 1.11
-8.41 0.31 1.14
-8.34 0.32 1.15
-8.09 0.33 1.18
-7.92 0.35 1.20
-7.47 0.34 1.25
-6.84 0.33 1.33
-7.16 0.36 1.29
-7.03 0.37 1.31
-7.04 0.39 1.30
-7.60 0.44 1.24
-7.67 0.46 1.23
-7.75 0.49 1.22
-7.88 0.51 1.20
-8.04 0.54 1.18
-7.82 0.55 1.21
-7.91 0.57 1.20
-7.63 0.57 1.23
-7.45 0.58 1.25
-7.55 0.60 1.24
-7.17 0.59 1.29
-7.48 0.63 1.25
-7.58 0.66 1.23
-7.43 0.66 1.25
-8.02 0.74 1.18
-7.98 0.75 1.18
-7.98 0.77 1.18
-7.92 0.78 1.19
-8.55 0.87 1.11
-8.30 0.86 1.14
-8.34 0.89 1.14
-8.28 0.90 1.14
-8.02 0.89 1.18
-8.05 0.91 1.17
-8.08 0.94 1.17
-7.94 0.94 1.18
-8.03 0.97 1.17
-8.07 1.00 1.17
-8.02 1.01 1.17
-7.95 1.02 1.18
-8.07 1.05 1.17
-8.07 1.07 1.17
-8.16 1.11 1.15
-7.95 1.10 1.18
-7.95 1.12 1.18
-8.15 1.17 1.15
-8.16 1.19 1.15
-8.14 1.20 1.15
-8.07 1.21 1.16
-7.95 1.21 1.18
-8.08 1.25 1.16
-7.92 1.25 1.18
-8.12 1.30 1.15
-8.05 1.31 1.16
-7.86 1.30 1.19
-7.85 1.32 1.19
-7.41 1.26 1.24
-7.62 1.32 1.21
-7.25 1.29 1.26
-7.31 1.32 1.25
-7.20 1.32 1.26
-7.41 1.37 1.24
-7.30 1.39 1.25
-7.30 1.43 1.25
-7.65 1.51 1.20
-7.40 1.48 1.24
-7.61 1.54 1.21
-6.80 1.42 1.31
-7.14 1.51 1.27
-6.82 1.47 1.31
-7.44 1.62 1.23
-6.77 1.53 1.31
-6.94 1.66 1.28
-1.61 -1.68 1.63
-1.71 -1.68 1.62
-1.70 -1.66 1.62
-1.59 -1.59 1.63
-1.94 -1.69 1.59
-1.72 -1.58 1.62
-1.49 -1.49 1.65
-1.94 -1.55 1.59
-1.62 -1.43 1.63
-1.85 -1.47 1.61
-1.86 -1.16 1.61
-2.13 -0.96 1.58
-1.50 -0.81 1.66
-3.49 -0.83 1.42
-3.60 -0.83 1.40
-3.57 -0.81 1.41
-3.61 -0.80 1.40
-3.44 -0.76 1.42
-3.42 -0.75 1.43
-3.71 -0.77 1.39
-3.21 -0.69 1.45
-3.81 -0.75 1.38
-3.73 -0.72 1.39
-3.08 -0.64 1.47
-2.99 -0.61 1.48
-2.68 -0.57 1.52
-3.03 -0.59 1.47
-3.71 -0.64 1.39
-3.22 -0.57 1.45
-2.90 -0.51 1.49
-9.25 -1.04 0.72
-9.09 -1.00 0.74
-7.35 -0.83 0.95
-7.34 -0.81 0.95
-9.19 -0.93 0.73
-8.84 -0.87 0.77
-8.78 -0.84 0.78
-9.02 -0.83 0.75
-8.97 -0.80 0.75
-6.71 -0.62 1.03
-5.18 -0.50 1.21
-5.00 -0.47 1.24
-4.83 -0.44 1.26
-6.61 -0.53 1.04
-7.37 -0.54 0.95
-5.18 -0.41 1.21
-4.97 -0.38 1.24
-4.87 -0.36 1.25
-8.07 -0.48 0.86
-4.68 -0.31 1.27
-4.87 -0.30 1.25
-4.80 -0.28 1.26
-4.80 -0.26 1.26
-4.98 -0.25 1.24
-5.12 -0.24 1.22
-5.05 -0.21 1.23
-4.93 -0.19 1.24
-7.75 -0.24 0.90
-8.92 -0.24 0.76
-8.73 -0.20 0.78
-4.85 -0.12 1.25
-7.96 -0.14 0.88
-5.63 -0.09 1.16
-5.67 -0.07 1.15
-5.71 -0.05 1.15
-5.66 -0.03 1.15
-5.81 -0.01 1.13
-6.28 0.00 1.36
-6.39 0.04 1.34
-6.41 0.05 1.34
-6.45 0.08 1.33
-6.49 0.10 1.33
-6.49 0.11 1.33
-6.94 0.14 1.27
-6.59 0.16 1.31
-6.80 0.18 1.29
-6.71 0.20 1.30
-6.66 0.23 1.30
-6.69 0.24 1.30
-7.31 0.28 1.22
-7.45 0.33 1.20
-7.34 0.34 1.21
-6.92 0.34 1.27
-6.82 0.36 1.28
-6.87 0.38 1.28
-6.90 0.40 1.27
-7.18 0.45 1.23
-7.50 0.49 1.19
-7.51 0.51 1.19
-7.75 0.56 1.16
-7.76 0.58 1.16
-7.33 0.57 1.21
-7.61 0.63 1.17
-8.08 0.68 1.11
-7.69 0.67 1.16
-7.77 0.71 1.15
-8.05 0.76 1.11
-8.27 0.80 1.09
-8.35 0.85 1.07
-8.23 0.86 1.09
-5.80 0.62 1.41
-8.29 0.92 1.08
-8.31 0.94 1.08
-8.23 0.96 1.09
-7.59 0.92 1.17
-8.32 1.03 1.07
-7.98 1.02 1.12
-8.36 1.09 1.07
-8.20 1.09 1.09
-7.80 1.06 1.14
-7.83 1.10 1.14
-8.12 1.16 1.10
-7.89 1.15 1.13
-8.13 1.22 1.09
-7.88 1.21 1.13
-8.26 1.28 1.08
-8.27 1.33 1.07
-7.93 1.29 1.12
-7.86 1.30 1.13
-7.31 1.25 1.20
-7.49 1.30 1.17
-7.61 1.34 1.16
-7.30 1.32 1.20
-7.27 1.33 1.20
-7.46 1.39 1.17
-7.07 1.35 1.23
-7.31 1.41 1.19
-7.50 1.47 1.17
-6.88 1.38 1.25
-7.41 1.51 1.18
-7.02 1.45 1.23
-7.05 1.49 1.22
-6.75 1.44 1.26
-7.41 1.60 1.17
-7.41 1.64 1.17
-7.06 1.60 1.22
-6.90 1.62 1.24
-2.76 -1.61 1.45
-1.92 -1.18 1.57
-2.19 -1.20 1.53
-2.05 -1.10 1.55
-4.38 -1.61 1.25
-4.21 -1.55 1.27
-4.63 -1.61 1.22
-4.65 -1.56 1.21
-4.32 -1.42 1.26
-4.62 -1.37 1.22
-3.88 -1.16 1.32
-4.06 -1.06 1.30
-3.96 -1.02 1.31
-4.35 -1.07 1.26
-3.68 -0.94 1.35
-3.46 -0.89 1.38
-3.52 -0.88 1.37
-3.53 -0.87 1.37
-3.43 -0.84 1.38
-3.58 -0.84 1.36
-3.65 -0.84 1.35
-4.09 -0.88 1.29
-3.81 -0.83 1.33
-3.59 -0.78 1.36
-3.11 -0.71 1.42
-3.55 -0.75 1.36
-3.01 -0.67 1.43
-2.87 -0.64 1.45
-3.29 -0.67 1.40
-3.00 -0.63 1.44
-3.84 -0.70 1.33
-3.38 -0.64 1.39
-3.03 -0.59 1.43
-3.56 -0.63 1.36
-2.88 -0.55 1.45
-4.22 -0.66 1.28
-4.05 -0.63 1.30
-4.17 -0.62 1.29
-4.27 -0.62 1.27
-4.43 -0.61 1.25
-4.25 -0.58 1.27
-4.34 -0.57 1.26
-4.17 -0.54 1.29
-8.80 -0.87 0.69
-4.41 -0.52 1.25
-8.82 -0.82 0.69
-2.86 -0.39 1.45
-6.98 -0.64 0.92
-4.85 -0.48 1.20
-4.93 -0.47 1.19
-6.55 -0.55 0.98
-6.51 -0.52 0.98
-5.03 -0.42 1.17
-4.87 -0.39 1.19
-4.99 -0.38 1.18
-4.91 -0.36 1.19
-4.82 -0.34 1.20
-4.98 -0.32 1.18
-4.78 -0.30 1.21
-4.55 -0.27 1.23
-5.02 -0.27 1.18
-4.78 -0.24 1.21
-4.75 -0.22 1.21
-5.33 -0.22 1.14
-4.61 -0.19 1.23
-5.69 -0.19 1.09
-7.52 -0.21 0.85
-7.92 -0.19 0.80
-5.20 -0.12 1.15
-6.15 -0.08 1.38
-6.32 -0.07 1.35
-6.36 -0.04 1.35
-6.38 -0.03 1.35
-6.39 -0.01 1.34
-5.49 0.01 1.05
-7.99 0.04 0.72
-5.38 0.05 1.07
-5.38 0.07 1.07
-5.72 0.09 1.02
-7.71 0.16 0.75
-5.37 0.15 1.07
-7.40 0.21 0.79
-8.00 0.24 0.71
-5.49 0.21 1.05
-6.47 0.17 1.29
-6.51 0.19 1.28
-6.87 0.22 1.23
-8.10 0.28 1.06
-7.87 0.29 1.09
-7.91 0.31 1.08
-7.91 0.33 1.08
-7.09 0.31 1.20
-7.45 0.34 1.15
-7.26 0.35 1.17
-7.25 0.37 1.18
-7.09 0.38 1.20
-7.35 0.41 1.16
-7.25 0.42 1.17
-7.30 0.44 1.17
-7.46 0.47 1.15
-7.72 0.50 1.11
-7.29 0.49 1.17
-7.49 0.52 1.14
-7.65 0.55 1.12
-7.94 0.59 1.08
-7.95 0.61 1.07
-8.27 0.66 1.03
-7.86 0.64 1.09
-7.94 0.67 1.07
-8.07 0.70 1.06
-7.98 0.71 1.07
-8.07 0.74 1.06
-8.06 0.76 1.06
-8.38 0.81 1.01
-6.17 0.61 1.32
-5.88 0.60 1.36
-8.26 0.86 1.03
-8.30 0.88 1.02
-8.64 0.94 0.97
-8.73 0.97 0.96
-8.27 0.94 1.02
-8.23 0.95 1.03
-8.18 0.97 1.04
-6.52 0.79 1.27
-8.34 1.03 1.01
-8.34 1.05 1.01
-8.30 1.06 1.02
-8.41 1.10 1.00
-8.39 1.12 1.00
-7.88 1.09 1.07
-8.55 1.20 0.98
-7.81 1.12 1.08
-8.53 1.24 0.98
-7.71 1.14 1.09
-7.75 1.16 1.09
-8.46 1.29 0.99
-8.23 1.28 1.02
-8.28 1.31 1.01
-8.23 1.32 1.02
-8.25 1.34 1.02
-8.05 1.33 1.04
-8.16 1.37 1.03
-7.66 1.30 1.10
-7.50 1.29 1.12
-7.50 1.31 1.12
-7.13 1.27 1.17
-7.37 1.33 1.13
-7.50 1.37 1.12
-7.57 1.40 1.11
-7.36 1.38 1.13
-7.58 1.44 1.10
-7.43 1.43 1.12
-7.43 1.45 1.12
-7.73 1.53 1.08
-7.15 1.43 1.16
-7.27 1.47 1.14
-7.30 1.50 1.14
-7.45 1.55 1.12
-6.50 1.37 1.25
-7.40 1.58 1.12
-7.18 1.55 1.15
-7.29 1.59 1.14
-7.03 1.55 1.17
-6.84 1.53 1.20
-7.23 1.69 1.14
-7.05 1.66 1.17
-6.86 1.67 1.19
-1.49 -1.65 1.58
-1.38 -1.60 1.60
-1.30 -1.55 1.61
-1.10 -1.42 1.64
-1.35 -1.47 1.60
-1.84 -1.62 1.54
-1.20 -1.38 1.63
-1.17 -1.35 1.63
-2.05 -1.64 1.51
-1.32 -1.37 1.61
-2.30 -1.69 1.47
-3.13 -1.66 1.36
-1.11 -1.01 1.65
-4.33 -1.44 1.21
-3.59 -0.95 1.31
-3.44 -0.91 1.33
-3.46 -0.90 1.33
-3.71 -0.91 1.30
-3.56 -0.87 1.32
-3.53 -0.85 1.32
-3.58 -0.84 1.32
-3.51 -0.82 1.33
-3.98 -0.85 1.26
-3.65 -0.74 1.31
-4.32 -0.80 1.21
-3.95 -0.73 1.27
-3.98 -0.72 1.26
-3.38 -0.62 1.34
-9.52 -1.21 0.51
-2.61 -0.52 1.45
-2.97 -0.54 1.40
-2.82 -0.51 1.42
-2.63 -0.48 1.45
-4.33 -0.62 1.21
-4.06 -0.58 1.25
-4.46 -0.58 1.20
-7.29 -0.78 0.81
-7.13 -0.74 0.83
-6.88 -0.70 0.87
-6.56 -0.66 0.91
-6.67 -0.64 0.90
-4.71 -0.49 1.16
-5.50 -0.50 1.06
-5.12 -0.46 1.11
-4.87 -0.43 1.14
-4.95 -0.41 1.13
-6.43 -0.47 0.93
-7.40 -0.50 0.80
-4.84 -0.34 1.15
-4.98 -0.32 1.13
-4.67 -0.29 1.17
-4.75 -0.28 1.16
-4.53 -0.25 1.19
-4.63 -0.24 1.17
-5.66 -0.25 1.03
-5.45 -0.23 1.06
-4.75 -0.17 1.16
-5.00 -0.16 1.12
-5.20 -0.14 1.10
-7.71 -0.16 0.75
-8.03 -0.14 0.71
-7.75 -0.11 0.75
-5.38 -0.05 1.07
-5.09 -0.03 1.11
-5.35 -0.01 1.07
-9.02 0.01 0.86
-8.66 0.03 0.92
-8.74 0.07 0.90
-8.64 0.11 0.92
-8.30 0.14 0.97
-8.07 0.16 1.00
-8.56 0.19 0.93
-8.35 0.22 0.96
-8.26 0.26 0.97
-8.48 0.29 0.94
-8.09 0.31 1.00
-7.99 0.33 1.01
-7.86 0.36 1.03
-7.62 0.39 1.06
-6.96 0.39 1.16
-7.97 0.46 1.01
-7.76 0.47 1.04
-7.60 0.50 1.06
-7.91 0.56 1.02
-7.92 0.59 1.02
-7.82 0.60 1.03
-7.62 0.61 1.06
-7.92 0.67 1.01
-8.28 0.72 0.96
-8.23 0.74 0.97
-8.23 0.78 0.97
-8.27 0.80 0.96
-8.43 0.84 0.94
-8.59 0.89 0.91
-8.53 0.93 0.92
-8.19 0.93 0.97
-8.12 0.94 0.98
-8.07 0.96 0.99
-8.03 0.99 0.99
-9.07 1.21 0.83
-7.99 1.11 0.99
-8.10 1.16 0.98
-8.45 1.25 0.92
-8.08 1.24 0.98
-8.41 1.31 0.93
-8.25 1.30 0.95
-8.28 1.35 0.94
-8.18 1.37 0.96
-7.75 1.34 1.02
-7.75 1.36 1.02
-7.55 1.34 1.05
-7.40 1.36 1.07
-7.68 1.45 1.03
-7.43 1.44 1.06
-7.48 1.46 1.05
-7.18 1.43 1.10
-6.90 1.41 1.14
-7.08 1.46 1.11
-7.11 1.48 1.11
-7.31 1.56 1.08
-6.82 1.48 1.15
-6.78 1.49 1.15
-6.85 1.54 1.14
-6.83 1.55 1.14
-7.12 1.63 1.10
-7.23 1.69 1.08
-7.01 1.68 1.11
-1.40 -1.46 1.56
-2.09 -1.06 1.47
-1.95 -0.89 1.50
-4.57 -1.33 1.12
-4.00 -1.10 1.20
-4.04 -1.07 1.20
-3.89 -1.03 1.22
-3.84 -1.01 1.22
-3.68 -0.97 1.25
-3.84 -0.98 1.22
-3.49 -0.91 1.28
-3.64 -0.92 1.25
-3.65 -0.90 1.25
-3.55 -0.87 1.27
-3.36 -0.83 1.29
-3.32 -0.81 1.30
-3.43 -0.81 1.29
-3.61 -0.82 1.26
-3.70 -0.81 1.25
-3.91 -0.83 1.22
-2.89 -0.69 1.36
-2.85 -0.67 1.37
-2.84 -0.65 1.37
-2.81 -0.64 1.38
-2.76 -0.62 1.38
-2.88 -0.62 1.37
-2.95 -0.61 1.36
-3.92 -0.70 1.22
-4.12 -0.70 1.19
-4.21 -0.69 1.17
-3.88 -0.65 1.22
-4.38 -0.68 1.15
-4.41 -0.66 1.15
-4.35 -0.64 1.15
-2.99 -0.50 1.35
-4.30 -0.60 1.16
-2.73 -0.46 1.39
-4.29 -0.57 1.16
-4.43 -0.56 1.14
-4.75 -0.57 1.10
-6.76 -0.69 0.81
-2.36 -0.36 1.44
-4.66 -0.51 1.11
-4.84 -0.50 1.08
-5.13 -0.50 1.04
-4.84 -0.46 1.08
-6.36 -0.54 0.87
-5.00 -0.44 1.06
-4.83 -0.41 1.08
-4.86 -0.39 1.08
-4.74 -0.37 1.10
-4.63 -0.35 1.11
-8.27 -0.49 0.59
-4.53 -0.31 1.13
-4.58 -0.29 1.12
-4.36 -0.27 1.15
-4.51 -0.25 1.13
-9.13 -0.28 0.85
-8.94 -0.23 0.88
-5.81 -0.12 1.33
-5.82 -0.11 1.33
-8.80 -0.14 0.90
-8.91 -0.10 0.88
-9.48 -0.06 0.80
-8.52 -0.01 0.94
-8.00 0.01 0.55
-8.01 0.04 0.55
-7.68 0.09 0.60
-7.01 0.18 0.70
-8.16 0.33 0.52
-7.34 0.33 0.65
-7.57 0.48 0.61
-7.72 0.47 0.99
-1.23 -1.66 1.55
-0.98 -1.48 1.59
-1.06 -1.50 1.58
-1.22 -1.50 1.56
-1.25 -1.47 1.55
-0.97 -1.34 1.60
-1.15 -1.36 1.57
-1.25 -1.33 1.56
-1.17 -1.29 1.57
-7.57 -1.10 0.61
-9.15 -1.15 0.38
-9.26 -1.10 0.36
-9.02 -1.05 0.40
-8.41 -0.97 0.49
-7.29 -0.85 0.66
-9.32 -0.99 0.35
-8.77 -0.92 0.43
-6.79 -0.74 0.73
-8.92 -0.85 0.41
-9.17 -0.84 0.37
-8.85 -0.79 0.42
-8.38 -0.73 0.49
-8.39 -0.70 0.49
-8.78 -0.70 0.43
-8.92 -0.68 0.41
-8.80 -0.62 0.43
-4.26 -0.26 1.12
-8.04 -0.37 0.55
-7.96 -0.34 0.56
-7.75 -0.31 0.59
-7.95 -0.24 0.56
-5.36 -0.15 0.95
-7.66 -0.14 0.60
-7.99 -0.12 0.55
-8.38 -0.09 0.49
-4.71 -0.04 1.05
-8.09 -0.04 0.54
-6.02 0.00 1.21
-8.48 0.03 0.81
-8.15 0.04 0.86
-7.03 0.06 1.04
-8.12 0.08 0.87
-8.30 0.10 0.84
-7.95 0.12 0.89
-7.89 0.14 0.90
-8.06 0.16 0.88
-7.97 0.18 0.89
-9.99 0.24 0.56
-8.81 0.24 0.75
-8.72 0.26 0.77
-8.90 0.28 0.74
-8.12 0.28 0.86
-8.39 0.31 0.82
-8.53 0.33 0.80
-8.33 0.34 0.83
-8.84 0.39 0.75
-8.30 0.38 0.83
-8.54 0.41 0.79
-8.75 0.45 0.76
-8.38 0.45 0.82
-7.71 0.43 0.93
-7.30 0.43 0.99
-8.52 0.52 0.80
-7.95 0.50 0.89
-8.21 0.54 0.84
-8.02 0.54 0.87
-8.35 0.59 0.82
-8.37 0.61 0.82
-8.14 0.61 0.85
-7.76 0.60 0.92
-8.21 0.66 0.84
-8.21 0.68 0.84
-7.68 0.65 0.93
-7.87 0.69 0.90
-8.16 0.75 0.85
-8.39 0.79 0.81
-8.20 0.79 0.84
-8.76 0.87 0.75
-8.05 0.82 0.86
-4.94 0.52 1.37
-4.92 0.53 1.37
-4.69 0.52 1.41
-4.93 0.55 1.37
-4.79 0.55 1.39
-4.67 0.55 1.41
-7.72 0.92 0.91
-7.57 0.92 0.94
-7.99 0.99 0.87
-6.87 0.87 1.05
-7.38 0.95 0.97
-8.20 1.08 0.83
-8.12 1.08 0.85
-7.66 1.04 0.92
-7.08 0.98 1.01
-7.34 1.04 0.97
-7.45 1.07 0.95
-6.83 1.00 1.05
-7.71 1.14 0.91
-7.50 1.13 0.94
-7.65 1.17 0.92
-7.78 1.25 0.89
-6.79 1.11 1.06
-7.79 1.29 0.89
-7.54 1.27 0.93
-7.45 1.27 0.95
-7.90 1.37 0.87
-7.76 1.37 0.89
-7.91 1.41 0.87
-7.55 1.37 0.93
-6.43 1.23 1.11
-7.22 1.53 0.97
-7.49 1.62 0.92
-6.76 1.54 1.04
-6.65 1.55 1.06
-7.05 1.69 0.99
-6.96 1.69 1.00
-6.45 1.60 1.09
-1.16 -1.67 1.52
-1.46 -1.69 1.48
-1.48 -1.68 1.47
-1.53 -1.62 1.47
-1.46 -1.57 1.48
-3.63 -1.01 1.15
-3.70 -1.00 1.14
-3.77 -1.00 1.13
-3.54 -0.95 1.17
-3.46 -0.91 1.18
-3.17 -0.82 1.23
-3.37 -0.83 1.20
-3.45 -0.83 1.18
-3.47 -0.82 1.18
-3.71 -0.79 1.14
-3.78 -0.78 1.13
-7.73 -1.22 0.50
-7.54 -1.17 0.53
-2.98 -0.64 1.26
-7.66 -1.11 0.51
-7.63 -1.06 0.52
-7.61 -1.03 0.52
-7.16 -0.96 0.59
-7.82 -1.00 0.49
-2.53 -0.49 1.33
-7.05 -0.81 0.61
-6.72 -0.76 0.66
-6.82 -0.75 0.65
-8.38 -0.81 0.40
-8.36 -0.76 0.40
-5.11 -0.50 0.92
-8.39 -0.68 0.40
-5.61 -0.49 0.84
-6.70 -0.53 0.67
-9.62 -0.52 0.63
-9.45 -0.49 0.66
-9.66 -0.48 0.62
-9.67 -0.45 0.62
-9.89 -0.44 0.58
-10.39 -0.44 0.50
-9.59 -0.38 0.63
-9.61 -0.36 0.63
-9.67 -0.34 0.62
-9.69 -0.32 0.62
-8.83 -0.27 0.76
-8.88 -0.25 0.75
-8.84 -0.23 0.75
-8.79 -0.20 0.76
-5.55 -0.12 1.28
-5.80 -0.11 1.24
-5.65 -0.09 1.27
-5.70 -0.08 1.26
-5.82 -0.07 1.24
-5.76 -0.05 1.25
-8.95 -0.06 0.73
-6.26 -0.03 1.17
-8.60 -0.02 0.79
-7.29 0.01 0.50
-6.46 0.03 0.63
-6.87 0.06 0.56
-6.60 0.05 1.06
-6.05 0.06 1.16
-6.57 0.08 1.07
-6.42 0.10 1.09
-8.27 0.14 0.78
-8.40 0.17 0.76
-8.33 0.18 0.77
-8.12 0.20 0.80
-8.06 0.22 0.81
-7.99 0.23 0.83
-8.05 0.25 0.81
-8.01 0.27 0.82
-8.05 0.29 0.81
-8.25 0.32 0.78
-7.88 0.32 0.84
-8.34 0.36 0.76
-8.14 0.37 0.80
-7.86 0.38 0.84
-8.28 0.42 0.77
-8.49 0.45 0.74
-8.52 0.47 0.73
-8.59 0.50 0.72
-8.88 0.54 0.67
-8.79 0.55 0.68
-8.86 0.58 0.67
-8.59 0.58 0.72
-8.52 0.60 0.73
-8.49 0.61 0.73
-8.49 0.63 0.73
-8.02 0.62 0.81
-7.95 0.63 0.82
-8.51 0.70 0.73
-8.10 0.68 0.80
-8.22 0.71 0.78
-8.52 0.76 0.72
-8.77 0.80 0.68
-6.55 0.62 1.06
-8.13 0.78 0.79
-8.06 0.80 0.80
-6.41 0.65 1.08
-8.33 0.86 0.75
-4.98 0.53 1.32
-4.89 0.53 1.34
-5.01 0.56 1.32
-4.76 0.54 1.36
-4.61 0.54 1.39
-4.89 0.58 1.34
-4.87 0.59 1.34
-5.12 0.63 1.30
-6.54 0.82 1.05
-7.21 0.93 0.94
-7.40 0.97 0.91
-7.15 0.95 0.95
-6.91 0.94 0.99
-6.70 0.93 1.03
-7.86 1.10 0.83
-6.85 0.98 1.00
-7.40 1.08 0.90
-7.95 1.20 0.81
-7.87 1.20 0.82
-7.33 1.14 0.91
-7.23 1.14 0.93
-4.64 0.75 1.37
-7.84 1.28 0.82
-7.36 1.22 0.90
-6.85 1.15 0.99
-7.05 1.20 0.96
-7.15 1.24 0.94
-7.16 1.26 0.94
-4.11 0.74 1.46
-7.45 1.34 0.88
-7.51 1.37 0.87
-7.57 1.40 0.86
-7.58 1.42 0.86
-7.53 1.43 0.87
-7.97 1.54 0.79
-7.50 1.46 0.87
-4.14 0.83 1.45
-7.75 1.55 0.83
-7.59 1.58 0.85
-6.29 1.34 1.08
-7.45 1.61 0.87
-6.82 1.49 0.98
-7.40 1.65 0.88
-7.12 1.61 0.93
-7.34 1.68 0.89
-6.26 1.45 1.08
-6.65 1.56 1.01
-6.96 1.64 0.95
-6.87 1.64 0.97
-6.83 1.67 0.97
-6.48 1.63 1.03
-6.45 1.64 1.03
-1.20 -1.49 1.49
-1.44 -1.57 1.45
-1.49 -1.58 1.44
-1.79 -1.68 1.39
-1.79 -1.67 1.39
-1.91 -1.69 1.37
-1.37 -1.48 1.47
-1.88 -1.63 1.38
-1.45 -1.47 1.45
-1.36 -1.41 1.47
-1.80 -1.53 1.39
-2.12 -1.63 1.34
-1.90 -1.52 1.38
-2.32 -1.65 1.30
-2.91 -1.65 1.21
-2.60 -1.55 1.26
-3.10 -1.67 1.18
-3.25 -1.68 1.15
-2.97 -1.57 1.20
-2.38 -1.26 1.31
-3.95 -1.04 1.05
-3.65 -0.98 1.10
-3.73 -0.97 1.09
-3.55 -0.93 1.12
-4.23 -1.01 1.00
-4.51 -1.04 0.96
-3.46 -0.87 1.13
-3.49 -0.86 1.13
-3.52 -0.85 1.12
-3.55 -0.84 1.12
-3.51 -0.82 1.13
-3.56 -0.81 1.12
-3.86 -0.83 1.07
-3.84 -0.81 1.07
-4.13 -0.83 1.02
-4.12 -0.82 1.03
-3.83 -0.77 1.07
-2.65 -0.62 1.27
-4.18 -0.77 1.02
-3.96 -0.73 1.05
-2.64 -0.58 1.27
-2.52 -0.55 1.29
-2.49 -0.54 1.30
-2.53 -0.53 1.29
-2.30 -0.49 1.33
-3.08 -0.55 1.20
-3.79 -0.60 1.08
-2.53 -0.48 1.29
-2.49 -0.46 1.30
-2.22 -0.42 1.34
-7.07 -0.81 0.53
-6.93 -0.78 0.56
-7.71 -0.81 0.43
-2.69 -0.41 1.26
-5.16 -0.58 0.85
-5.61 -0.59 0.78
-4.86 -0.52 0.90
-5.10 -0.52 0.86
-4.95 -0.49 0.89
-7.48 -0.62 0.47
-6.41 -0.54 0.64
-2.71 -0.31 1.26
-2.30 -0.27 1.33
-5.55 -0.43 0.79
-6.11 -0.43 0.69
-6.63 -0.44 0.61
-6.91 -0.43 0.56
-6.67 -0.39 0.60
-6.90 -0.38 0.56
-6.56 -0.35 0.62
-6.63 -0.33 0.61
-5.37 -0.26 0.82
-8.06 -0.32 0.37
-5.30 -0.22 0.83
-5.18 -0.20 0.85
-5.32 -0.18 0.82
-5.87 -0.18 0.73
-5.32 -0.15 0.82
-6.88 -0.15 0.56
-7.45 -0.13 0.47
-7.32 -0.11 0.49
-7.23 -0.08 0.51
-7.06 -0.06 0.53
-7.28 -0.04 0.50
-7.14 -0.01 0.52
-6.23 0.00 1.07
-6.16 0.02 1.08
-6.30 0.03 1.06
-6.47 0.05 1.03
-7.84 0.08 0.79
-7.71 0.10 0.81
-7.78 0.12 0.80
-7.93 0.14 0.77
-7.96 0.16 0.76
-7.84 0.17 0.78
-8.05 0.20 0.75
-8.03 0.22 0.75
-7.91 0.23 0.77
-8.11 0.26 0.74
-8.23 0.28 0.71
-8.34 0.30 0.69
-8.24 0.32 0.71
-8.10 0.33 0.74
-8.10 0.35 0.74
-7.95 0.37 0.76
-7.06 0.34 0.92
-7.38 0.38 0.86
-7.82 0.42 0.78
-8.39 0.47 0.68
-8.51 0.49 0.66
-8.53 0.52 0.66
-8.54 0.54 0.65
-8.43 0.55 0.67
-8.45 0.57 0.67
-8.49 0.59 0.66
-8.38 0.61 0.68
-8.53 0.64 0.65
-8.52 0.66 0.66
-8.55 0.68 0.65
-8.48 0.70 0.66
-8.19 0.69 0.71
-8.33 0.72 0.69
-8.23 0.74 0.70
-7.98 0.73 0.75
-8.45 0.79 0.66
-8.45 0.82 0.66
-7.91 0.78 0.76
-8.30 0.84 0.69
-7.09 0.74 0.91
-7.00 0.75 0.92
-7.17 0.78 0.89
-8.06 0.90 0.73
-8.06 0.92 0.73
-6.95 0.81 0.93
-7.03 0.83 0.91
-6.88 0.83 0.94
-7.37 0.91 0.85
-7.24 0.91 0.87
-7.31 0.94 0.86
-7.38 0.97 0.85
-7.40 0.99 0.84
-7.50 1.02 0.82
-7.48 1.03 0.83
-8.00 1.12 0.73
-7.61 1.09 0.80
-7.68 1.12 0.79
-8.01 1.19 0.73
-7.75 1.17 0.77
-6.83 1.05 0.94
-7.00 1.09 0.91
-6.82 1.08 0.94
-7.45 1.20 0.83
-7.11 1.16 0.89
-6.93 1.15 0.92
-7.09 1.19 0.89
-6.94 1.19 0.91
-7.15 1.24 0.88
-7.09 1.25 0.89
-7.06 1.26 0.89
-7.29 1.32 0.85
-7.20 1.32 0.86
-7.18 1.33 0.87
-7.45 1.40 0.82
-7.11 1.36 0.88
-7.26 1.40 0.85
-7.42 1.45 0.82
-7.15 1.42 0.87
-7.21 1.45 0.86
-7.37 1.50 0.83
-7.26 1.49 0.85
-7.12 1.48 0.87
-7.37 1.55 0.82
-7.32 1.56 0.83
-7.62 1.64 0.78
-7.36 1.61 0.82
-7.40 1.65 0.81
-7.21 1.63 0.85
-6.74 1.54 0.93
-6.93 1.62 0.90
-6.60 1.65 0.95
-2.92 -1.60 1.16
-3.22 -1.67 1.10
-3.24 -1.62 1.10
-3.50 -1.59 1.06
-2.37 -1.27 1.26
-3.26 -1.46 1.10
-4.18 -1.53 0.94
-4.29 -1.54 0.92
-4.08 -1.24 0.97
-4.02 -1.18 0.98
-4.31 -1.20 0.93
-3.93 -1.12 1.00
-4.40 -1.18 0.91
-3.72 -1.04 1.03
-4.04 -1.07 0.98
-3.44 -0.96 1.08
-4.57 -1.12 0.88
-3.36 -0.92 1.10
-1.59 -0.64 1.41
-3.85 -0.96 1.01
-3.70 -0.92 1.04
-3.74 -0.91 1.03
-3.54 -0.87 1.07
-3.65 -0.87 1.05
-3.71 -0.86 1.04
-3.59 -0.83 1.06
-3.61 -0.82 1.05
-3.66 -0.81 1.05
-3.80 -0.81 1.02
-4.16 -0.84 0.96
-4.09 -0.81 0.97
-3.98 -0.78 0.99
-3.99 -0.77 0.99
-4.05 -0.76 0.98
-3.90 -0.73 1.00
-4.02 -0.72 0.98
-4.07 -0.71 0.98
-4.01 -0.69 0.99
-4.05 -0.68 0.98
-2.62 -0.52 1.23
-4.14 -0.65 0.96
-4.20 -0.64 0.95
-6.81 -0.86 0.49
-6.64 -0.82 0.52
-6.73 -0.81 0.51
-6.86 -0.79 0.49
-6.87 -0.77 0.49
-7.25 -0.78 0.42
-6.21 -0.68 0.60
-4.40 -0.52 0.92
-5.16 -0.56 0.78
-5.49 -0.56 0.73
-5.13 -0.52 0.79
-5.23 -0.51 0.77
-5.20 -0.49 0.78
-6.54 -0.55 0.54
-7.06 -0.55 0.45
-7.26 -0.52 0.42
-5.74 -0.42 0.68
-5.94 -0.41 0.65
-5.99 -0.39 0.64
-5.74 -0.36 0.68
-5.41 -0.32 0.74
-5.71 -0.31 0.69
-4.50 -0.25 0.90
-5.30 -0.26 0.76
-5.78 -0.26 0.68
-6.57 -0.26 0.54
-6.70 -0.24 0.52
-7.07 -0.22 0.45
-6.65 -0.19 0.52
-6.86 -0.17 0.49
-6.84 -0.15 0.49
-8.61 -0.12 0.65
-8.64 -0.10 0.65
-8.57 -0.08 0.66
-8.46 -0.06 0.68
-8.52 -0.04 0.67
-7.86 -0.01 0.78
-4.53 0.06 0.83
-5.04 0.10 0.74
-7.18 0.15 0.34
-6.12 0.20 0.53
-5.32 0.20 0.68
-6.40 0.25 0.48
-6.15 0.18 1.03
-8.17 0.26 0.65
-8.07 0.27 0.67
-8.46 0.31 0.60
-8.51 0.33 0.59
-6.41 0.26 0.98
-8.54 0.37 0.58
-8.16 0.37 0.66
-7.50 0.36 0.78
-7.40 0.38 0.79
-7.81 0.41 0.72
-8.30 0.46 0.63
-8.41 0.49 0.60
-8.31 0.50 0.62
-8.33 0.52 0.62
-8.45 0.55 0.60
-8.22 0.55 0.64
-8.16 0.57 0.65
-8.48 0.61 0.59
-8.63 0.64 0.56
-8.55 0.66 0.58
-8.62 0.68 0.56
-6.40 0.52 0.98
-8.30 0.70 0.62
-8.12 0.70 0.66
-8.23 0.73 0.63
-8.53 0.78 0.58
-8.86 0.83 0.51
-8.24 0.79 0.63
-8.42 0.83 0.59
-8.27 0.84 0.62
-8.61 0.89 0.56
-8.91 0.94 0.50
-4.71 0.51 1.29
-4.68 0.52 1.29
-4.68 0.53 1.29
-4.88 0.57 1.26
-4.73 0.56 1.28
-4.69 0.57 1.29
-4.61 0.57 1.31
-6.59 0.83 0.93
-7.11 0.91 0.83
-4.82 0.63 1.26
-4.84 0.65 1.26
-4.83 0.66 1.26
-5.04 0.70 1.22
-7.64 1.07 0.73
-7.91 1.13 0.68
-7.73 1.12 0.71
-7.57 1.12 0.74
-7.86 1.18 0.69
-8.12 1.24 0.64
-7.42 1.15 0.77
-7.75 1.22 0.71
-7.34 1.18 0.78
-7.26 1.18 0.80
-7.48 1.23 0.75
-7.64 1.28 0.72
-7.68 1.31 0.71
-7.00 1.21 0.84
-7.09 1.24 0.83
-7.49 1.33 0.75
-7.23 1.30 0.80
-7.59 1.38 0.73
-7.27 1.35 0.79
-7.62 1.43 0.72
-7.63 1.45 0.72
-7.04 1.38 0.83
-7.63 1.51 0.71
-7.48 1.50 0.74
-7.10 1.44 0.81
-7.24 1.49 0.79
-7.07 1.49 0.82
-4.06 0.92 1.39
-6.57 1.54 0.90
-7.14 1.68 0.79
-0.95 -1.61 1.46
-1.39 -1.68 1.38
-1.40 -1.67 1.38
-1.34 -1.64 1.39
-1.64 -1.67 1.34
-1.36 -1.55 1.39
-1.30 -1.52 1.40
-1.72 -1.65 1.32
-1.72 -1.63 1.33
-1.26 -1.45 1.41
-1.78 -1.58 1.32
-1.27 -1.39 1.42
-1.42 -1.43 1.39
-1.51 -1.45 1.37
-1.98 -1.60 1.28
-1.68 -1.44 1.34
-2.21 -1.46 1.24
-2.29 -1.46 1.23
-2.40 -1.46 1.21
-2.84 -1.56 1.12
-1.87 -1.19 1.31
-3.41 -0.92 1.04
-3.19 -0.85 1.08
-3.60 -0.89 1.00
-3.12 -0.81 1.09
-3.57 -0.84 1.01
-3.57 -0.83 1.01
-3.54 -0.81 1.01
-3.81 -0.83 0.96
-3.66 -0.79 0.99
-3.62 -0.77 1.00
-3.84 -0.78 0.96
-3.61 -0.72 1.00
-3.14 -0.66 1.09
-3.04 -0.63 1.11
-3.76 -0.69 0.97
-4.10 -0.71 0.91
-2.88 -0.57 1.14
-2.50 -0.52 1.21
-2.18 -0.47 1.27
-6.38 -0.84 0.49
-2.36 -0.46 1.23
-2.44 -0.45 1.22
-2.30 -0.43 1.24
-6.38 -0.75 0.49
-5.78 -0.68 0.60
-2.60 -0.41 1.19
-5.91 -0.63 0.58
-6.16 -0.63 0.53
-5.91 -0.55 0.58
-7.10 -0.55 0.36
-7.11 -0.53 0.36
-5.56 -0.41 0.64
-4.52 -0.32 0.83
-4.57 -0.31 0.83
-5.12 -0.31 0.72
-5.45 -0.27 0.66
-5.18 -0.24 0.71
-5.12 -0.22 0.72
-7.07 -0.25 0.37
-4.39 -0.11 0.86
-7.11 -0.11 0.36
-7.14 -0.01 0.35
-5.96 0.00 1.02
-5.99 0.02 1.01
-6.18 0.03 0.97
-7.75 0.06 0.67
-6.33 0.06 0.94
-7.71 0.10 0.67
-6.31 0.09 0.95
-7.67 0.13 0.68
-7.74 0.15 0.67
-6.23 0.14 0.96
-6.00 0.15 1.00
-6.02 0.16 1.00
-6.00 0.18 1.00
-6.10 0.19 0.98
-6.09 0.21 0.99
-6.43 0.23 0.92
-8.48 0.33 0.52
-8.61 0.35 0.49
-8.33 0.36 0.55
-8.53 0.39 0.51
-8.49 0.41 0.52
-8.37 0.43 0.54
-7.76 0.41 0.66
-7.98 0.44 0.61
-7.75 0.45 0.66
-7.87 0.48 0.63
-7.94 0.50 0.62
-7.98 0.52 0.61
-8.13 0.55 0.58
-8.37 0.59 0.54
-8.25 0.60 0.56
-8.38 0.63 0.53
-8.27 0.64 0.55
-8.41 0.67 0.52
-8.51 0.70 0.50
-8.34 0.71 0.54
-8.80 0.77 0.45
-9.08 0.81 0.39
-5.84 0.54 1.03
-7.16 0.68 0.77
-6.94 0.67 0.81
-7.63 0.78 0.67
-7.60 0.79 0.68
-7.51 0.80 0.70
-7.40 0.81 0.72
-4.66 0.52 1.25
-8.65 0.98 0.47
-7.00 0.82 0.79
-7.61 0.90 0.67
-8.30 1.00 0.54
-8.34 1.03 0.53
-7.49 0.94 0.69
-7.46 0.96 0.70
-8.31 1.09 0.53
-7.29 0.97 0.73
-7.42 1.01 0.71
-4.90 0.68 1.20
-7.45 1.05 0.70
-7.34 1.05 0.72
-7.67 1.12 0.65
-7.95 1.18 0.60
-7.90 1.19 0.61
-7.66 1.17 0.65
-7.67 1.19 0.65
-7.56 1.20 0.67
-7.62 1.22 0.66
-7.70 1.26 0.64
-7.73 1.28 0.64
-7.86 1.32 0.61
-7.75 1.32 0.63
-7.39 1.28 0.70
-7.58 1.33 0.66
-7.49 1.33 0.68
-7.61 1.38 0.65
-7.55 1.38 0.66
-7.45 1.38 0.68
-7.53 1.42 0.67
-7.87 1.50 0.60
-7.66 1.48 0.64
-7.45 1.46 0.68
-7.93 1.57 0.58
-7.52 1.51 0.66
-7.56 1.54 0.65
-7.61 1.57 0.64
-7.65 1.59 0.64
-7.52 1.59 0.66
-7.82 1.67 0.60
-7.63 1.65 0.64
-7.74 1.69 0.61
-7.26 1.61 0.71
-7.25 1.62 0.71
-7.47 1.69 0.66
-7.08 1.64 0.74
-6.90 1.65 0.77
-7.00 1.69 0.75
-6.88 1.69 0.77
-1.85 -1.55 1.26
-1.76 -1.43 1.28
-2.73 -1.58 1.09
-2.87 -1.60 1.07
-3.17 -1.62 1.01
-3.07 -1.55 1.03
-3.21 -1.57 1.00
-3.09 -1.51 1.03
-4.17 -1.36 0.83
-4.33 -1.37 0.79
-4.35 -1.36 0.79
-4.40 -1.35 0.78
-4.52 -1.36 0.76
-4.30 -1.30 0.80
-4.54 -1.33 0.76
-4.60 -1.32 0.74
-4.68 -1.28 0.73
-5.06 -1.33 0.66
-4.92 -1.28 0.68
-5.02 -1.28 0.66
-4.84 -1.23 0.70
-3.49 -1.00 0.96
-3.81 -1.04 0.90
-5.42 -1.27 0.59
-4.57 -1.12 0.75
-3.89 -1.00 0.89
-3.87 -0.98 0.89
-4.03 -0.99 0.86
-3.85 -0.95 0.89
-3.94 -0.94 0.88
-4.91 -1.06 0.69
-3.98 -0.90 0.87
-3.65 -0.84 0.93
-3.76 -0.84 0.91
-3.92 -0.84 0.88
-3.77 -0.81 0.91
-3.82 -0.80 0.90
-5.72 -1.01 0.53
-3.77 -0.76 0.91
-3.48 -0.71 0.97
-3.60 -0.71 0.94
-3.77 -0.71 0.91
-3.63 -0.68 0.94
-4.09 -0.72 0.85
-3.88 -0.68 0.89
-5.78 -0.85 0.52
-5.97 -0.85 0.49
-5.57 -0.79 0.57
-5.05 -0.72 0.66
-5.23 -0.72 0.63
-5.29 -0.71 0.62
-5.88 -0.73 0.51
-5.59 -0.69 0.56
-5.83 -0.69 0.52
-5.77 -0.66 0.53
-5.57 -0.63 0.57
-5.55 -0.61 0.57
-5.77 -0.60 0.53
-5.65 -0.57 0.55
-5.47 -0.54 0.58
-5.58 -0.53 0.56
-6.32 -0.56 0.42
-5.48 -0.48 0.58
-4.47 -0.41 0.78
-5.89 -0.47 0.50
-5.30 -0.42 0.62
-5.62 -0.41 0.56
-5.36 -0.38 0.60
-5.34 -0.36 0.61
-5.35 -0.34 0.61
-4.64 -0.29 0.74
-4.51 -0.27 0.77
-8.58 -0.30 0.51
-8.58 -0.28 0.51
-8.57 -0.26 0.51
-8.70 -0.24 0.48
-8.56 -0.22 0.51
-5.81 -0.13 1.05
-5.82 -0.12 1.04
-6.51 -0.12 0.91
-5.77 -0.09 1.05
-6.55 -0.09 0.90
-8.50 -0.10 0.52
-8.55 -0.08 0.51
-8.43 -0.06 0.53
-8.34 -0.03 0.55
-8.30 -0.01 0.56
-4.66 0.10 0.68
-4.29 0.13 0.75
-1.88 0.22 1.23
-4.08 0.20 1.35
-6.36 0.34 0.88
-6.82 0.41 0.79
-8.50 0.61 0.44
-8.66 0.69 0.41
-8.76 0.72 0.39
-8.97 0.75 0.34
-4.77 0.51 1.20
-4.43 0.49 1.27
-4.58 0.52 1.23
-4.59 0.53 1.23
-4.62 0.55 1.23
-4.71 0.58 1.21
-4.70 0.59 1.21
-4.79 0.62 1.19
-8.73 1.14 0.38
-4.72 0.63 1.20
-5.02 0.68 1.14
-3.54 0.80 1.43
-0.30 -1.47 1.53
-0.08 -1.35 1.58
-3.75 -0.90 0.86
-3.59 -0.86 0.90
-3.18 -0.75 0.98
-3.37 -0.75 0.94
-2.99 -0.69 1.02
-2.99 -0.68 1.02
-3.16 -0.69 0.98
-3.03 -0.63 1.01
-2.52 -0.54 1.11
-5.63 -0.69 0.49
-5.70 -0.68 0.47
-5.49 -0.62 0.52
-5.35 -0.59 0.54
-5.57 -0.59 0.50
-5.52 -0.56 0.51
-6.09 -0.56 0.39
-5.53 -0.43 0.51
-5.36 -0.40 0.54
-5.39 -0.38 0.54
-4.56 -0.29 0.70
-4.30 -0.25 0.75
-5.05 -0.23 0.60
-5.16 -0.20 0.58
-5.95 -0.20 0.42
-5.24 -0.03 0.56
-5.91 0.00 0.92
-5.69 0.03 0.96
-5.74 0.04 0.95
-6.40 0.07 0.81
-6.10 0.09 0.87
-7.99 0.14 0.47
-7.98 0.16 0.47
-7.51 0.18 0.57
-8.02 0.23 0.46
-8.29 0.28 0.41
-8.25 0.38 0.41
-7.59 0.37 0.55
-8.08 0.43 0.45
-6.74 0.38 0.73
-8.31 0.52 0.39
-8.33 0.56 0.39
-8.48 0.61 0.36
-6.50 0.57 0.78
-6.79 0.63 0.71
-7.08 0.82 0.65
-6.62 0.89 0.74
-6.46 0.88 0.77
-6.97 0.98 0.66
-7.11 1.02 0.63
-6.93 1.05 0.67
-7.50 1.17 0.54
-7.50 1.21 0.54
-7.65 1.25 0.51
-7.61 1.26 0.52
-7.43 1.27 0.55
-7.46 1.31 0.54
-7.54 1.36 0.52
-7.55 1.38 0.52
-7.49 1.39 0.53
-7.36 1.41 0.56
-7.31 1.42 0.57
-6.88 1.35 0.66
-6.53 1.32 0.74
-7.17 1.46 0.60
-7.22 1.49 0.58
-7.01 1.48 0.63
-7.02 1.50 0.63
-7.50 1.62 0.52
-7.31 1.62 0.56
-7.11 1.60 0.60
-7.29 1.69 0.56
-3.06 -1.52 0.92
-2.96 -1.44 0.94
-3.12 -1.46 0.91
-1.98 -1.15 1.16
-1.44 -1.01 1.28
-2.94 -1.32 0.95
-2.91 -1.30 0.96
-4.19 -1.47 0.69
-4.07 -1.43 0.71
-4.17 -1.43 0.69
-4.02 -1.38 0.73
-4.20 -1.40 0.69
-4.13 -1.37 0.70
-4.23 -1.37 0.68
-4.05 -1.32 0.72
-4.25 -1.34 0.68
-4.38 -1.35 0.65
-4.70 -1.36 0.58
-4.37 -1.26 0.66
-4.68 -1.30 0.59
-4.72 -1.29 0.58
-4.70 -1.27 0.59
-4.05 -1.14 0.73
-4.04 -1.12 0.73
-4.17 -1.13 0.70
-3.89 -1.07 0.76
-4.15 -1.09 0.71
-4.55 -1.13 0.62
-4.28 -1.08 0.68
-4.20 -1.05 0.69
-5.18 -1.17 0.49
-5.38 -1.18 0.45
-5.20 -1.14 0.48
-5.16 -1.11 0.49
-5.16 -1.10 0.49
-5.39 -1.11 0.45
-5.36 -1.08 0.45
-5.49 -1.08 0.42
-5.43 -1.05 0.44
-3.80 -0.83 0.78
-5.37 -1.00 0.45
-3.60 -0.77 0.83
-5.36 -0.97 0.45
-3.70 -0.75 0.80
-2.91 -0.65 0.97
-3.43 -0.69 0.86
-3.70 -0.71 0.81
-3.49 -0.67 0.85
-3.80 -0.66 0.78
-5.55 -0.81 0.42
-5.36 -0.77 0.46
-5.39 -0.75 0.45
-5.25 -0.72 0.48
-5.78 -0.75 0.37
-5.77 -0.73 0.37
-5.62 -0.69 0.40
-5.80 -0.69 0.36
-5.33 -0.63 0.46
-2.58 -0.41 1.04
-5.17 -0.58 0.50
-5.16 -0.56 0.50
-5.21 -0.55 0.49
-5.25 -0.53 0.48
-5.25 -0.51 0.48
-5.05 -0.48 0.52
-5.13 -0.47 0.50
-5.08 -0.44 0.52
-7.89 -0.33 0.50
-7.80 -0.31 0.52
-7.01 -0.26 0.68
-7.15 -0.23 0.65
-7.90 -0.22 0.49
-7.78 -0.18 0.52
-5.71 -0.12 0.96
-6.09 -0.11 0.88
-6.30 -0.09 0.83
-6.30 -0.07 0.83
-5.70 -0.05 0.96
-7.53 -0.01 0.57
-4.42 0.01 0.59
-4.55 0.03 0.56
-4.94 0.05 0.47
-5.45 0.04 0.97
-5.60 0.06 0.93
-5.64 0.07 0.92
-5.98 0.09 0.85
-6.27 0.11 0.78
-5.99 0.12 0.84
-5.92 0.13 0.86
-6.14 0.15 0.81
-5.95 0.16 0.85
-5.87 0.17 0.87
-6.35 0.20 0.76
-6.16 0.21 0.80
-6.20 0.23 0.80
-7.92 0.31 0.41
-7.95 0.33 0.40
-4.31 0.19 1.21
-8.02 0.37 0.39
-4.48 0.22 1.18
-4.59 0.25 1.15
-6.50 0.36 0.72
-4.66 0.27 1.13
-6.34 0.38 0.76
-6.35 0.40 0.76
-6.24 0.41 0.78
-6.19 0.42 0.79
-6.22 0.44 0.78
-6.45 0.47 0.73
-6.34 0.47 0.76
-6.77 0.52 0.66
-6.43 0.51 0.74
-4.70 0.39 1.12
-4.78 0.41 1.10
-4.66 0.41 1.13
-6.98 0.62 0.61
-6.48 0.60 0.72
-4.86 0.46 1.08
-4.74 0.46 1.11
-4.98 0.50 1.05
-4.82 0.49 1.09
-4.78 0.50 1.10
-7.00 0.74 0.60
-7.09 0.79 0.58
-7.12 0.81 0.57
-7.01 0.81 0.60
-7.00 0.83 0.60
-7.37 0.89 0.51
-7.75 0.96 0.43
-6.71 0.86 0.66
-6.84 0.89 0.63
-6.39 0.85 0.73
-7.04 0.99 0.58
-7.09 1.01 0.57
-6.91 1.01 0.61
-7.06 1.04 0.57
-6.90 1.04 0.61
-7.20 1.10 0.54
-7.27 1.13 0.53
-7.34 1.16 0.51
-7.63 1.22 0.44
-7.44 1.21 0.48
-7.47 1.23 0.48
-7.49 1.31 0.47
-7.30 1.30 0.51
-6.67 1.20 0.65
-6.72 1.23 0.64
-6.74 1.25 0.63
-6.48 1.22 0.69
-6.43 1.23 0.70
-6.25 1.21 0.74
-6.37 1.28 0.71
-6.71 1.36 0.63
-6.72 1.38 0.63
-7.08 1.47 0.55
-6.73 1.42 0.63
-0.34 -1.61 1.44
-3.96 -1.42 0.68
-4.09 -1.41 0.65
-4.14 -1.27 0.64
-4.30 -1.28 0.61
-4.61 -1.32 0.54
-4.37 -1.24 0.59
-4.25 -1.19 0.62
-4.16 -1.15 0.64
-4.23 -1.15 0.63
-3.83 -1.07 0.71
-3.79 -1.04 0.72
-3.88 -1.04 0.70
-3.84 -1.02 0.71
-4.05 -1.04 0.67
-3.80 -0.98 0.72
-5.22 -1.18 0.41
-3.35 -0.89 0.82
-4.98 -1.10 0.46
-3.62 -0.90 0.76
-5.12 -1.08 0.43
-5.18 -1.08 0.42
-5.10 -1.04 0.44
-4.71 -0.98 0.52
-4.98 -0.99 0.46
-3.84 -0.83 0.71
-3.59 -0.78 0.77
-4.89 -0.92 0.48
-4.86 -0.90 0.49
-3.69 -0.75 0.75
-3.81 -0.75 0.72
-4.20 -0.77 0.64
-4.21 -0.76 0.63
-4.46 -0.77 0.58
-4.33 -0.74 0.61
-4.39 -0.73 0.60
-4.06 -0.68 0.67
-4.32 -0.69 0.61
-4.80 -0.71 0.51
-4.71 -0.69 0.52
-4.23 -0.59 0.63
-4.04 -0.56 0.67
-4.12 -0.55 0.65
-4.00 -0.53 0.68
-4.07 -0.52 0.67
-2.22 -0.35 1.07
-2.45 -0.36 1.02
-5.04 -0.50 0.45
-5.18 -0.48 0.42
-5.08 -0.46 0.44
-4.87 -0.43 0.49
-4.98 -0.42 0.46
-4.70 -0.38 0.53
-4.88 -0.38 0.49
-2.03 -0.23 1.12
-4.33 -0.31 0.61
-4.77 -0.32 0.51
-5.07 -0.31 0.44
-4.62 -0.27 0.54
-5.21 -0.26 0.41
-5.27 -0.24 0.40
-5.39 -0.23 0.37
-5.31 -0.20 0.39
-5.28 -0.18 0.40
-5.23 -0.16 0.41
-5.38 -0.15 0.38
-5.16 -0.12 0.42
-4.48 -0.03 0.57
-4.28 -0.01 0.62
-5.94 0.06 0.79
-5.77 0.07 0.83
-7.47 0.27 0.43
-6.18 0.34 0.73
-6.15 0.36 0.74
-6.36 0.38 0.69
-7.00 0.54 0.54
-6.79 0.57 0.58
-6.93 0.62 0.55
-7.41 0.77 0.43
-6.99 0.76 0.53
-7.18 0.82 0.48
-7.07 0.82 0.51
-7.33 0.92 0.44
-7.36 1.00 0.44
-7.35 1.09 0.43
-6.99 1.05 0.52
-7.28 1.12 0.45
-7.35 1.22 0.43
-7.24 1.22 0.45
-7.32 1.25 0.43
-7.21 1.32 0.45
-6.80 1.26 0.55
-3.94 -1.26 0.62
-4.01 -1.23 0.60
-4.20 -1.25 0.56
-4.36 -1.24 0.52
-4.54 -1.25 0.48
-4.28 -1.19 0.54
-4.25 -1.17 0.55
-4.08 -1.13 0.59
-4.11 -1.11 0.58
-4.11 -1.10 0.58
-4.55 -1.15 0.48
-3.86 -1.01 0.64
-4.04 -1.02 0.60
-4.06 -1.01 0.59
-4.19 -1.01 0.56
-4.87 -1.09 0.41
-4.89 -1.06 0.40
-4.96 -1.05 0.39
-4.85 -1.01 0.41
-5.05 -0.96 0.37
-4.95 -0.91 0.39
-4.89 -0.89 0.40
-4.73 -0.85 0.44
-4.80 -0.84 0.43
-4.86 -0.83 0.41
-4.77 -0.80 0.43
-4.75 -0.78 0.44
-4.74 -0.76 0.44
-4.50 -0.72 0.49
-4.51 -0.71 0.49
-4.67 -0.70 0.46
-4.56 -0.68 0.48
-4.77 -0.64 0.43
-5.10 -0.46 0.36
-4.91 -0.43 0.40
-4.94 -0.42 0.39
-4.93 -0.38 0.40
-5.03 -0.36 0.38
-4.57 -0.33 0.48
-4.22 -0.29 0.56
-4.56 -0.27 0.48
-4.66 -0.26 0.46
-4.79 -0.25 0.43
-4.90 -0.23 0.40
-4.73 -0.21 0.44
-4.95 -0.20 0.39
-5.01 -0.12 0.38
-5.70 -0.08 0.85
-0.73 -1.62 1.29
-3.01 0.77 0.72
-1.10 -0.42 0.49
-1.04 -0.35 0.47
-7.80 1.12 2.10
-9.66 0.38 1.69
-8.61 0.46 1.74
-7.96 0.79 1.77
-8.20 1.06 1.76
-8.72 0.21 1.58
-8.02 0.17 1.40
-7.93 0.22 1.41
-8.93 0.67 1.46
-4.34 -1.50 1.62
-8.55 0.09 1.45
-8.34 0.58 1.46
-7.06 -0.90 1.36
-7.94 -0.50 1.29
-9.30 0.07 1.33
-9.43 0.10 1.32
-8.91 0.13 1.36
-8.62 0.17 1.39
-9.49 0.21 1.31
-8.98 0.82 1.35
-7.21 -0.70 1.29
-8.02 -0.55 1.22
-8.14 -0.45 1.21
-8.00 -0.42 1.22
-8.02 -0.37 1.22
-8.40 0.01 1.12
-7.94 0.07 1.16
-8.12 0.14 1.14
-8.27 0.20 1.13
-8.08 0.22 1.15
-8.13 0.25 1.14
-9.38 0.88 1.26
-7.25 0.86 1.47
-7.55 1.19 1.43
-4.73 -1.50 1.46
-10.34 -1.26 0.94
-9.63 -1.14 1.00
-8.23 -0.56 1.14
-8.71 -0.56 1.09
-8.63 -0.53 1.10
-8.46 -0.49 1.12
-8.97 -0.49 1.07
-9.20 -0.47 1.04
-9.20 -0.44 1.04
-8.16 -0.38 1.14
-8.63 -0.20 1.10
-8.62 -0.12 1.10
-8.08 -0.06 1.15
-9.14 0.01 1.23
-9.17 0.05 1.23
-8.87 0.07 1.26
-8.95 0.11 1.25
-9.30 0.16 1.21
-8.93 0.18 1.25
-8.75 0.19 1.27
-9.44 0.48 1.20
-9.26 0.56 1.21
-4.26 -1.67 1.46
-4.33 -1.53 1.45
-9.89 -1.22 0.89
-9.83 -1.16 0.90
