# .PCD v0.7 - Point Cloud Data file format
VERSION 0.7
FIELDS x y z
SIZE 4 4 4
TYPE F F F
COUNT 1 1 1
WIDTH 2893
HEIGHT 1
VIEWPOINT 0 0 0 1 0 0 0
POINTS 2893
DATA ASCII
-11.77 0.12 1.60
-11.80 0.15 1.60
-8.91 0.18 1.74
-7.89 0.25 1.79
-8.55 0.35 1.76
-8.02 0.35 1.78
-8.41 0.39 1.76
-8.20 0.40 1.78
-8.38 0.43 1.77
-8.27 0.44 1.77
-9.30 0.52 1.72
-8.80 0.51 1.74
-8.40 0.51 1.76
-8.29 0.52 1.77
-9.03 0.59 1.73
-8.16 0.55 1.78
-8.97 0.63 1.74
-8.63 0.63 1.75
-9.41 0.71 1.71
-9.35 0.72 1.72
-9.27 0.74 1.72
-9.45 0.78 1.71
-9.09 0.77 1.73
-10.00 0.87 1.68
-9.47 0.85 1.71
-8.90 0.82 1.74
-9.70 0.92 1.70
-9.02 0.87 1.73
-8.72 0.87 1.75
-9.38 0.95 1.71
-10.37 1.08 1.66
-9.70 1.03 1.70
-9.95 1.08 1.68
-9.47 1.05 1.71
-9.74 1.11 1.69
-9.71 1.13 1.70
-9.84 1.17 1.69
-9.62 1.17 1.70
-9.88 1.22 1.69
-9.57 1.21 1.70
-9.43 1.21 1.71
-9.19 1.20 1.72
-9.37 1.25 1.71
-9.62 1.31 1.70
-9.55 1.37 1.70
-9.52 1.39 1.70
-9.16 1.36 1.72
-8.98 1.38 1.73
-6.09 0.95 1.87
-9.09 1.44 1.72
-8.88 1.45 1.73
-8.90 1.47 1.73
-8.94 1.50 1.73
-8.95 1.53 1.73
-8.95 1.55 1.73
-4.02 -1.68 1.84
-3.94 -1.62 1.85
-4.05 -1.60 1.84
-3.87 -1.54 1.85
-4.52 -1.68 1.82
-3.94 -1.53 1.85
-3.89 -1.48 1.85
-3.73 -1.43 1.86
-3.73 -1.41 1.86
-3.82 -1.42 1.85
-3.81 -1.40 1.86
-4.05 -1.44 1.84
-3.64 -1.33 1.86
-3.83 -1.28 1.85
-3.97 -1.19 1.85
-3.37 -0.82 1.88
-3.44 -0.78 1.88
-3.45 -0.75 1.87
-7.60 -0.41 1.81
-7.07 -0.35 1.83
-7.65 -0.29 1.80
-7.11 -0.20 1.83
-7.50 -0.19 1.81
-7.54 -0.17 1.81
-7.01 -0.13 1.84
-7.54 -0.08 1.81
-8.36 -0.07 1.77
-7.51 -0.05 1.81
-8.73 0.63 1.71
-9.59 0.74 1.66
-9.25 0.74 1.68
-8.87 0.73 1.70
-9.30 0.79 1.68
-9.44 0.82 1.67
-9.11 0.81 1.69
-9.71 0.91 1.66
-9.30 0.97 1.68
-9.63 1.02 1.66
-9.47 1.03 1.67
-9.69 1.08 1.66
-9.52 1.08 1.66
-9.74 1.13 1.65
-9.85 1.17 1.65
-9.73 1.20 1.65
-9.64 1.28 1.66
-9.84 1.43 1.64
-9.58 1.41 1.66
-9.61 1.44 1.66
-9.27 1.46 1.67
-9.15 1.49 1.68
-8.95 1.48 1.69
-8.88 1.53 1.69
-3.42 -1.43 1.85
-1.07 -0.33 1.98
-9.23 0.29 1.64
-8.74 0.32 1.67
-8.65 0.34 1.67
-8.72 0.36 1.67
-9.27 0.52 1.64
-9.13 0.53 1.64
-8.45 0.51 1.68
-8.12 0.51 1.70
-8.26 0.54 1.70
-8.69 0.61 1.67
-9.03 0.65 1.65
-9.50 0.71 1.62
-9.02 0.70 1.65
-8.61 0.69 1.67
-9.47 0.78 1.62
-10.19 0.86 1.58
-9.35 0.81 1.63
-9.41 0.84 1.63
-9.89 0.91 1.60
-10.41 0.98 1.57
-9.48 0.92 1.62
-9.76 0.97 1.60
-9.85 1.00 1.60
-9.54 0.99 1.62
-10.02 1.06 1.59
-9.56 1.04 1.62
-10.07 1.12 1.58
-9.66 1.10 1.61
-9.71 1.13 1.61
-9.17 1.09 1.64
-9.50 1.15 1.62
-9.70 1.20 1.61
-10.17 1.28 1.58
-9.78 1.25 1.60
-9.80 1.30 1.60
-9.28 1.26 1.63
-9.67 1.33 1.61
-9.53 1.34 1.61
-9.61 1.37 1.61
-9.58 1.39 1.61
-9.51 1.41 1.61
-9.45 1.42 1.62
-9.27 1.42 1.63
-9.49 1.47 1.61
-9.03 1.43 1.64
-9.02 1.47 1.64
-8.92 1.47 1.65
-9.02 1.51 1.64
-9.13 1.60 1.63
-3.71 -1.60 1.80
-3.49 -1.47 1.81
-3.79 -1.52 1.79
-4.09 -1.57 1.78
-3.70 -1.33 1.80
-3.91 -1.35 1.79
-3.92 -1.34 1.79
-3.93 -1.32 1.79
-3.86 -1.21 1.79
-11.93 -0.02 1.48
-8.04 0.07 1.50
-8.34 0.15 1.48
-8.93 0.39 1.62
-8.64 0.58 1.63
-8.47 0.59 1.64
-9.35 0.68 1.59
-8.82 0.66 1.62
-8.75 0.70 1.62
-9.36 0.79 1.59
-9.38 0.81 1.58
-9.23 0.82 1.59
-9.85 0.90 1.55
-10.09 0.95 1.54
-9.73 0.94 1.56
-9.66 0.95 1.57
-9.55 0.97 1.57
-9.41 0.98 1.58
-9.55 1.01 1.57
-9.64 1.09 1.57
-9.77 1.13 1.56
-9.79 1.16 1.56
-9.95 1.20 1.55
-9.54 1.17 1.57
-9.62 1.21 1.57
-9.16 1.17 1.59
-9.70 1.29 1.56
-9.69 1.33 1.56
-9.78 1.37 1.55
-9.66 1.40 1.56
-9.43 1.44 1.58
-9.21 1.43 1.59
-9.09 1.45 1.60
-9.27 1.51 1.58
-9.15 1.51 1.59
-9.02 1.51 1.60
-0.89 -1.48 1.95
-7.45 -1.13 1.54
-1.02 -0.37 1.94
-8.71 0.01 1.59
-8.88 0.05 1.58
-11.24 0.09 1.42
-8.88 0.09 1.58
-9.02 0.11 1.57
-8.70 0.13 1.59
-8.66 0.15 1.59
-8.70 0.17 1.59
-8.77 0.19 1.58
-8.97 0.24 1.57
-8.90 0.26 1.57
-10.55 0.33 1.46
-9.01 0.31 1.57
-8.78 0.32 1.58
-8.77 0.36 1.58
-8.85 0.39 1.58
-9.00 0.41 1.57
-8.66 0.42 1.59
-8.70 0.44 1.59
-8.67 0.48 1.59
-8.92 0.52 1.57
-9.03 0.55 1.56
-10.12 0.64 1.49
-8.57 0.56 1.59
-8.54 0.58 1.60
-8.78 0.62 1.58
-9.10 0.66 1.56
-8.83 0.66 1.58
-8.86 0.69 1.57
-8.78 0.70 1.58
-9.04 0.74 1.56
-9.74 0.82 1.51
-9.62 0.84 1.52
-10.03 0.90 1.49
-9.89 0.91 1.50
-9.34 0.88 1.54
-9.80 0.95 1.51
-9.97 0.99 1.50
-9.55 0.97 1.52
-9.69 1.01 1.51
-9.63 1.02 1.52
-9.89 1.08 1.50
-9.57 1.06 1.52
-9.77 1.11 1.51
-9.62 1.12 1.52
-10.21 1.21 1.48
-9.29 1.12 1.54
-9.35 1.16 1.53
-9.35 1.18 1.53
-9.49 1.26 1.52
-9.27 1.26 1.54
-9.35 1.29 1.53
-9.62 1.35 1.51
-9.88 1.41 1.50
-9.30 1.35 1.54
-9.52 1.41 1.52
-9.87 1.48 1.50
-9.23 1.41 1.54
-9.15 1.42 1.54
-9.12 1.44 1.55
-9.16 1.49 1.54
-9.11 1.51 1.55
-9.19 1.54 1.54
-9.45 1.63 1.52
-9.11 1.60 1.54
-1.03 -1.53 1.91
-3.75 -1.67 1.73
-3.77 -1.63 1.73
-3.63 -1.56 1.74
-3.79 -1.49 1.73
-4.12 -1.55 1.71
-3.35 -1.32 1.76
-3.99 -1.42 1.72
-4.20 -1.41 1.70
-3.95 -1.35 1.72
-3.96 -1.31 1.72
-3.96 -1.30 1.72
-3.60 -1.20 1.75
-4.82 -0.64 1.66
-4.94 -0.58 1.66
-11.91 -0.02 1.37
-7.81 0.14 1.40
-7.75 0.17 1.41
-7.79 0.19 1.40
-7.81 0.24 1.40
-9.44 0.55 1.49
-9.55 0.62 1.48
-9.30 0.63 1.49
-8.99 0.63 1.52
-9.04 0.65 1.51
-8.91 0.66 1.52
-9.26 0.71 1.50
-9.17 0.73 1.50
-9.02 0.74 1.51
-8.92 0.75 1.52
-9.07 0.79 1.51
-9.48 0.84 1.48
-9.63 0.88 1.47
-9.55 0.90 1.47
-10.24 0.99 1.42
-9.59 0.95 1.47
-9.88 1.00 1.45
-9.84 1.02 1.45
-9.49 1.01 1.48
-9.38 1.02 1.48
-9.98 1.11 1.44
-9.73 1.13 1.46
-10.39 1.23 1.41
-9.53 1.15 1.47
-9.42 1.16 1.48
-9.39 1.18 1.48
-9.49 1.21 1.47
-9.34 1.22 1.48
-9.64 1.28 1.46
-10.05 1.38 1.43
-9.80 1.37 1.45
-9.53 1.36 1.47
-9.61 1.39 1.46
-9.35 1.47 1.48
-9.59 1.56 1.46
-9.26 1.52 1.49
-9.55 1.60 1.46
-1.03 -0.70 1.90
-0.96 -0.33 1.91
-2.96 -0.48 1.76
-11.71 -1.04 1.12
-8.88 0.01 1.48
-8.92 0.03 1.47
-8.75 0.05 1.49
-8.72 0.07 1.49
-8.76 0.09 1.49
-8.92 0.11 1.47
-8.76 0.13 1.49
-8.71 0.15 1.49
-8.80 0.17 1.48
-11.32 0.25 1.28
-10.27 0.25 1.37
-8.68 0.23 1.49
-8.70 0.26 1.49
-9.62 0.31 1.42
-9.78 0.33 1.41
-9.25 0.34 1.45
-9.21 0.36 1.45
-9.15 0.38 1.45
-8.81 0.39 1.48
-8.88 0.41 1.48
-8.74 0.42 1.49
-8.96 0.46 1.47
-9.03 0.48 1.46
-8.70 0.49 1.49
-8.88 0.52 1.48
-9.62 0.58 1.42
-8.81 0.56 1.48
-5.04 0.33 1.78
-9.26 0.63 1.44
-8.77 0.62 1.48
-9.48 0.69 1.43
-9.16 0.69 1.45
-8.98 0.70 1.46
-9.04 0.72 1.46
-9.27 0.76 1.44
-9.16 0.78 1.45
-10.04 0.87 1.38
-9.77 0.87 1.40
-9.86 0.91 1.39
-9.66 0.91 1.41
-9.44 0.91 1.43
-9.17 0.91 1.45
-9.46 0.96 1.42
-9.61 1.00 1.41
-9.00 0.96 1.46
-9.16 1.00 1.45
-9.14 1.02 1.45
-10.13 1.15 1.37
-10.11 1.17 1.37
-9.67 1.15 1.41
-10.34 1.25 1.35
-9.19 1.14 1.44
-9.43 1.19 1.42
-9.17 1.18 1.44
-9.98 1.30 1.38
-9.16 1.22 1.44
-9.27 1.26 1.44
-9.37 1.29 1.43
-9.09 1.28 1.45
-9.40 1.35 1.42
-9.23 1.34 1.44
-9.23 1.37 1.44
-9.20 1.39 1.44
-9.72 1.49 1.40
-9.46 1.47 1.42
-9.02 1.43 1.45
-9.40 1.51 1.42
-9.60 1.56 1.40
-8.95 1.48 1.46
-8.77 1.47 1.47
-9.19 1.57 1.44
-8.98 1.55 1.45
-9.10 1.60 1.44
-9.52 1.69 1.41
-1.37 -1.20 1.85
-3.82 -1.61 1.65
-3.80 -1.59 1.65
-3.55 -1.51 1.67
-3.54 -1.50 1.68
-3.51 -1.48 1.68
-3.81 -1.53 1.65
-3.86 -1.52 1.65
-3.89 -1.52 1.65
-3.62 -1.44 1.67
-4.07 -1.52 1.63
-3.97 -1.48 1.64
-4.79 -1.65 1.58
-4.00 -1.46 1.64
-3.89 -1.42 1.65
-3.85 -1.39 1.65
-3.80 -1.37 1.66
-4.32 -1.46 1.62
-3.93 -1.36 1.65
-4.11 -1.35 1.63
-4.09 -1.33 1.63
-4.99 -1.07 1.56
-5.32 -0.88 1.54
-5.55 -0.88 1.52
-4.98 -0.69 1.57
-5.23 -0.68 1.55
-4.93 -0.63 1.57
-4.74 -0.60 1.58
-4.77 -0.58 1.58
-4.88 -0.57 1.57
-5.13 -0.57 1.55
-5.04 -0.55 1.56
-11.77 -0.98 1.03
-6.26 -0.59 1.46
-5.02 -0.49 1.56
-5.00 -0.47 1.56
-8.38 -0.37 1.52
-8.11 -0.34 1.54
-8.38 -0.27 1.52
-10.88 -0.33 1.32
-8.39 -0.17 1.52
-8.54 -0.16 1.51
-8.80 -0.14 1.49
-8.79 -0.06 1.49
-8.90 -0.01 1.48
-7.93 0.02 1.28
-8.83 0.11 1.44
-8.74 0.15 1.45
-8.70 0.17 1.45
-8.77 0.19 1.44
-8.77 0.24 1.44
-8.87 0.26 1.43
-9.23 0.29 1.40
-9.90 0.36 1.35
-9.66 0.37 1.37
-9.16 0.40 1.41
-8.80 0.40 1.44
-8.76 0.42 1.44
-9.16 0.47 1.41
-8.91 0.47 1.43
-9.02 0.52 1.42
-9.28 0.56 1.40
-8.84 0.58 1.43
-9.56 0.67 1.37
-9.50 0.71 1.38
-9.26 0.71 1.40
-9.45 0.75 1.38
-9.27 0.78 1.40
-9.94 0.89 1.34
-9.50 0.87 1.38
-9.50 0.92 1.37
-9.98 0.99 1.33
-8.74 0.91 1.44
-9.84 1.07 1.34
-9.55 1.08 1.37
-9.84 1.14 1.34
-9.92 1.17 1.34
-10.09 1.24 1.32
-9.03 1.13 1.41
-9.75 1.25 1.35
-9.97 1.30 1.33
-9.14 1.24 1.40
-9.09 1.25 1.40
-9.30 1.33 1.38
-9.24 1.34 1.39
-9.77 1.44 1.34
-9.79 1.49 1.34
-9.39 1.46 1.38
-9.27 1.46 1.38
-9.32 1.51 1.38
-9.47 1.56 1.37
-9.15 1.53 1.39
-9.17 1.56 1.39
-9.02 1.58 1.40
-9.20 1.63 1.39
-9.20 1.68 1.39
-1.32 -1.19 1.83
-2.94 -1.48 1.69
-3.46 -1.55 1.65
-3.74 -1.54 1.63
-3.33 -1.43 1.66
-3.69 -1.48 1.63
-4.68 -1.62 1.55
-4.45 -1.51 1.57
-5.70 -1.67 1.46
-3.94 -1.31 1.61
-4.09 -1.30 1.60
-5.41 -1.06 1.49
-5.31 -1.01 1.50
-5.34 -0.99 1.50
-5.31 -0.97 1.50
-5.54 -0.90 1.48
-5.87 -0.91 1.45
-6.03 -0.87 1.44
-5.38 -0.79 1.49
-5.29 -0.76 1.50
-5.02 -0.71 1.52
-5.68 -0.75 1.47
-6.47 -0.80 1.40
-5.01 -0.66 1.53
-4.89 -0.63 1.54
-4.84 -0.61 1.54
-6.63 -0.73 1.39
-6.81 -0.72 1.37
-5.17 -0.58 1.51
-5.26 -0.56 1.50
-4.95 -0.52 1.53
-6.52 -0.56 1.40
-6.58 -0.54 1.39
-6.59 -0.52 1.39
-4.87 -0.41 1.54
-6.52 -0.47 1.40
-6.64 -0.43 1.39
-6.47 -0.40 1.40
-6.51 -0.34 1.40
-6.32 -0.27 1.41
-10.81 -0.27 1.04
-10.81 -0.24 1.04
-10.80 -0.20 1.04
-11.47 -0.18 0.98
-11.20 -0.14 1.00
-11.19 -0.11 1.00
-7.82 -0.01 1.29
-8.57 0.01 1.41
-8.66 0.03 1.40
-8.78 0.07 1.39
-8.84 0.09 1.38
-8.77 0.11 1.39
-8.59 0.13 1.40
-8.65 0.15 1.40
-8.40 0.17 1.42
-8.45 0.19 1.41
-8.31 0.20 1.43
-8.44 0.23 1.42
-8.44 0.25 1.42
-8.44 0.27 1.42
-8.64 0.29 1.40
-8.73 0.32 1.39
-8.71 0.34 1.39
-8.77 0.36 1.38
-8.83 0.39 1.38
-8.72 0.40 1.39
-8.87 0.43 1.38
-8.95 0.45 1.37
-8.74 0.47 1.39
-8.99 0.50 1.36
-8.91 0.52 1.37
-9.04 0.55 1.36
-9.19 0.58 1.34
-9.09 0.59 1.35
-9.06 0.61 1.36
-8.91 0.62 1.37
-8.84 0.64 1.38
-9.09 0.68 1.35
-9.84 0.76 1.28
-9.63 0.77 1.30
-9.70 0.80 1.30
-9.20 0.78 1.34
-9.46 0.82 1.32
-9.23 0.82 1.34
-8.57 0.79 1.40
-9.34 0.88 1.33
-9.54 0.92 1.31
-9.85 0.97 1.28
-8.86 0.90 1.37
-9.40 0.98 1.32
-8.73 0.93 1.38
-8.95 0.97 1.36
-9.22 1.02 1.34
-9.81 1.11 1.28
-9.39 1.09 1.32
-9.17 1.09 1.34
-10.10 1.22 1.25
-10.15 1.25 1.25
-9.16 1.15 1.34
-8.95 1.15 1.36
-8.98 1.17 1.35
-10.05 1.34 1.26
-9.30 1.26 1.32
-8.85 1.22 1.37
-9.09 1.28 1.34
-8.94 1.28 1.36
-9.22 1.34 1.33
-9.52 1.41 1.30
-9.38 1.41 1.32
-9.32 1.42 1.32
-9.15 1.42 1.34
-9.13 1.44 1.34
-9.32 1.49 1.32
-9.23 1.50 1.33
-9.23 1.52 1.33
-9.40 1.58 1.31
-8.64 1.47 1.38
-9.00 1.55 1.35
-8.98 1.57 1.35
-9.39 1.67 1.31
-9.39 1.69 1.31
-3.90 -1.63 1.57
-4.18 -1.66 1.54
-3.75 -1.54 1.58
-3.76 -1.53 1.58
-3.41 -1.42 1.62
-3.33 -1.37 1.62
-3.70 -1.44 1.59
-4.09 -1.44 1.55
-4.79 -1.55 1.49
-4.58 -1.47 1.51
-3.99 -1.34 1.56
-5.17 -1.55 1.46
-4.00 -1.31 1.56
-3.85 -1.26 1.58
-3.76 -1.20 1.59
-5.32 -1.46 1.44
-4.21 -1.23 1.54
-4.61 -1.14 1.51
-5.35 -1.15 1.44
-5.11 -1.10 1.46
-5.11 -1.08 1.46
-5.21 -1.08 1.46
-5.29 -1.07 1.45
-5.41 -1.00 1.44
-5.35 -0.98 1.44
-5.36 -0.96 1.44
-5.44 -0.95 1.44
-5.26 -0.91 1.45
-5.05 -0.87 1.47
-4.98 -0.82 1.48
-5.01 -0.81 1.47
-5.04 -0.79 1.47
-5.05 -0.77 1.47
-4.88 -0.74 1.49
-5.04 -0.73 1.47
-4.74 -0.69 1.50
-4.62 -0.64 1.51
-4.64 -0.63 1.51
-6.60 -0.77 1.33
-6.46 -0.74 1.34
-6.38 -0.71 1.35
-4.69 -0.56 1.50
-4.82 -0.55 1.49
-4.80 -0.51 1.49
-6.56 -0.61 1.33
-6.66 -0.59 1.33
-4.93 -0.47 1.48
-11.00 -0.80 0.93
-6.49 -0.52 1.34
-6.44 -0.49 1.34
-6.12 -0.41 1.37
-6.34 -0.40 1.35
-6.32 -0.38 1.36
-6.38 -0.36 1.35
-6.46 -0.34 1.34
-1.99 -0.16 1.75
-6.43 -0.29 1.35
-6.36 -0.25 1.35
-10.23 -0.29 1.00
-10.70 -0.27 0.96
-8.70 -0.10 1.39
-8.61 -0.08 1.40
-8.52 -0.05 1.41
-8.51 -0.03 1.41
-8.53 -0.01 1.41
-7.39 0.06 1.20
-8.41 0.23 1.37
-8.44 0.25 1.37
-8.65 0.27 1.35
-8.89 0.30 1.33
-8.85 0.32 1.33
-9.01 0.35 1.31
-9.26 0.38 1.29
-8.79 0.38 1.33
-8.76 0.40 1.34
-6.66 0.32 1.54
-8.77 0.44 1.34
-9.02 0.48 1.31
-8.66 0.48 1.35
-9.31 0.54 1.28
-9.23 0.56 1.29
-9.03 0.57 1.31
-9.20 0.60 1.29
-9.16 0.62 1.30
-9.66 0.67 1.25
-9.44 0.68 1.27
-9.49 0.71 1.26
-9.52 0.73 1.26
-9.54 0.76 1.26
-9.48 0.78 1.26
-9.56 0.81 1.26
-9.89 0.86 1.22
-9.09 0.81 1.30
-9.84 0.90 1.23
-9.51 0.89 1.26
-9.07 0.87 1.30
-9.47 0.96 1.26
-8.96 0.93 1.31
-8.80 0.93 1.33
-8.84 0.96 1.32
-9.83 1.09 1.23
-9.89 1.12 1.22
-8.74 1.01 1.33
-9.88 1.17 1.22
-8.76 1.06 1.33
-8.73 1.08 1.33
-8.70 1.09 1.33
-8.91 1.14 1.31
-8.88 1.16 1.32
-9.25 1.23 1.28
-8.86 1.20 1.32
-9.05 1.25 1.30
-10.06 1.41 1.20
-9.84 1.40 1.22
-9.70 1.41 1.23
-9.52 1.40 1.25
-9.49 1.42 1.25
-9.42 1.44 1.26
-9.34 1.45 1.27
-9.70 1.53 1.23
-9.33 1.49 1.27
-9.27 1.50 1.27
-9.52 1.57 1.25
-9.28 1.55 1.27
-9.22 1.56 1.28
-9.30 1.60 1.27
-9.20 1.61 1.28
-9.12 1.62 1.28
-9.36 1.68 1.26
-3.71 -1.58 1.55
-4.38 -1.65 1.49
-4.52 -1.56 1.47
-3.82 -1.16 1.55
-5.40 -1.14 1.39
-5.11 -1.04 1.42
-5.10 -1.00 1.42
-5.45 -1.03 1.39
-5.55 -1.02 1.38
-5.40 -0.98 1.39
-5.75 -1.00 1.36
-5.49 -0.93 1.39
-6.16 -0.97 1.32
-5.77 -0.90 1.36
-5.94 -0.90 1.34
-4.94 -0.78 1.44
-5.45 -0.81 1.39
-4.76 -0.71 1.46
-5.38 -0.75 1.40
-4.96 -0.69 1.44
-4.97 -0.67 1.44
-6.73 -0.80 1.27
-6.19 -0.73 1.32
-6.66 -0.75 1.27
-4.49 -0.56 1.48
-6.37 -0.68 1.30
-10.81 -0.92 0.88
-6.56 -0.61 1.28
-6.61 -0.59 1.28
-10.74 -0.82 0.88
-6.37 -0.53 1.30
-10.99 -0.73 0.86
-10.74 -0.69 0.88
-6.25 -0.44 1.31
-6.14 -0.41 1.32
-6.36 -0.40 1.30
-6.36 -0.38 1.30
-6.25 -0.35 1.31
-6.18 -0.31 1.32
-6.28 -0.27 1.31
-6.43 -0.25 1.29
-6.34 -0.22 1.30
-6.15 -0.20 1.32
-6.51 -0.16 1.29
-6.44 -0.12 1.29
-7.47 -0.01 1.19
-8.74 0.01 1.29
-8.64 0.03 1.29
-8.48 0.05 1.31
-8.57 0.07 1.30
-9.12 0.09 1.25
-8.41 0.11 1.32
-6.76 0.10 1.49
-8.34 0.14 1.32
-8.33 0.16 1.33
-8.47 0.19 1.31
-8.38 0.21 1.32
-8.26 0.22 1.33
-8.36 0.24 1.32
-8.45 0.27 1.31
-8.78 0.30 1.28
-8.48 0.31 1.31
-10.18 0.40 1.13
-9.90 0.41 1.16
-9.61 0.42 1.19
-9.63 0.44 1.19
-8.38 0.41 1.32
-8.55 0.44 1.30
-8.53 0.45 1.30
-8.61 0.48 1.29
-8.51 0.49 1.30
-9.58 0.58 1.19
-9.37 0.59 1.21
-9.49 0.62 1.20
-9.51 0.64 1.20
-9.34 0.65 1.22
-9.47 0.69 1.20
-9.87 0.74 1.16
-9.80 0.76 1.17
-9.57 0.76 1.19
-9.58 0.79 1.19
-8.95 0.76 1.25
-9.85 0.86 1.16
-9.88 0.88 1.16
-9.20 0.84 1.23
-9.51 0.90 1.20
-8.93 0.86 1.26
-8.97 0.89 1.25
-8.78 0.89 1.27
-8.68 0.90 1.28
-9.51 1.01 1.20
-9.94 1.08 1.15
-9.70 1.08 1.17
-8.74 0.99 1.27
-8.76 1.02 1.27
-8.88 1.05 1.26
-8.71 1.05 1.27
-9.90 1.22 1.15
-9.92 1.25 1.15
-8.66 1.11 1.28
-8.84 1.16 1.26
-9.16 1.22 1.23
-9.23 1.25 1.22
-9.46 1.31 1.19
-9.62 1.35 1.18
-9.50 1.36 1.19
-9.55 1.39 1.18
-9.38 1.39 1.20
-9.30 1.40 1.21
-9.31 1.42 1.21
-9.77 1.52 1.16
-8.85 1.40 1.25
-8.66 1.39 1.27
-8.72 1.42 1.27
-9.12 1.51 1.22
-8.82 1.48 1.25
-9.07 1.54 1.23
-9.10 1.57 1.22
-9.22 1.62 1.21
-8.79 1.56 1.26
-9.35 1.69 1.20
-9.20 1.68 1.21
-4.46 0.87 1.71
-2.98 1.39 1.83
-3.93 -1.60 1.48
-4.34 -1.67 1.44
-3.97 -1.55 1.48
-4.65 -1.69 1.41
-3.80 -1.48 1.50
-4.39 -1.59 1.44
-4.94 -1.68 1.38
-4.69 -1.51 1.41
-4.05 -1.30 1.48
-5.09 -1.48 1.37
-4.18 -1.29 1.46
-3.84 -1.20 1.50
-4.77 -1.24 1.40
-4.96 -1.17 1.38
-5.29 -1.13 1.35
-5.54 -1.10 1.33
-5.40 -1.06 1.34
-5.07 -1.00 1.37
-5.35 -1.02 1.34
-5.64 -1.03 1.32
-5.57 -0.96 1.32
-4.82 -0.77 1.40
-4.80 -0.75 1.40
-5.12 -0.76 1.37
-4.22 -0.66 1.46
-4.61 -0.68 1.42
-5.73 -0.76 1.31
-4.68 -0.65 1.41
-6.30 -0.77 1.25
-6.25 -0.74 1.25
-6.21 -0.72 1.26
-6.25 -0.70 1.25
-4.18 -0.52 1.47
-6.21 -0.65 1.26
-6.23 -0.63 1.26
-4.49 -0.49 1.43
-4.64 -0.49 1.42
-4.47 -0.46 1.44
-4.39 -0.43 1.44
-4.66 -0.43 1.42
-9.12 -0.66 0.96
-7.87 -0.57 1.09
-6.41 -0.47 1.24
-6.37 -0.44 1.24
-6.05 -0.41 1.27
-6.28 -0.40 1.25
-6.16 -0.37 1.26
-6.33 -0.36 1.25
-6.28 -0.33 1.25
-8.27 -0.29 1.33
-7.84 -0.26 1.38
-7.75 -0.23 1.39
-8.34 -0.23 1.33
-8.03 -0.20 1.36
-8.30 -0.19 1.33
-8.62 -0.18 1.30
-11.44 -0.21 1.01
-8.65 -0.14 1.29
-11.26 -0.13 1.03
-8.57 -0.08 1.30
-10.73 -0.04 1.08
-8.67 -0.01 1.29
-5.58 0.23 1.26
-7.19 0.37 1.09
-10.37 0.55 1.05
-9.87 0.57 1.10
-9.35 0.56 1.16
-9.77 0.63 1.11
-9.33 0.63 1.16
-9.80 0.68 1.11
-9.60 0.72 1.13
-9.59 0.76 1.13
-9.59 0.78 1.13
-10.40 0.90 1.04
-9.37 0.83 1.15
-9.60 0.88 1.13
-9.76 0.92 1.11
-9.07 0.87 1.18
-9.23 0.96 1.17
-9.16 1.04 1.17
-9.10 1.05 1.18
-9.48 1.14 1.14
-10.16 1.25 1.06
-9.75 1.25 1.10
-9.40 1.22 1.14
-9.77 1.30 1.10
-10.06 1.36 1.07
-10.09 1.39 1.06
-9.52 1.36 1.13
-9.27 1.34 1.15
-6.29 -0.70 1.19
-6.23 -0.37 1.20
-6.17 -0.35 1.21
-8.36 -0.30 0.97
-8.20 -0.27 0.98
-8.67 -0.25 0.93
-8.39 -0.20 0.96
-11.10 0.01 0.89
-8.51 0.03 1.19
-8.18 0.04 1.23
-10.84 0.08 0.92
-8.34 0.09 1.21
-8.66 0.11 1.18
-8.25 0.12 1.22
-8.30 0.14 1.22
-8.67 0.17 1.17
-8.53 0.19 1.19
-8.27 0.20 1.22
-10.59 0.28 0.95
-8.09 0.24 1.24
-7.82 0.27 1.27
-8.30 0.30 1.22
-9.73 0.38 1.05
-10.10 0.42 1.01
-10.02 0.44 1.01
-10.43 0.48 0.97
-9.47 0.46 1.08
-6.64 0.34 1.41
-9.66 0.51 1.06
-4.20 0.24 1.69
-9.52 0.55 1.07
-9.69 0.59 1.05
-9.73 0.61 1.05
-9.58 0.62 1.06
-6.36 0.43 1.44
-10.19 0.71 0.99
-6.43 0.47 1.43
-9.75 0.73 1.04
-9.60 0.74 1.06
-10.23 0.82 0.99
-9.61 0.79 1.06
-9.86 0.83 1.03
-6.35 0.55 1.44
-6.43 0.58 1.43
-9.91 0.91 1.02
-6.31 0.60 1.44
-9.38 0.91 1.08
-9.43 0.94 1.08
-9.70 0.98 1.04
-9.61 1.02 1.05
-9.20 1.00 1.10
-6.28 0.70 1.44
-9.34 1.06 1.08
-9.38 1.09 1.08
-9.12 1.08 1.11
-9.12 1.10 1.11
-9.01 1.11 1.12
-8.91 1.12 1.13
-9.16 1.18 1.10
-9.39 1.23 1.08
-9.28 1.24 1.09
-9.04 1.23 1.11
-9.45 1.30 1.07
-9.95 1.40 1.01
-9.64 1.38 1.04
-9.42 1.37 1.07
-9.74 1.44 1.03
-9.43 1.42 1.07
-9.70 1.48 1.03
-9.64 1.50 1.04
-9.83 1.55 1.02
-8.78 1.41 1.14
-9.03 1.50 1.11
-9.32 1.56 1.08
-9.64 1.64 1.04
-9.39 1.62 1.07
-9.30 1.66 1.07
-8.84 1.62 1.13
-3.33 -1.67 1.46
-4.09 -1.68 1.37
-4.00 -1.64 1.38
-4.48 -1.69 1.33
-4.23 -1.58 1.36
-4.25 -1.56 1.36
-3.96 -1.43 1.39
-4.39 -1.38 1.34
-3.95 -1.27 1.39
-4.79 -1.39 1.30
-5.33 -1.45 1.23
-4.88 -1.18 1.29
-5.03 -1.04 1.27
-5.68 -0.98 1.20
-5.40 -0.91 1.23
-8.50 -1.20 0.87
-7.03 -0.92 1.04
-6.51 -0.85 1.10
-7.97 -0.96 0.93
-11.74 -1.26 0.49
-6.54 -0.79 1.10
-6.43 -0.76 1.11
-6.36 -0.73 1.12
-4.44 -0.54 1.34
-4.55 -0.53 1.33
-4.44 -0.51 1.34
-4.42 -0.49 1.34
-4.48 -0.48 1.34
-4.37 -0.45 1.35
-6.85 -0.58 1.06
-6.36 -0.53 1.12
-10.53 -0.74 0.64
-7.96 -0.43 1.26
-8.90 -0.46 1.15
-9.17 -0.43 1.12
-7.88 -0.35 1.27
-7.56 -0.32 1.31
-7.41 -0.30 1.32
-7.97 -0.30 1.26
-7.59 -0.27 1.30
-7.47 -0.24 1.32
-7.91 -0.24 1.26
-8.10 -0.23 1.24
-7.91 -0.20 1.26
-11.62 -0.24 0.83
-7.85 -0.13 1.27
-7.61 -0.10 1.30
-8.27 -0.07 1.22
-8.84 -0.06 1.16
-8.95 -0.04 1.14
-8.72 -0.02 1.17
-7.66 0.02 0.90
-7.27 0.04 0.94
-8.34 0.05 1.16
-8.41 0.07 1.15
-8.43 0.09 1.15
-10.90 0.14 0.85
-8.41 0.13 1.15
-8.36 0.14 1.16
-8.38 0.16 1.15
-10.23 0.23 0.93
-8.47 0.21 1.14
-8.59 0.23 1.13
-8.12 0.24 1.18
-8.24 0.26 1.17
-8.21 0.28 1.17
-9.62 0.35 1.00
-9.30 0.36 1.04
-9.52 0.39 1.01
-9.16 0.40 1.06
-9.38 0.43 1.03
-9.25 0.45 1.04
-9.52 0.48 1.01
-9.55 0.51 1.01
-9.59 0.53 1.00
-9.54 0.55 1.01
-9.78 0.59 0.98
-9.88 0.62 0.96
-9.88 0.64 0.96
-9.94 0.67 0.96
-6.59 0.46 1.37
-9.74 0.70 0.98
-9.82 0.73 0.97
-10.32 0.80 0.91
-6.31 0.50 1.40
-6.14 0.50 1.42
-6.11 0.52 1.43
-6.09 0.53 1.43
-6.18 0.55 1.42
-9.45 0.87 1.01
-10.02 0.94 0.94
-9.77 0.94 0.97
-9.84 0.97 0.96
-9.42 0.95 1.01
-5.46 0.57 1.50
-5.86 0.62 1.45
-5.55 0.61 1.49
-9.63 1.07 0.99
-8.74 0.99 1.10
-9.12 1.06 1.05
-9.09 1.08 1.05
-6.13 0.74 1.42
-9.43 1.16 1.01
-9.27 1.17 1.03
-9.34 1.20 1.02
-9.53 1.24 1.00
-9.30 1.24 1.02
-9.91 1.34 0.95
-9.38 1.29 1.01
-9.55 1.34 0.99
-9.51 1.36 1.00
-9.66 1.40 0.98
-9.54 1.41 0.99
-9.63 1.45 0.98
-9.52 1.45 0.99
-9.81 1.52 0.96
-9.61 1.51 0.98
-9.57 1.53 0.98
-9.72 1.58 0.97
-9.46 1.56 1.00
-9.27 1.55 1.02
-9.08 1.54 1.04
-9.32 1.61 1.01
-9.57 1.67 0.98
-9.48 1.68 0.99
-9.20 1.65 1.03
-9.11 1.66 1.04
-4.14 -1.65 1.32
-4.52 -1.65 1.28
-4.72 -1.68 1.25
-4.52 -1.62 1.28
-4.22 -1.53 1.31
-3.95 -1.46 1.35
-4.35 -1.49 1.30
-4.80 -1.48 1.24
-5.86 -1.12 1.12
-5.84 -1.08 1.12
-5.68 -1.04 1.14
-5.89 -1.02 1.12
-5.66 -0.97 1.14
-5.39 -0.92 1.18
-5.80 -0.95 1.13
-6.02 -0.93 1.10
-4.54 -0.72 1.28
-4.41 -0.68 1.30
-6.21 -0.80 1.08
-6.48 -0.80 1.04
-6.75 -0.80 1.01
-6.58 -0.77 1.03
-6.20 -0.71 1.08
-4.72 -0.58 1.26
-4.43 -0.54 1.30
-6.32 -0.66 1.06
-4.43 -0.51 1.30
-4.49 -0.49 1.29
-4.43 -0.47 1.30
-6.68 -0.59 1.02
-10.66 -0.81 0.53
-6.65 -0.55 1.02
-6.86 -0.54 1.00
-6.81 -0.51 1.00
-6.73 -0.48 1.01
-6.83 -0.47 1.00
-6.96 -0.45 0.99
-6.24 -0.40 1.07
-6.18 -0.37 1.08
-7.43 -0.40 0.93
-6.39 -0.34 1.06
-6.41 -0.31 1.05
-6.00 -0.28 1.10
-5.97 -0.26 1.11
-6.10 -0.22 1.09
-9.05 -0.26 0.73
-9.04 -0.24 0.73
-9.47 -0.21 0.68
-9.51 -0.19 0.67
-9.80 -0.16 0.64
-10.11 -0.13 0.60
-9.89 -0.10 0.62
-9.36 -0.07 0.69
-7.39 -0.03 0.93
-7.20 -0.01 0.95
-8.17 0.01 1.12
-8.17 0.02 1.12
-8.62 0.05 1.06
-8.45 0.07 1.08
-8.50 0.09 1.08
-10.48 0.13 0.82
-8.07 0.12 1.13
-8.33 0.14 1.10
-8.20 0.16 1.12
-10.53 0.23 0.81
-10.59 0.26 0.80
-8.10 0.22 1.13
-9.70 0.28 0.92
-10.63 0.34 0.80
-8.03 0.27 1.14
-9.36 0.34 0.96
-8.92 0.35 1.02
-8.85 0.36 1.03
-6.63 0.29 1.32
-9.53 0.44 0.94
-9.37 0.45 0.96
-6.77 0.34 1.30
-6.23 0.33 1.37
-6.46 0.36 1.34
-6.53 0.38 1.33
-9.62 0.58 0.93
-9.13 0.57 0.99
-9.48 0.62 0.94
-9.97 0.67 0.88
-9.76 0.68 0.91
-6.21 0.45 1.37
-6.16 0.46 1.38
-6.25 0.48 1.36
-6.02 0.48 1.39
-6.04 0.50 1.39
-6.02 0.51 1.39
-6.11 0.53 1.38
-6.23 0.56 1.36
-6.08 0.56 1.38
-6.03 0.57 1.39
-6.00 0.58 1.39
-6.07 0.60 1.38
-6.46 0.66 1.33
-6.03 0.63 1.39
-5.81 0.62 1.42
-5.61 0.61 1.44
-5.72 0.64 1.43
-9.69 1.10 0.91
-5.69 0.66 1.43
-5.75 0.68 1.42
-5.84 0.71 1.41
-5.94 0.74 1.40
-5.78 0.73 1.42
-5.52 0.71 1.45
-9.54 1.25 0.92
-9.32 1.24 0.95
-5.27 0.72 1.48
-9.31 1.29 0.95
-9.24 1.30 0.96
-9.53 1.36 0.92
-9.32 1.35 0.95
-9.71 1.44 0.90
-9.53 1.43 0.92
-9.43 1.44 0.93
-9.36 1.45 0.94
-9.41 1.48 0.93
-9.42 1.51 0.93
-9.33 1.52 0.94
-9.41 1.55 0.93
-9.35 1.57 0.94
-9.34 1.59 0.94
-9.17 1.58 0.96
-9.29 1.63 0.95
-9.02 1.60 0.98
-9.27 1.69 0.95
-8.95 1.68 0.99
-1.19 -1.33 1.65
-1.29 -1.35 1.64
-2.35 -1.45 1.50
-4.19 -1.67 1.26
-3.98 -1.60 1.29
-4.24 -1.64 1.26
-4.03 -1.58 1.29
-3.70 -1.48 1.33
-4.76 -1.67 1.19
-4.37 -1.57 1.24
-3.98 -1.47 1.29
-4.61 -1.58 1.21
-4.16 -1.45 1.27
-4.88 -1.59 1.18
-4.63 -1.52 1.21
-4.84 -1.54 1.18
-4.68 -1.49 1.20
-4.28 -1.39 1.26
-4.42 -1.40 1.24
-4.47 -1.38 1.23
-4.21 -1.31 1.27
-4.33 -1.32 1.25
-4.46 -1.33 1.23
-4.41 -1.30 1.24
-4.09 -1.22 1.28
-4.13 -1.21 1.28
-3.96 -1.13 1.30
-5.41 -1.10 1.11
-5.59 -1.11 1.09
-5.42 -1.07 1.11
-5.62 -1.07 1.09
-5.56 -1.04 1.09
-5.55 -1.02 1.10
-5.80 -1.03 1.06
-5.61 -0.99 1.09
-5.56 -0.96 1.10
-5.55 -0.94 1.10
-5.68 -0.94 1.08
-5.82 -0.91 1.06
-6.05 -0.89 1.03
-6.47 -0.91 0.98
-6.29 -0.87 1.00
-6.48 -0.87 0.98
-6.86 -0.88 0.93
-4.31 -0.63 1.26
-6.73 -0.83 0.94
-6.46 -0.78 0.98
-6.49 -0.76 0.98
-4.39 -0.57 1.25
-4.39 -0.55 1.25
-4.39 -0.54 1.25
-4.42 -0.52 1.24
-4.32 -0.50 1.26
-4.43 -0.49 1.24
-4.32 -0.46 1.26
-4.86 -0.48 1.19
-4.29 -0.43 1.26
-4.37 -0.42 1.25
-6.75 -0.53 0.94
-4.34 -0.38 1.25
-4.17 -0.35 1.28
-6.57 -0.45 0.97
-6.55 -0.43 0.97
-6.24 -0.40 1.01
-6.04 -0.37 1.03
-6.16 -0.35 1.02
-6.19 -0.33 1.01
-6.40 -0.31 0.99
-6.15 -0.29 1.02
-6.31 -0.27 1.00
-6.04 -0.24 1.03
-6.28 -0.22 1.00
-5.92 -0.19 1.05
-5.75 -0.17 1.07
-6.25 -0.16 1.00
-9.13 -0.18 0.63
-8.18 -0.11 1.12
-8.00 -0.09 1.14
-10.47 -0.09 0.82
-8.05 -0.05 1.14
-8.09 -0.03 1.13
-8.47 -0.01 1.08
-7.71 0.02 0.74
-7.54 0.04 0.76
-7.58 0.06 0.76
-7.46 0.09 0.77
-7.48 0.11 0.77
-7.58 0.14 0.76
-7.31 0.16 0.79
-7.72 0.19 0.74
-7.98 0.22 0.70
-8.81 0.29 0.59
-10.03 0.27 0.81
-10.32 0.30 0.77
-10.42 0.35 0.75
-10.30 0.37 0.77
-10.51 0.41 0.74
-9.70 0.40 0.85
-9.78 0.43 0.84
-9.82 0.45 0.83
-10.01 0.48 0.81
-9.70 0.51 0.85
-6.30 0.35 1.31
-6.31 0.37 1.31
-6.10 0.37 1.34
-9.91 0.62 0.82
-6.04 0.39 1.35
-6.02 0.41 1.35
-5.91 0.43 1.37
-6.03 0.45 1.35
-5.98 0.46 1.36
-6.10 0.49 1.34
-5.97 0.49 1.36
-6.02 0.51 1.35
-6.16 0.54 1.33
-9.05 0.83 0.93
-6.17 0.58 1.33
-6.02 0.58 1.35
-6.43 0.64 1.29
-9.48 0.96 0.87
-6.15 0.64 1.33
-5.88 0.62 1.37
-5.84 0.65 1.37
-5.64 0.64 1.40
-5.82 0.68 1.37
-5.52 0.65 1.41
-9.26 1.12 0.90
-9.12 1.12 0.92
-9.37 1.17 0.88
-9.84 1.28 0.81
-5.21 0.70 1.45
-9.12 1.23 0.91
-9.62 1.32 0.84
-9.45 1.32 0.87
-9.59 1.37 0.85
-9.84 1.43 0.81
-9.57 1.43 0.85
-9.38 1.43 0.87
-9.55 1.48 0.85
-9.76 1.53 0.82
-9.62 1.54 0.84
-9.44 1.53 0.86
-9.45 1.56 0.86
-9.32 1.58 0.88
-9.41 1.62 0.86
-9.14 1.60 0.90
-9.15 1.62 0.90
-1.12 -1.64 1.62
-4.82 -1.61 1.13
-4.18 -1.39 1.22
-4.10 -1.36 1.23
-4.96 -1.51 1.11
-4.90 -1.42 1.12
-5.64 -1.17 1.02
-5.52 -1.13 1.04
-5.77 -1.15 1.01
-5.79 -1.13 1.00
-5.69 -1.08 1.02
-5.67 -1.06 1.02
-5.62 -1.03 1.03
-5.70 -1.02 1.02
-5.74 -1.00 1.01
-5.59 -0.96 1.03
-5.77 -0.97 1.01
-6.09 -0.98 0.96
-5.89 -0.94 0.99
-5.69 -0.90 1.02
-6.87 -1.00 0.86
-7.00 -0.99 0.84
-5.61 -0.81 1.03
-5.94 -0.82 0.98
-6.57 -0.85 0.90
-7.01 -0.87 0.84
-6.81 -0.83 0.87
-7.07 -0.83 0.83
-4.78 -0.62 1.14
-6.61 -0.75 0.89
-4.53 -0.56 1.18
-4.57 -0.55 1.17
-4.33 -0.52 1.21
-4.55 -0.51 1.18
-4.26 -0.48 1.21
-6.70 -0.62 0.88
-6.25 -0.57 0.94
-4.11 -0.42 1.24
-6.60 -0.54 0.89
-7.15 -0.55 0.82
-6.49 -0.49 0.91
-9.11 -0.60 0.55
-6.65 -0.46 0.89
-6.66 -0.44 0.89
-6.35 -0.40 0.93
-6.11 -0.37 0.96
-6.59 -0.37 0.90
-7.25 -0.37 0.81
-6.12 -0.30 0.96
-6.23 -0.29 0.94
-6.25 -0.27 0.94
-6.19 -0.24 0.95
-6.39 -0.23 0.92
-7.57 -0.23 0.76
-7.84 -0.21 0.72
-6.43 -0.16 0.92
-6.52 -0.14 0.90
-7.34 -0.13 0.79
-6.75 -0.10 0.87
-6.98 -0.08 0.84
-7.12 -0.06 0.82
-7.53 -0.03 0.76
-7.52 -0.01 0.77
-8.10 0.01 1.01
-8.29 0.02 0.98
-8.50 0.05 0.95
-8.20 0.06 0.99
-10.51 0.11 0.66
-8.24 0.10 0.99
-9.82 0.15 0.76
-10.47 0.18 0.66
-10.29 0.20 0.69
-9.99 0.22 0.73
-10.07 0.25 0.72
-10.05 0.27 0.73
-10.32 0.30 0.68
-10.21 0.32 0.70
-10.18 0.35 0.70
-9.55 0.35 0.80
-9.70 0.38 0.77
-10.23 0.42 0.70
-9.98 0.43 0.73
-10.06 0.46 0.72
-10.23 0.49 0.70
-10.17 0.52 0.70
-6.47 0.34 1.24
-9.93 0.55 0.74
-10.01 0.58 0.73
-10.00 0.60 0.73
-6.04 0.38 1.30
-6.09 0.40 1.29
-6.11 0.42 1.29
-6.04 0.42 1.30
-5.84 0.43 1.33
-5.96 0.45 1.31
-6.15 0.48 1.28
-6.27 0.50 1.26
-6.05 0.50 1.30
-5.90 0.50 1.32
-5.95 0.52 1.31
-5.94 0.53 1.31
-6.02 0.55 1.30
-5.84 0.55 1.32
-6.14 0.60 1.28
-6.21 0.62 1.27
-6.26 0.64 1.26
-6.17 0.64 1.28
-6.15 0.66 1.28
-6.32 0.69 1.25
-8.61 0.96 0.92
-8.40 0.96 0.95
-6.04 0.71 1.29
-6.00 0.71 1.30
-5.65 0.69 1.35
-5.49 0.68 1.37
-9.83 1.24 0.74
-8.58 1.10 0.92
-8.92 1.17 0.87
-9.05 1.21 0.85
-9.21 1.25 0.83
-9.11 1.26 0.84
-8.90 1.25 0.87
-8.82 1.26 0.88
-8.71 1.27 0.90
-9.65 1.43 0.76
-9.61 1.44 0.76
-8.91 1.36 0.87
-9.22 1.43 0.82
-9.14 1.44 0.83
-9.35 1.50 0.80
-9.16 1.49 0.83
-9.31 1.54 0.80
-9.27 1.55 0.81
-9.20 1.57 0.82
-9.33 1.61 0.80
-9.35 1.64 0.79
-9.44 1.68 0.78
-9.27 1.69 0.80
-0.86 -1.50 1.63
-4.51 -1.65 1.11
-4.14 -1.55 1.17
-4.79 -1.66 1.07
-4.62 -1.61 1.10
-4.95 -1.66 1.05
-4.78 -1.57 1.07
-4.75 -1.54 1.08
-4.65 -1.51 1.09
-4.36 -1.43 1.14
-4.71 -1.48 1.08
-4.61 -1.44 1.10
-4.24 -1.32 1.16
-3.77 -1.20 1.22
-5.64 -1.18 0.96
-5.52 -1.12 0.97
-6.14 -1.16 0.88
-6.34 -1.16 0.85
-5.70 -1.06 0.95
-6.24 -1.09 0.87
-5.60 -0.99 0.96
-5.60 -0.97 0.96
-5.73 -0.94 0.94
-5.94 -0.95 0.91
-5.43 -0.87 0.99
-7.78 -1.07 0.65
-5.62 -0.81 0.96
-5.86 -0.81 0.93
-8.28 -1.01 0.58
-5.89 -0.77 0.92
-5.95 -0.76 0.91
-7.77 -0.89 0.65
-4.66 -0.61 1.10
-6.38 -0.71 0.85
-4.54 -0.53 1.12
-4.45 -0.51 1.13
-4.43 -0.49 1.13
-6.36 -0.58 0.85
-6.02 -0.51 0.90
-6.46 -0.49 0.84
-7.42 -0.52 0.70
-6.18 -0.44 0.88
-6.00 -0.39 0.91
-6.33 -0.36 0.86
-7.18 -0.34 0.73
-7.31 -0.24 1.12
-7.37 -0.22 1.12
-7.94 -0.22 1.03
-8.15 -0.21 1.00
-7.79 -0.18 1.06
-7.70 -0.16 1.07
-7.86 -0.14 1.04
-7.90 -0.13 1.04
-7.70 -0.11 1.07
-7.89 -0.09 1.04
-8.01 -0.07 1.02
-8.05 -0.05 1.01
-7.93 -0.03 1.03
-8.16 -0.01 1.00
-8.78 0.04 0.42
-8.97 0.07 0.39
-9.24 0.10 0.35
-8.48 0.23 0.46
-7.59 0.24 0.60
-7.39 0.35 0.62
-8.16 0.43 0.51
-7.59 0.44 0.59
-10.22 0.52 0.62
-9.59 0.51 0.72
-9.65 0.53 0.71
-10.60 0.64 0.56
-10.00 0.63 0.65
-6.06 0.39 1.25
-10.47 0.78 0.58
-10.24 0.79 0.61
-8.56 0.78 0.87
-8.46 0.92 0.88
-8.60 0.97 0.86
-9.79 1.20 0.67
-9.66 1.26 0.69
-9.46 1.25 0.72
-9.73 1.31 0.68
-10.07 1.38 0.63
-9.77 1.39 0.67
-9.18 1.38 0.76
-9.26 1.41 0.75
-6.15 -1.20 0.82
-6.07 -0.96 0.83
-6.07 -0.89 0.83
-6.19 -0.88 0.81
-7.95 -1.01 0.55
-7.87 -0.97 0.56
-8.06 -0.91 0.53
-7.73 -0.81 0.58
-6.25 -0.55 0.81
-8.39 -0.60 0.48
-6.04 -0.36 0.84
-9.25 -0.47 0.35
-9.20 -0.41 0.36
-9.29 -0.38 0.34
-6.48 -0.27 0.77
-8.80 -0.31 0.42
-8.81 -0.29 0.41
-8.95 -0.26 0.39
-7.40 -0.20 0.63
-7.05 -0.17 0.68
-9.12 -0.15 0.37
-6.34 -0.10 0.79
-9.00 -0.09 0.38
-8.66 -0.04 0.44
-8.99 -0.01 0.39
-7.71 0.00 0.94
-10.09 0.03 0.56
-10.05 0.08 0.57
-9.91 0.12 0.59
-9.59 0.14 0.64
-9.93 0.17 0.59
-9.80 0.19 0.61
-9.62 0.21 0.64
-9.88 0.27 0.59
-10.21 0.32 0.54
-9.66 0.35 0.63
-10.29 0.40 0.53
-10.44 0.43 0.50
-9.84 0.45 0.60
-9.98 0.51 0.57
-10.70 0.57 0.46
-10.05 0.56 0.56
-9.42 0.55 0.66
-9.62 0.58 0.63
-9.19 0.60 0.70
-5.81 0.41 1.24
-5.65 0.41 1.27
-6.23 0.47 1.17
-8.67 0.69 0.78
-5.70 0.48 1.25
-5.93 0.53 1.22
-5.97 0.55 1.21
-6.09 0.58 1.19
-10.10 0.98 0.55
-10.18 1.01 0.53
-10.31 1.07 0.51
-8.30 0.90 0.83
-8.30 0.93 0.83
-8.46 0.96 0.81
-8.54 0.99 0.79
-9.52 1.13 0.63
-10.08 1.24 0.54
-9.59 1.23 0.62
-9.55 1.25 0.63
-9.49 1.26 0.63
-9.34 1.27 0.66
-9.66 1.33 0.61
-9.21 1.32 0.68
-9.62 1.42 0.61
-9.20 1.38 0.68
-9.12 1.40 0.69
-9.71 1.51 0.59
-9.20 1.45 0.67
-9.34 1.52 0.65
-9.12 1.53 0.68
-9.52 1.62 0.62
-1.78 -1.65 1.42
-3.92 -1.66 1.09
-4.79 -1.57 0.95
-5.51 -1.16 0.84
-5.37 -1.12 0.87
-5.49 -1.12 0.85
-5.63 -1.12 0.82
-5.66 -1.10 0.82
-5.54 -1.06 0.84
-5.57 -1.05 0.84
-5.50 -1.02 0.85
-5.68 -1.02 0.82
-5.76 -1.01 0.81
-5.75 -0.99 0.81
-6.18 -1.02 0.74
-5.66 -0.94 0.82
-7.19 -1.08 0.58
-7.69 -1.11 0.50
-7.65 -1.08 0.50
-5.99 -0.89 0.77
-6.66 -0.93 0.66
-8.30 -1.07 0.40
-5.84 -0.81 0.79
-7.95 -0.98 0.46
-7.90 -0.95 0.46
-5.99 -0.76 0.77
-5.98 -0.74 0.77
-7.96 -0.88 0.45
-4.81 -0.59 0.96
-8.16 -0.82 0.42
-4.80 -0.55 0.96
-4.32 -0.50 1.04
-6.98 -0.66 0.61
-5.46 -0.54 0.85
-5.66 -0.53 0.82
-5.54 -0.51 0.84
-5.48 -0.48 0.85
-5.42 -0.46 0.86
-8.19 -0.44 0.87
-10.35 -0.51 0.52
-9.87 -0.44 0.60
-9.69 -0.41 0.63
-10.26 -0.41 0.54
-9.89 -0.37 0.60
-8.86 -0.31 0.76
-8.38 -0.25 0.84
-7.79 -0.20 0.93
-8.05 -0.19 0.89
-7.86 -0.16 0.92
-7.50 -0.14 0.98
-7.46 -0.12 0.98
-10.42 -0.12 0.51
-7.71 -0.05 0.94
-10.45 -0.04 0.51
-7.50 -0.01 0.98
-6.66 0.01 0.59
-7.92 0.04 0.38
-8.16 0.07 0.34
-9.80 0.08 0.53
-9.73 0.10 0.54
-9.44 0.12 0.59
-9.46 0.14 0.59
-9.27 0.16 0.62
-9.45 0.19 0.59
-9.17 0.20 0.64
-9.21 0.22 0.63
-9.38 0.25 0.60
-9.31 0.27 0.61
-9.59 0.30 0.57
-9.38 0.32 0.60
-9.53 0.35 0.57
-9.32 0.36 0.61
-9.49 0.39 0.58
-7.55 0.33 0.91
-9.61 0.44 0.56
-9.64 0.47 0.56
-10.05 0.51 0.49
-9.71 0.52 0.54
-9.55 0.53 0.57
-9.72 0.56 0.54
-8.96 0.54 0.67
-9.38 0.59 0.60
-5.49 0.36 1.25
-5.38 0.36 1.27
-5.57 0.39 1.24
-5.51 0.40 1.25
-5.67 0.43 1.22
-5.64 0.44 1.22
-5.42 0.43 1.26
-5.75 0.47 1.21
-5.78 0.49 1.20
-5.71 0.50 1.21
-5.96 0.53 1.17
-8.62 0.79 0.72
-8.60 0.81 0.72
-8.66 0.83 0.71
-8.69 0.86 0.71
-8.38 0.85 0.76
-8.28 0.86 0.77
-8.17 0.87 0.79
-8.34 0.90 0.76
-8.24 0.92 0.78
-8.33 0.95 0.76
-8.29 0.96 0.77
-8.19 0.97 0.79
-5.55 0.67 1.23
-8.21 1.01 0.78
-8.34 1.05 0.76
-8.63 1.11 0.71
-6.42 0.84 1.08
-6.09 0.81 1.14
-8.50 1.15 0.73
-8.92 1.23 0.66
-5.96 0.84 1.16
-9.20 1.31 0.61
-9.15 1.33 0.62
-8.99 1.33 0.64
-9.99 1.50 0.47
-4.97 0.76 1.32
-8.96 1.39 0.64
-9.20 1.45 0.60
-9.27 1.48 0.59
-9.22 1.50 0.60
-9.20 1.52 0.60
-9.33 1.56 0.58
-9.36 1.59 0.57
-9.60 1.65 0.53
-9.42 1.65 0.56
-0.34 -1.68 1.62
-0.93 -1.46 1.54
-4.39 -1.64 0.96
-4.41 -1.59 0.96
-3.75 -1.43 1.07
-5.00 -1.65 0.86
-4.55 -1.48 0.94
-5.57 -1.65 0.76
-4.88 -1.31 0.88
-6.23 -1.37 0.66
-5.98 -1.31 0.70
-5.83 -1.26 0.73
-5.66 -1.22 0.76
-5.99 -1.24 0.70
-6.04 -1.23 0.69
-5.78 -1.17 0.73
-5.66 -1.14 0.75
-5.71 -1.12 0.75
-5.63 -1.09 0.76
-5.68 -1.08 0.75
-5.62 -1.05 0.76
-5.99 -1.08 0.70
-5.80 -1.03 0.73
-5.59 -0.99 0.77
-5.92 -1.00 0.71
-6.15 -1.01 0.68
-5.94 -0.97 0.71
-7.30 -1.09 0.48
-6.74 -1.01 0.58
-7.28 -1.04 0.49
-7.28 -1.02 0.49
-6.10 -0.88 0.68
-5.29 -0.78 0.82
-7.16 -0.93 0.51
-7.27 -0.92 0.49
-7.11 -0.88 0.51
-6.57 -0.81 0.60
-5.49 -0.70 0.79
-6.57 -0.77 0.60
-5.57 -0.67 0.77
-6.18 -0.69 0.67
-6.17 -0.67 0.67
-6.62 -0.68 0.60
-6.22 -0.63 0.66
-5.97 -0.59 0.71
-5.70 -0.55 0.75
-5.89 -0.55 0.72
-5.92 -0.53 0.71
-5.37 -0.47 0.81
-5.54 -0.46 0.78
-5.63 -0.45 0.76
-5.89 -0.44 0.72
-5.75 -0.42 0.74
-6.07 -0.41 0.69
-6.26 -0.40 0.66
-8.07 -0.45 0.35
-7.95 -0.42 0.37
-7.92 -0.39 0.38
-3.72 -0.22 1.08
-6.43 -0.29 0.63
-6.19 -0.27 0.67
-6.44 -0.25 0.63
-6.50 -0.23 0.62
-6.35 -0.20 0.64
-6.78 -0.19 0.57
-6.61 -0.17 0.60
-6.66 -0.14 0.59
-6.54 -0.12 0.61
-3.79 -0.07 1.07
-6.86 -0.08 0.55
-3.86 -0.04 1.06
-6.92 -0.03 0.54
-3.80 -0.01 1.07
-9.86 0.01 0.44
-9.74 0.03 0.46
-10.05 0.05 0.41
-9.88 0.08 0.44
-10.10 0.10 0.40
-9.44 0.14 0.51
-9.29 0.16 0.54
-9.33 0.18 0.53
-9.95 0.22 0.42
-10.37 0.25 0.35
-9.47 0.25 0.51
-9.27 0.27 0.54
-9.34 0.29 0.53
-9.08 0.31 0.58
-7.66 0.28 0.83
-9.27 0.36 0.54
-9.43 0.39 0.51
-9.53 0.41 0.49
-9.54 0.44 0.49
-9.41 0.45 0.51
-9.52 0.48 0.49
-9.65 0.51 0.47
-9.51 0.53 0.50
-9.04 0.52 0.58
-9.95 0.60 0.42
-7.95 0.50 0.77
-5.21 0.34 1.25
-5.57 0.38 1.19
-5.55 0.39 1.19
-9.35 0.68 0.52
-9.27 0.69 0.53
-5.66 0.44 1.17
-5.89 0.47 1.13
-5.73 0.47 1.16
-8.96 0.76 0.59
-8.98 0.78 0.58
-8.97 0.80 0.58
-8.78 0.80 0.62
-8.80 0.83 0.61
-8.57 0.83 0.65
-8.68 0.86 0.63
-8.44 0.86 0.67
-8.54 0.89 0.66
-8.42 0.90 0.68
-8.34 0.91 0.69
-8.22 0.91 0.71
-8.12 0.92 0.73
-8.34 0.97 0.69
-8.31 0.98 0.69
-8.06 0.98 0.74
-7.95 0.98 0.76
-8.10 1.02 0.73
-8.24 1.06 0.70
-6.15 0.81 1.08
-8.27 1.10 0.70
-8.48 1.15 0.66
-6.23 0.86 1.06
-6.21 0.88 1.06
-6.23 0.90 1.06
-9.01 1.31 0.56
-6.10 0.91 1.08
-9.17 1.38 0.53
-9.17 1.40 0.53
-8.73 1.36 0.61
-9.15 1.44 0.53
-8.97 1.44 0.56
-8.94 1.45 0.57
-9.27 1.53 0.51
-9.12 1.53 0.53
-9.20 1.56 0.52
-9.39 1.62 0.48
-9.29 1.65 0.50
-4.01 -1.66 0.96
-4.46 -1.50 0.89
-4.73 -1.54 0.84
-4.13 -1.40 0.95
-5.26 -1.55 0.75
-4.96 -1.45 0.80
-5.35 -1.51 0.73
-5.41 -1.48 0.72
-5.92 -1.51 0.63
-6.24 -1.52 0.58
-6.03 -1.44 0.61
-5.83 -1.39 0.65
-5.55 -1.32 0.70
-5.43 -1.29 0.72
-5.55 -1.28 0.70
-5.46 -1.23 0.72
-5.79 -1.24 0.66
-5.77 -1.21 0.66
-5.79 -1.18 0.66
-5.55 -1.12 0.70
-5.46 -1.09 0.72
-5.98 -1.14 0.63
-5.77 -1.07 0.66
-5.89 -1.06 0.64
-5.85 -1.02 0.65
-5.86 -1.00 0.65
-5.47 -0.91 0.72
-5.64 -0.91 0.69
-5.93 -0.92 0.64
-5.84 -0.89 0.65
-5.66 -0.86 0.69
-5.66 -0.83 0.69
-5.17 -0.77 0.77
-5.79 -0.79 0.66
-5.13 -0.71 0.78
-5.65 -0.73 0.69
-5.33 -0.69 0.75
-5.39 -0.67 0.73
-6.00 -0.70 0.63
-5.51 -0.64 0.71
-5.82 -0.62 0.66
-5.73 -0.60 0.68
-6.86 -0.65 0.47
-6.34 -0.60 0.57
-5.78 -0.54 0.67
-5.63 -0.51 0.69
-5.60 -0.49 0.70
-5.57 -0.47 0.70
-5.70 -0.45 0.68
-5.67 -0.43 0.69
-5.93 -0.42 0.64
-6.28 -0.42 0.58
-6.09 -0.39 0.61
-6.63 -0.39 0.52
-6.62 -0.37 0.52
-4.04 -0.25 0.97
-3.81 -0.23 1.01
-6.57 -0.30 0.53
-3.85 -0.20 1.01
-6.68 -0.26 0.51
-4.09 -0.17 0.96
-3.68 -0.15 1.04
-3.94 -0.14 0.99
-3.81 -0.12 1.01
-9.91 -0.14 0.43
-9.64 -0.11 0.48
-9.55 -0.09 0.50
-10.02 -0.07 0.41
-10.14 -0.04 0.39
-9.93 -0.02 0.43
-3.50 0.01 1.01
-3.73 0.02 0.97
-3.29 0.04 1.05
-3.36 0.05 1.04
-3.42 0.07 1.03
-3.42 0.08 1.02
-3.45 0.10 1.02
-3.59 0.12 0.99
-3.45 0.13 1.02
-4.03 0.16 0.91
-6.87 0.24 0.38
-7.47 0.22 0.80
-9.20 0.29 0.47
-9.19 0.31 0.48
-9.30 0.36 0.45
-8.70 0.36 0.57
-7.62 0.33 0.77
-7.77 0.36 0.74
-9.35 0.45 0.44
-8.01 0.41 0.69
-9.75 0.52 0.37
-5.07 0.29 1.24
-5.59 0.35 1.14
-5.38 0.35 1.18
-5.44 0.37 1.17
-5.45 0.38 1.16
-5.69 0.41 1.12
-5.64 0.42 1.13
-5.89 0.47 1.08
-5.53 0.45 1.15
-5.35 0.45 1.18
-5.66 0.49 1.12
-8.56 0.76 0.58
-8.55 0.78 0.58
-8.71 0.82 0.55
-6.00 0.58 1.06
-8.29 0.84 0.63
-8.54 0.88 0.58
-8.69 0.92 0.55
-8.27 0.90 0.63
-8.39 0.93 0.61
-8.23 0.93 0.64
-8.44 1.00 0.60
-7.69 0.93 0.74
-7.63 0.94 0.75
-8.72 1.09 0.54
-8.34 1.07 0.61
-8.74 1.14 0.54
-9.48 1.28 0.40
-8.61 1.19 0.56
-6.50 0.91 0.95
-6.16 0.88 1.02
-6.38 0.93 0.97
-8.70 1.28 0.54
-8.98 1.35 0.49
-8.91 1.38 0.50
-8.95 1.41 0.49
-9.03 1.44 0.47
-9.11 1.48 0.46
-8.90 1.47 0.50
-9.16 1.53 0.45
-9.07 1.54 0.46
-9.47 1.65 0.39
-3.77 1.15 1.43
-2.66 1.46 1.58
-5.50 -1.49 0.63
-5.63 -1.50 0.61
-6.39 -1.61 0.47
-6.06 -1.53 0.53
-5.81 -1.47 0.58
-6.15 -1.50 0.52
-5.68 -1.40 0.60
-5.59 -1.37 0.62
-5.75 -1.37 0.59
-5.30 -1.28 0.68
-5.32 -1.26 0.67
-5.82 -1.32 0.58
-5.53 -1.26 0.63
-5.75 -1.27 0.59
-5.58 -1.22 0.63
-5.61 -1.21 0.62
-5.65 -1.19 0.61
-5.70 -1.18 0.60
-5.41 -1.12 0.66
-5.79 -1.15 0.59
-6.20 -1.19 0.51
-6.16 -1.16 0.52
-6.32 -1.16 0.49
-1.04 -0.48 1.47
-6.36 -1.12 0.48
-6.36 -1.10 0.48
-6.21 -1.06 0.51
-5.94 -1.01 0.56
-6.19 -1.01 0.52
-5.89 -0.96 0.57
-5.48 -0.89 0.65
-5.61 -0.89 0.62
-5.61 -0.87 0.62
-6.30 -0.92 0.49
-5.54 -0.82 0.64
-5.40 -0.79 0.66
-5.45 -0.77 0.65
-5.51 -0.76 0.64
-5.15 -0.71 0.71
-5.34 -0.70 0.67
-5.38 -0.69 0.67
-5.23 -0.66 0.69
-4.91 -0.61 0.75
-5.16 -0.61 0.71
-5.23 -0.60 0.69
-5.36 -0.59 0.67
-5.26 -0.56 0.69
-5.28 -0.55 0.69
-5.45 -0.54 0.65
-6.02 -0.55 0.55
-5.74 -0.52 0.60
-5.91 -0.51 0.57
-6.08 -0.49 0.54
-6.19 -0.48 0.52
-6.04 -0.45 0.54
-6.34 -0.44 0.49
-6.52 -0.43 0.46
-6.55 -0.41 0.45
-6.48 -0.38 0.46
-6.61 -0.37 0.44
-6.78 -0.35 0.41
-6.62 -0.32 0.44
-6.79 -0.31 0.41
-6.50 -0.27 0.46
-3.82 -0.18 0.95
-3.76 -0.16 0.96
-3.57 -0.14 1.00
-7.11 -0.20 0.35
-3.82 -0.12 0.95
-3.75 -0.10 0.97
-3.53 -0.08 1.01
-3.71 -0.07 0.97
-3.29 -0.05 1.05
-3.53 -0.04 1.01
-3.53 -0.02 1.01
-3.55 -0.01 1.00
-7.46 0.08 0.73
-9.31 0.12 0.37
-7.73 0.11 0.68
-9.07 0.16 0.42
-9.31 0.18 0.37
-8.70 0.19 0.49
-8.51 0.21 0.53
-9.19 0.25 0.39
-9.21 0.27 0.39
-9.31 0.29 0.37
-9.28 0.32 0.38
-9.25 0.34 0.38
-9.20 0.36 0.39
-9.30 0.38 0.37
-9.02 0.39 0.43
-9.29 0.43 0.37
-9.15 0.44 0.40
-9.11 0.46 0.41
-9.45 0.50 0.34
-5.56 0.31 1.09
-7.93 0.46 0.63
-5.65 0.34 1.08
-5.54 0.35 1.10
-5.68 0.37 1.07
-5.78 0.39 1.05
-5.92 0.42 1.02
-6.44 0.47 0.92
-8.52 0.64 0.52
-5.68 0.44 1.07
-5.59 0.45 1.08
-5.78 0.48 1.05
-5.84 0.50 1.03
-9.04 0.79 0.41
-8.82 0.79 0.45
-9.07 0.85 0.40
-8.48 0.82 0.52
-9.02 0.89 0.41
-8.27 0.84 0.56
-8.10 0.84 0.59
-8.30 0.88 0.55
-8.09 0.88 0.59
-8.24 0.92 0.56
-8.77 1.00 0.46
-8.78 1.02 0.45
-7.89 0.94 0.63
-8.41 1.02 0.52
-7.82 0.97 0.64
-8.08 1.02 0.59
-9.14 1.17 0.38
-9.26 1.21 0.36
-8.88 1.21 0.43
-8.84 1.22 0.44
-9.01 1.27 0.40
-8.28 1.18 0.54
-6.24 0.91 0.94
-6.48 0.96 0.90
-8.62 1.30 0.47
-8.57 1.31 0.48
-6.31 0.99 0.93
-6.43 1.02 0.90
-6.59 1.06 0.87
-9.05 1.47 0.39
-6.50 1.08 0.89
-8.83 1.48 0.43
-8.86 1.51 0.42
-9.31 1.61 0.33
-9.05 1.58 0.38
-8.90 1.58 0.41
-9.12 1.64 0.37
-8.52 1.56 0.48
-8.52 1.58 0.48
-4.08 -1.64 0.83
-4.40 -1.61 0.77
-4.61 -1.64 0.72
-4.61 -1.61 0.73
-4.62 -1.59 0.72
-4.60 -1.57 0.73
-4.86 -1.61 0.68
-4.52 -1.52 0.75
-4.58 -1.51 0.74
-4.58 -1.49 0.74
-4.53 -1.46 0.75
-4.60 -1.46 0.73
-4.59 -1.44 0.74
-4.68 -1.44 0.72
-4.74 -1.43 0.71
-4.52 -1.37 0.75
-4.90 -1.43 0.68
-5.08 -1.44 0.64
-5.27 -1.46 0.60
-5.20 -1.42 0.62
-5.36 -1.43 0.59
-5.36 -1.41 0.59
-5.22 -1.37 0.61
-5.36 -1.38 0.59
-5.37 -1.36 0.59
-5.22 -1.31 0.62
-5.03 -1.26 0.65
-5.17 -1.26 0.63
-5.40 -1.28 0.58
-5.09 -1.21 0.64
-5.07 -1.19 0.65
-5.49 -1.24 0.57
-5.49 -1.22 0.57
-5.59 -1.21 0.55
-5.52 -1.18 0.56
-5.59 -1.17 0.55
-5.67 -1.16 0.53
-5.54 -1.12 0.56
-5.91 -1.15 0.49
-5.75 -1.11 0.52
-6.00 -1.12 0.47
-5.77 -1.07 0.51
-5.68 -1.04 0.53
-5.42 -0.99 0.58
-5.42 -0.97 0.58
-5.43 -0.95 0.58
-5.19 -0.90 0.63
-5.34 -0.90 0.60
-5.18 -0.86 0.63
-5.20 -0.85 0.63
-5.53 -0.86 0.56
-5.61 -0.85 0.55
-5.44 -0.81 0.58
-5.24 -0.77 0.62
-5.37 -0.77 0.59
-5.32 -0.74 0.60
-5.41 -0.73 0.59
-5.23 -0.70 0.62
-5.12 -0.67 0.64
-2.35 -0.42 1.18
-2.46 -0.42 1.16
-2.47 -0.41 1.16
-4.86 -0.57 0.69
-4.90 -0.56 0.69
-2.36 -0.36 1.18
-5.13 -0.54 0.64
-5.27 -0.53 0.61
-2.69 -0.35 1.11
-6.35 -0.55 0.40
-6.50 -0.54 0.38
-5.97 -0.49 0.48
-5.93 -0.47 0.48
-5.81 -0.44 0.51
-5.78 -0.42 0.51
-5.70 -0.39 0.53
-5.93 -0.38 0.48
-6.21 -0.37 0.43
-6.13 -0.35 0.45
-6.18 -0.33 0.44
-7.72 -0.27 0.68
-8.09 -0.27 0.61
-7.43 -0.23 0.74
-8.05 -0.23 0.62
-8.45 -0.22 0.54
-8.04 -0.19 0.62
-7.07 -0.15 0.81
-7.02 -0.13 0.82
-7.06 -0.11 0.81
-9.00 -0.10 0.44
-9.41 -0.06 0.36
-3.20 0.01 0.96
-3.07 0.02 0.99
-5.70 0.05 0.46
-3.39 0.05 0.93
-3.46 0.10 0.91
-3.61 0.19 0.88
-4.97 0.26 1.17
-5.04 0.29 1.16
-5.15 0.32 1.13
-5.44 0.38 1.07
-5.65 0.46 1.03
-8.54 0.90 0.44
-8.85 1.04 0.37
-8.30 1.00 0.48
-8.98 1.10 0.34
-8.26 1.06 0.49
-8.03 1.08 0.53
-8.80 1.23 0.37
-8.68 1.54 0.38
-5.06 -1.34 0.58
-1.04 -0.61 1.41
-5.18 -1.26 0.56
-5.18 -1.24 0.56
-5.13 -1.20 0.57
-5.59 -1.25 0.48
-5.51 -1.21 0.50
-5.62 -1.13 0.48
-5.51 -1.09 0.50
-5.59 -1.07 0.48
-5.47 -1.01 0.51
-5.60 -1.01 0.48
-5.33 -0.94 0.54
-4.82 -0.86 0.64
-5.07 -0.87 0.59
-1.65 -0.48 1.28
-5.07 -0.77 0.59
-6.17 -0.86 0.37
-5.31 -0.76 0.54
-5.13 -0.72 0.58
-5.32 -0.72 0.54
-5.36 -0.71 0.53
-5.07 -0.66 0.59
-4.83 -0.62 0.64
-5.24 -0.64 0.56
-5.25 -0.62 0.55
-4.83 -0.57 0.64
-5.08 -0.57 0.59
-5.35 -0.57 0.53
-5.24 -0.47 0.56
-5.78 -0.42 0.45
-6.09 -0.41 0.38
-5.70 -0.33 0.46
-6.18 -0.33 0.36
-3.00 -0.13 1.01
-3.10 -0.12 0.99
-3.24 -0.11 0.96
-3.04 -0.08 1.00
-3.30 -0.06 0.95
-3.30 -0.05 0.95
-3.59 -0.02 0.89
-3.48 -0.01 0.91
-7.90 0.06 0.50
-7.88 0.12 0.50
-7.39 0.13 0.61
-7.96 0.16 0.49
-8.41 0.27 0.39
-8.60 0.35 0.35
-5.43 0.24 1.02
-5.51 0.25 1.00
-5.56 0.27 0.99
-5.49 0.28 1.00
-7.10 0.38 0.66
-7.04 0.39 0.68
-7.52 0.44 0.57
-7.07 0.43 0.67
-5.76 0.36 0.95
-7.48 0.49 0.58
-5.58 0.38 0.98
-5.67 0.40 0.96
-5.57 0.41 0.98
-8.09 0.61 0.45
-8.27 0.64 0.41
-7.94 0.63 0.48
-7.88 0.65 0.49
-7.86 0.67 0.50
-7.87 0.69 0.49
-5.71 0.51 0.95
-8.11 0.75 0.44
-5.71 0.54 0.95
-8.18 0.79 0.43
-8.04 0.80 0.45
-8.16 0.83 0.43
-8.41 0.88 0.37
-8.02 0.85 0.46
-8.27 0.90 0.40
-8.23 0.92 0.41
-5.80 0.66 0.93
-8.29 0.96 0.40
-8.19 0.97 0.42
-8.18 0.99 0.42
-7.96 0.98 0.46
-8.09 1.02 0.44
-8.03 1.03 0.45
-8.12 1.06 0.43
-6.20 0.95 0.83
-6.28 0.98 0.81
-6.16 0.98 0.84
-6.15 0.99 0.84
-6.27 1.03 0.81
-6.16 1.02 0.84
-6.28 1.06 0.81
-6.43 1.10 0.78
-6.66 1.16 0.73
-6.81 1.20 0.69
-6.62 1.18 0.73
-8.32 1.50 0.37
-6.82 1.25 0.69
-6.81 1.27 0.69
-8.39 1.58 0.35
-3.25 -1.52 0.88
-3.76 -1.63 0.77
-3.68 -1.58 0.78
-4.19 -1.69 0.67
-4.36 -1.66 0.64
-4.50 -1.68 0.61
-4.58 -1.67 0.59
-4.57 -1.65 0.60
-4.59 -1.64 0.59
-4.72 -1.65 0.56
-4.54 -1.59 0.60
-4.23 -1.51 0.67
-4.64 -1.58 0.58
-4.60 -1.55 0.59
-4.78 -1.57 0.55
-4.88 -1.57 0.53
-4.98 -1.58 0.51
-4.71 -1.50 0.57
-5.29 -1.60 0.45
-4.89 -1.50 0.53
-4.76 -1.46 0.56
-4.73 -1.43 0.57
-4.58 -1.39 0.60
-4.89 -1.43 0.53
-4.70 -1.37 0.58
-4.91 -1.39 0.53
-5.11 -1.41 0.49
-5.09 -1.39 0.49
-5.08 -1.37 0.50
-5.13 -1.36 0.49
-5.23 -1.35 0.46
-5.02 -1.30 0.51
-4.95 -1.27 0.53
-5.00 -1.26 0.51
-4.93 -1.23 0.53
-4.99 -1.22 0.52
-5.12 -1.22 0.49
-5.34 -1.24 0.44
-5.21 -1.20 0.47
-5.17 -1.17 0.48
-5.18 -1.15 0.48
-5.25 -1.14 0.47
-5.29 -1.13 0.46
-5.27 -1.11 0.46
-5.38 -1.10 0.44
-5.24 -1.07 0.47
-5.32 -1.06 0.45
-5.33 -1.04 0.45
-1.75 -0.57 1.21
-5.42 -1.01 0.43
-1.65 -0.54 1.23
-1.78 -0.54 1.21
-1.62 -0.51 1.24
-5.18 -0.90 0.48
-4.59 -0.82 0.61
-4.61 -0.80 0.60
-1.65 -0.47 1.23
-1.92 -0.49 1.18
-4.59 -0.75 0.61
-4.39 -0.71 0.65
-4.70 -0.72 0.58
-5.40 -0.77 0.44
-5.57 -0.77 0.40
-5.40 -0.73 0.44
-4.72 -0.64 0.58
-4.97 -0.64 0.53
-4.69 -0.60 0.59
-4.90 -0.60 0.54
-5.25 -0.58 0.47
-4.80 -0.53 0.56
-5.02 -0.53 0.52
-4.93 -0.51 0.54
-5.01 -0.49 0.52
-5.13 -0.48 0.49
-5.21 -0.47 0.48
-5.39 -0.46 0.44
-7.87 -0.43 0.51
-7.99 -0.41 0.49
-7.78 -0.38 0.53
-8.08 -0.38 0.47
-7.68 -0.34 0.55
-7.69 -0.33 0.55
-7.92 -0.32 0.50
-7.82 -0.29 0.52
-7.83 -0.28 0.52
-7.94 -0.26 0.50
-7.90 -0.24 0.50
-7.96 -0.22 0.49
-8.19 -0.21 0.44
-7.95 -0.19 0.49
-7.62 -0.16 0.56
-7.92 -0.15 0.50
-7.89 -0.13 0.51
-7.73 -0.11 0.54
-8.62 -0.10 0.35
-8.36 -0.08 0.41
-8.37 -0.06 0.40
-8.58 -0.04 0.36
-3.26 0.01 0.83
-3.19 0.02 0.85
-3.21 0.04 0.84
-7.82 0.06 0.45
-7.72 0.08 0.47
-7.79 0.10 0.45
-7.38 0.18 0.54
-5.21 0.16 1.02
-5.41 0.18 0.98
-5.60 0.20 0.94
-5.40 0.22 0.98
-5.44 0.24 0.97
-7.23 0.33 0.57
-5.38 0.26 0.98
-5.32 0.27 1.00
-5.31 0.28 1.00
-5.49 0.31 0.96
-7.36 0.43 0.54
-5.42 0.33 0.97
-5.48 0.34 0.96
-5.25 0.34 1.01
-5.30 0.36 1.00
-5.52 0.39 0.95
-5.62 0.41 0.92
-5.64 0.42 0.92
-5.78 0.45 0.89
-5.74 0.47 0.90
-8.21 0.75 0.35
-5.89 0.56 0.86
-8.04 0.78 0.38
-8.09 0.96 0.36
-8.09 0.98 0.36
-7.95 0.98 0.39
-7.94 1.00 0.40
-8.07 1.03 0.37
-7.32 0.99 0.53
-6.64 0.92 0.68
-7.16 1.01 0.57
-6.93 0.99 0.61
-6.73 1.03 0.66
-6.27 0.98 0.76
-6.30 1.00 0.75
-6.18 0.99 0.78
-6.24 1.02 0.76
-6.20 1.03 0.77
-6.28 1.06 0.75
-6.27 1.07 0.75
-6.31 1.09 0.75
-6.28 1.10 0.75
-6.70 1.19 0.65
-6.36 1.15 0.73
-6.54 1.20 0.69
-6.24 1.16 0.75
-6.37 1.20 0.73
-6.37 1.21 0.72
-3.39 -1.31 0.80
-3.27 -1.27 0.83
-3.37 -1.27 0.80
-3.49 -1.28 0.78
-3.37 -1.24 0.80
-4.32 -1.42 0.59
-4.55 -1.45 0.54
-4.43 -1.39 0.57
-4.68 -1.42 0.51
-4.68 -1.40 0.51
-4.58 -1.36 0.53
-4.90 -1.41 0.46
-4.75 -1.36 0.50
-0.94 -0.66 1.35
-4.72 -1.32 0.51
-4.75 -1.31 0.50
-4.86 -1.30 0.47
-4.91 -1.29 0.46
-4.88 -1.27 0.47
-0.78 -0.58 1.39
-4.96 -1.25 0.45
-5.02 -1.24 0.44
-4.98 -1.21 0.45
-0.88 -0.56 1.37
-5.14 -1.20 0.41
-5.17 -1.19 0.41
-5.14 -1.16 0.42
-5.31 -1.17 0.38
-5.32 -1.15 0.38
-1.51 -0.60 1.23
-5.19 -1.09 0.40
-4.97 -1.04 0.46
-5.02 -1.03 0.45
-4.97 -1.01 0.46
-1.39 -0.53 1.25
-5.00 -0.97 0.45
-1.44 -0.52 1.24
-1.29 -0.49 1.28
-1.59 -0.52 1.21
-1.46 -0.49 1.24
-1.59 -0.50 1.21
-1.39 -0.46 1.25
-1.59 -0.48 1.21
-2.05 -0.51 1.11
-2.01 -0.50 1.11
-4.82 -0.77 0.49
-4.67 -0.72 0.52
-4.58 -0.69 0.54
-4.50 -0.67 0.56
-2.60 -0.48 0.98
-2.56 -0.47 0.99
-2.74 -0.47 0.95
-4.19 -0.57 0.63
-4.59 -0.59 0.54
-4.52 -0.56 0.56
-4.78 -0.57 0.50
-4.95 -0.56 0.46
-2.75 -0.39 0.95
-2.82 -0.38 0.94
-5.38 -0.51 0.37
-2.98 -0.35 0.90
-5.45 -0.48 0.35
-5.36 -0.44 0.37
-2.75 -0.28 0.95
-3.28 -0.27 0.83
-3.13 -0.23 0.86
-3.22 -0.16 0.84
-2.96 -0.13 0.90
-2.94 -0.12 0.90
-2.90 -0.10 0.92
-2.90 -0.09 0.92
-2.95 -0.07 0.90
-3.24 -0.06 0.84
-3.19 -0.05 0.85
-3.24 -0.01 0.84
-7.57 0.04 0.43
-7.65 0.06 0.41
-7.54 0.08 0.43
-7.65 0.13 0.41
-5.68 0.34 0.85
-5.41 0.34 0.92
-7.12 0.97 0.50
-6.93 0.96 0.55
-6.81 0.96 0.57
-6.72 0.98 0.59
-6.44 0.99 0.65
-6.63 1.10 0.61
-6.73 1.13 0.58
-6.64 1.13 0.60
-6.60 1.14 0.61
-6.27 1.10 0.69
-6.37 1.14 0.66
-6.49 1.17 0.63
-6.45 1.18 0.64
-6.38 1.19 0.66
-6.69 1.26 0.58
-4.71 -1.45 0.42
-4.70 -1.42 0.43
-4.61 -1.39 0.45
-4.62 -1.38 0.45
-4.63 -1.36 0.45
-4.46 -1.31 0.49
-4.62 -1.32 0.45
-4.64 -1.30 0.45
-4.81 -1.32 0.41
-4.77 -1.29 0.42
-4.86 -1.29 0.40
-5.03 -1.30 0.36
-4.84 -1.21 0.40
-5.04 -1.22 0.36
-4.97 -1.06 0.38
-4.88 -1.03 0.40
-4.78 -0.73 0.42
-4.39 -0.66 0.51
-4.39 -0.64 0.51
-4.49 -0.63 0.49
-4.38 -0.61 0.52
-4.50 -0.60 0.49
-4.55 -0.59 0.48
-4.96 -0.60 0.38
-4.89 -0.58 0.40
-5.04 -0.57 0.36
-4.97 -0.55 0.38
-4.88 -0.50 0.40
-7.68 -0.11 0.40
-7.70 -0.09 0.40
-7.29 -0.07 0.49
-3.74 0.37 0.52
-4.05 0.60 0.52
-3.53 0.54 0.51
-3.36 0.53 0.51
-3.25 0.53 0.51
-0.78 -0.89 0.51
-3.33 0.52 0.49
-4.29 0.51 0.46
-3.25 0.60 0.46
-0.87 -1.24 0.48
-3.39 0.49 0.42
-3.24 0.59 0.42
-3.20 0.63 0.42
-4.16 0.40 0.37
-11.41 0.23 1.62
-10.62 0.49 1.66
-10.75 0.70 1.55
-11.02 0.06 1.43
-11.70 0.12 1.38
-11.38 0.14 1.41
-11.53 0.17 1.40
-11.24 0.20 1.42
-10.96 0.06 1.31
-10.68 0.29 1.33
-10.89 0.32 1.32
-9.08 0.59 1.46
-11.69 -1.08 1.04
-9.17 -0.78 1.23
-11.20 0.19 1.24
-6.90 -0.79 1.37
-11.41 -1.06 0.99
-11.73 -1.05 0.96
-11.51 -1.00 0.98
-11.55 -0.97 0.97
-11.21 -0.81 1.00
-10.95 -0.73 1.03
-10.58 -0.68 1.06
-10.29 -0.60 1.08
-10.33 -0.38 1.08
-10.80 0.08 1.20
-11.06 0.22 1.18
-11.56 -1.07 0.88
-11.52 -1.03 0.89
-11.19 -0.94 0.92
-11.02 -0.90 0.93
-11.12 -0.87 0.92
-11.10 -0.84 0.92
-10.91 -0.76 0.94
-10.76 -0.72 0.95
-11.20 -0.68 0.91
-10.17 -0.50 1.01
-6.14 -0.31 1.37
-11.31 -0.05 1.16
-9.61 0.08 0.99
-10.88 0.29 1.13
-9.34 0.45 1.28
-6.42 -0.71 1.30
-10.87 -0.89 0.87
-9.30 -0.76 1.02
-10.89 -0.79 0.87
-11.04 -0.67 0.85
-10.15 -0.59 0.94
-10.72 -0.59 0.88
-8.04 -0.42 1.14
-8.15 -0.32 1.13
-8.21 -0.27 1.12
-10.59 -0.30 0.90
-10.66 -0.23 0.89
-10.72 0.01 1.08
-10.76 0.03 1.08
-10.77 0.06 1.08
-10.88 0.08 1.07
-10.85 0.14 1.07
-10.78 0.16 1.07
-10.78 0.19 1.07
-10.90 0.21 1.06
-10.62 0.26 1.09
-11.29 0.30 1.02
-10.23 0.50 1.13
-9.83 -1.03 0.89
-6.25 -0.68 1.25
-8.83 -0.84 0.99
-8.98 -0.77 0.97
-10.54 -0.84 0.81
-6.33 -0.55 1.25
-9.08 -0.69 0.96
-11.95 -0.54 0.67
-11.53 -0.40 1.00
-11.63 -0.38 0.99
-11.66 -0.35 0.99
-11.82 -0.33 0.97
-11.76 -0.30 0.98
-11.59 -0.24 0.99
-11.19 -0.18 1.04
-10.93 -0.02 1.06
-9.51 -0.95 0.84
-8.03 -0.42 1.00
-10.87 0.03 0.92
-10.70 0.06 0.94
-10.95 0.11 0.91
