# .PCD v0.7 - Point Cloud Data file format
VERSION 0.7
FIELDS x y z
SIZE 4 4 4
TYPE F F F
COUNT 1 1 1
WIDTH 2885
HEIGHT 1
VIEWPOINT 0 0 0 1 0 0 0
POINTS 2885
DATA ASCII
-5.76 1.55 1.64
-6.25 1.68 1.60
-4.35 1.27 1.76
-1.30 -1.37 1.85
-1.47 -1.41 1.84
-1.52 -1.39 1.84
-2.18 -1.51 1.78
-3.23 -1.62 1.70
-2.93 -1.51 1.72
-2.48 -1.33 1.76
-2.40 -1.30 1.77
-2.58 -1.33 1.75
-2.17 -1.22 1.78
-2.48 -1.26 1.76
-2.34 -1.20 1.77
-3.12 -1.32 1.71
-2.49 -1.16 1.76
-3.05 -1.28 1.71
-2.97 -1.24 1.72
-2.78 -1.19 1.74
-2.36 -1.08 1.77
-3.84 -1.33 1.65
-2.78 -1.10 1.74
-3.68 -1.25 1.66
-2.77 -1.05 1.74
-3.99 -1.28 1.64
-3.15 -1.10 1.70
-3.97 -1.18 1.64
-3.42 -1.07 1.68
-3.98 -1.15 1.64
-3.63 -1.07 1.67
-2.74 -0.91 1.74
-3.10 -0.95 1.71
-3.47 -1.00 1.68
-3.11 -0.93 1.71
-3.37 -0.96 1.69
-2.84 -0.86 1.73
-3.16 -0.89 1.70
-3.29 -0.90 1.69
-3.80 -0.96 1.65
-3.41 -0.89 1.68
-3.54 -0.89 1.67
-3.89 -0.93 1.64
-4.12 -0.94 1.63
-3.94 -0.90 1.64
-7.28 -1.34 1.36
-4.81 -0.99 1.57
-3.40 -0.79 1.68
-4.12 -0.86 1.63
-4.33 -0.87 1.61
-3.90 -0.80 1.64
-7.14 -1.18 1.38
-3.89 -0.77 1.64
-4.05 -0.78 1.63
-3.68 -0.72 1.66
-4.09 -0.75 1.63
-2.35 -0.54 1.77
-7.01 -1.03 1.39
-2.99 -0.59 1.72
-3.38 -0.61 1.69
-2.81 -0.54 1.73
-2.75 -0.52 1.74
-2.82 -0.52 1.73
-3.17 -0.54 1.70
-6.92 -0.86 1.39
-7.27 -0.86 1.36
-6.96 -0.81 1.39
-6.88 -0.79 1.40
-2.31 -0.40 1.77
-2.22 -0.38 1.78
-4.94 -0.57 1.56
-6.75 -0.69 1.41
-6.87 -0.67 1.40
-5.11 -0.53 1.54
-2.13 -0.30 1.79
-6.47 -0.56 1.43
-6.75 -0.55 1.41
-1.75 -0.25 1.82
-5.70 -0.33 1.69
-5.19 -0.29 1.73
-5.27 -0.28 1.72
-5.38 -0.27 1.71
-5.81 -0.28 1.68
-5.45 -0.25 1.71
-5.11 -0.19 1.73
-6.87 -0.24 1.59
-6.38 -0.17 1.63
-6.67 -0.16 1.60
-5.15 -0.09 1.73
-6.61 -0.06 1.61
-5.88 0.09 1.63
-4.10 0.50 1.78
-4.32 0.55 1.76
-8.75 1.10 1.37
-8.99 1.22 1.34
-8.97 1.24 1.34
-4.50 0.67 1.74
-9.01 1.50 1.33
-8.89 1.50 1.35
-8.59 1.52 1.37
-1.62 -1.42 1.81
-2.24 -1.34 1.75
-2.11 -1.25 1.76
-2.41 -1.11 1.74
-2.37 -0.94 1.74
-2.95 -0.99 1.69
-3.15 -1.00 1.68
-3.00 -0.95 1.69
-7.28 -1.65 1.31
-7.36 -1.64 1.30
-7.35 -1.61 1.30
-7.36 -1.59 1.30
-3.16 -0.90 1.67
-7.47 -1.56 1.29
-7.38 -1.52 1.30
-3.10 -0.85 1.68
-7.13 -1.41 1.32
-7.19 -1.40 1.32
-7.39 -1.40 1.30
-7.12 -1.34 1.33
-6.97 -1.30 1.34
-7.04 -1.28 1.33
-7.03 -1.26 1.33
-6.97 -1.20 1.34
-7.11 -1.20 1.33
-7.16 -1.18 1.32
-6.90 -1.13 1.34
-6.94 -1.11 1.34
-7.02 -1.09 1.33
-7.02 -1.07 1.33
-6.95 -1.04 1.34
-6.92 -1.02 1.34
-6.94 -0.99 1.34
-7.32 -1.01 1.31
-7.03 -0.96 1.33
-6.95 -0.93 1.34
-6.72 -0.88 1.36
-6.92 -0.88 1.34
-7.05 -0.84 1.33
-6.09 -0.72 1.42
-6.43 -0.70 1.39
-6.83 -0.71 1.35
-6.74 -0.68 1.36
-7.05 -0.68 1.33
-6.77 -0.64 1.36
-6.56 -0.61 1.37
-6.50 -0.58 1.38
-6.61 -0.56 1.37
-1.43 -0.24 1.82
-6.65 -0.52 1.37
-6.78 -0.51 1.35
-6.69 -0.48 1.36
-6.60 -0.45 1.37
-6.84 -0.44 1.35
-6.81 -0.42 1.35
-6.52 -0.39 1.38
-6.34 -0.36 1.39
-5.95 -0.32 1.43
-6.29 -0.31 1.40
-6.04 -0.28 1.42
-6.37 -0.27 1.39
-5.94 -0.24 1.43
-6.13 -0.22 1.41
-5.99 -0.16 1.42
-5.96 -0.14 1.42
-4.14 -0.09 1.58
-6.07 -0.10 1.41
-5.56 -0.07 1.46
-5.73 -0.05 1.44
-5.96 -0.04 1.42
-5.60 -0.01 1.45
-10.60 0.00 1.15
-6.06 0.02 1.58
-6.58 0.04 1.53
-5.92 0.05 1.59
-6.08 0.06 1.58
-6.72 0.09 1.52
-6.74 0.10 1.52
-5.81 0.11 1.60
-6.32 0.13 1.56
-6.51 0.15 1.54
-6.91 0.18 1.50
-6.95 0.20 1.49
-7.01 0.21 1.49
-6.65 0.22 1.52
-6.66 0.24 1.52
-6.60 0.25 1.53
-6.71 0.31 1.52
-6.54 0.32 1.53
-7.00 0.35 1.49
-4.97 0.27 1.68
-6.64 0.37 1.52
-7.08 0.41 1.48
-6.63 0.40 1.52
-6.76 0.43 1.51
-6.49 0.43 1.53
-6.69 0.46 1.51
-6.89 0.49 1.50
-7.10 0.52 1.48
-6.70 0.53 1.51
-5.37 0.47 1.64
-7.67 0.68 1.42
-7.88 0.71 1.40
-5.70 0.54 1.61
-6.36 0.63 1.54
-8.28 0.92 1.36
-7.13 0.81 1.47
-6.32 0.76 1.54
-6.64 0.81 1.51
-6.06 0.76 1.57
-6.05 0.78 1.57
-5.71 0.76 1.60
-5.05 0.71 1.66
-4.84 0.69 1.68
-4.75 0.70 1.69
-8.86 1.27 1.30
-4.60 0.70 1.70
-4.87 0.75 1.68
-5.47 0.85 1.62
-4.63 0.74 1.70
-7.08 1.19 1.46
-8.75 1.57 1.30
-8.59 1.56 1.31
-4.41 0.85 1.72
-4.56 0.89 1.70
-4.37 0.87 1.72
-4.64 0.94 1.69
-4.24 0.88 1.73
-5.05 1.07 1.65
-6.01 1.33 1.56
-5.02 1.14 1.65
-5.84 1.32 1.57
-4.68 1.09 1.68
-6.05 1.40 1.55
-4.67 1.12 1.68
-5.68 1.35 1.59
-4.94 1.26 1.66
-4.37 1.15 1.71
-5.24 1.37 1.62
-4.49 1.27 1.70
-6.03 1.67 1.54
-4.81 1.38 1.66
-4.37 1.31 1.70
-4.46 1.35 1.70
-2.23 -1.47 1.72
-2.59 -1.55 1.69
-2.40 -1.20 1.71
-3.18 -1.37 1.64
-3.99 -1.53 1.56
-4.16 -1.56 1.54
-2.51 -1.16 1.70
-2.68 -1.19 1.68
-2.30 -1.08 1.72
-3.57 -1.34 1.60
-3.59 -1.29 1.60
-3.66 -1.29 1.59
-2.59 -1.04 1.69
-1.95 -0.90 1.75
-2.71 -1.00 1.68
-4.54 -1.33 1.51
-4.01 -1.20 1.56
-3.82 -1.15 1.58
-3.54 -1.08 1.60
-3.26 -1.02 1.63
-3.81 -1.10 1.58
-3.23 -0.99 1.63
-3.90 -1.08 1.57
-3.74 -1.03 1.58
-3.25 -0.94 1.63
-3.50 -0.96 1.61
-3.24 -0.90 1.63
-3.33 -0.90 1.62
-3.54 -0.92 1.60
-3.41 -0.89 1.62
-3.67 -0.90 1.59
-3.20 -0.81 1.64
-7.00 -1.32 1.28
-3.48 -0.82 1.61
-3.14 -0.77 1.64
-2.89 -0.72 1.66
-6.90 -1.22 1.29
-3.93 -0.81 1.57
-6.83 -1.14 1.29
-3.29 -0.70 1.63
-3.90 -0.76 1.57
-6.99 -1.09 1.28
-7.04 -1.07 1.27
-7.15 -1.06 1.26
-7.31 -1.06 1.25
-7.10 -1.01 1.27
-2.40 -0.51 1.71
-7.06 -0.96 1.27
-7.25 -0.96 1.25
-2.71 -0.50 1.68
-7.34 -0.92 1.25
-7.33 -0.89 1.25
-2.53 -0.45 1.70
-2.59 -0.44 1.69
-2.33 -0.41 1.72
-2.71 -0.43 1.68
-2.74 -0.42 1.68
-2.35 -0.38 1.71
-6.92 -0.70 1.28
-6.63 -0.65 1.31
-6.31 -0.61 1.34
-6.21 -0.58 1.35
-2.88 -0.35 1.66
-6.41 -0.55 1.33
-6.69 -0.55 1.31
-6.66 -0.52 1.31
-6.69 -0.50 1.31
-6.46 -0.47 1.33
-6.53 -0.43 1.32
-6.49 -0.41 1.32
-6.56 -0.39 1.32
-6.40 -0.36 1.33
-6.26 -0.33 1.35
-6.23 -0.31 1.35
-6.14 -0.29 1.36
-5.76 -0.23 1.39
-6.06 -0.22 1.36
-6.05 -0.20 1.36
-6.05 -0.18 1.36
-6.21 -0.16 1.35
-5.18 -0.08 1.66
-7.46 -0.09 1.45
-6.67 -0.06 1.52
-10.57 -0.02 1.16
-2.11 0.00 1.71
-6.00 0.03 1.32
-5.87 0.04 1.33
-5.71 0.06 1.34
-5.98 0.09 1.32
-5.88 0.11 1.33
-5.88 0.13 1.33
-5.86 0.15 1.33
-6.04 0.17 1.31
-7.05 0.23 1.44
-4.39 0.22 1.71
-4.41 0.23 1.70
-6.84 0.36 1.46
-6.64 0.37 1.48
-6.73 0.39 1.47
-6.79 0.41 1.46
-6.88 0.43 1.46
-6.89 0.45 1.45
-5.80 0.40 1.56
-5.72 0.41 1.57
-5.40 0.43 1.60
-4.46 0.37 1.70
-7.75 0.64 1.36
-4.54 0.40 1.69
-7.70 0.70 1.37
-8.05 0.87 1.33
-5.04 0.67 1.63
-5.06 0.68 1.63
-5.17 0.71 1.62
-8.84 1.20 1.24
-4.55 0.65 1.68
-4.55 0.67 1.68
-8.93 1.28 1.23
-8.76 1.27 1.25
-9.00 1.33 1.23
-9.02 1.36 1.22
-8.93 1.37 1.23
-8.59 1.34 1.27
-8.34 1.47 1.29
-4.15 0.78 1.72
-4.25 0.81 1.71
-4.09 0.79 1.72
-4.10 0.84 1.72
-4.69 0.96 1.66
-4.20 0.90 1.71
-4.18 0.91 1.71
-4.35 0.99 1.69
-4.19 0.97 1.71
-4.45 1.04 1.68
-4.37 1.03 1.69
-4.17 1.00 1.71
-3.65 0.90 1.76
-4.22 1.07 1.70
-4.11 1.07 1.71
-5.26 1.38 1.59
-4.60 1.25 1.66
-4.25 1.18 1.69
-4.35 1.21 1.68
-4.19 1.20 1.70
-4.09 1.20 1.71
-4.15 1.22 1.70
-4.17 1.25 1.70
-4.14 1.27 1.70
-4.21 1.31 1.69
-4.37 1.38 1.67
-3.94 1.35 1.71
-0.97 -1.43 1.82
-1.55 -1.64 1.76
-1.60 -1.63 1.75
-1.39 -1.43 1.78
-1.35 -1.40 1.78
-1.61 -1.43 1.75
-1.65 -1.44 1.75
-1.57 -1.40 1.76
-1.81 -1.43 1.74
-2.18 -1.53 1.70
-1.67 -1.32 1.75
-1.73 -1.33 1.74
-1.84 -1.35 1.73
-1.55 -1.25 1.76
-1.47 -1.21 1.77
-1.83 -1.31 1.73
-1.81 -1.29 1.74
-1.78 -1.27 1.74
-1.91 -1.25 1.73
-2.00 -1.20 1.72
-2.03 -1.20 1.72
-2.01 -1.14 1.72
-1.89 -1.08 1.73
-2.04 -1.11 1.72
-2.69 -1.25 1.65
-2.39 -1.17 1.68
-1.98 -1.06 1.72
-3.90 -1.49 1.53
-2.41 -1.14 1.68
-1.82 -0.99 1.74
-1.86 -0.99 1.73
-1.97 -1.00 1.72
-3.57 -1.18 1.56
-2.26 -0.90 1.69
-4.42 -1.27 1.48
-4.20 -1.21 1.50
-2.61 -0.92 1.66
-3.10 -0.99 1.61
-3.39 -1.03 1.58
-3.22 -0.98 1.60
-3.28 -0.98 1.59
-2.81 -0.89 1.64
-3.21 -0.94 1.60
-3.20 -0.92 1.60
-3.09 -0.89 1.61
-3.41 -0.93 1.58
-7.17 -1.49 1.20
-3.39 -0.90 1.58
-7.08 -1.43 1.21
-3.58 -0.90 1.56
-3.33 -0.85 1.59
-6.87 -1.33 1.23
-6.90 -1.31 1.23
-2.52 -0.69 1.67
-6.79 -1.25 1.24
-6.86 -1.23 1.24
-2.92 -0.71 1.63
-2.72 -0.67 1.65
-3.11 -0.71 1.61
-3.02 -0.68 1.62
-6.96 -1.13 1.22
-2.68 -0.61 1.65
-7.00 -1.09 1.22
-7.09 -1.08 1.21
-6.99 -1.05 1.22
-6.95 -1.02 1.23
-6.86 -0.99 1.23
-6.81 -0.96 1.24
-6.76 -0.93 1.24
-6.94 -0.93 1.23
-1.90 -0.43 1.73
-2.18 -0.44 1.70
-6.66 -0.83 1.25
-2.08 -0.41 1.71
-6.92 -0.81 1.23
-2.25 -0.40 1.70
-6.91 -0.76 1.23
-6.81 -0.73 1.24
-6.99 -0.72 1.22
-1.77 -0.32 1.74
-5.01 -0.54 1.42
-7.00 -0.66 1.22
-6.39 -0.59 1.28
-1.64 -0.27 1.76
-6.64 -0.57 1.26
-1.67 -0.25 1.75
-6.49 -0.51 1.27
-6.54 -0.50 1.27
-6.41 -0.47 1.28
-6.79 -0.46 1.24
-6.38 -0.42 1.28
-6.60 -0.41 1.26
-6.85 -0.40 1.23
-6.62 -0.37 1.26
-6.36 -0.34 1.28
-6.24 -0.31 1.29
-5.88 -0.28 1.33
-5.35 -0.24 1.38
-5.65 -0.23 1.35
-5.99 -0.22 1.32
-5.92 -0.20 1.33
-5.93 -0.18 1.32
-6.10 -0.16 1.31
-6.07 -0.14 1.31
-1.44 -0.06 1.77
-6.10 -0.10 1.31
-6.06 -0.08 1.31
-6.09 -0.06 1.31
-5.86 -0.04 1.33
-5.92 -0.02 1.32
-6.90 0.00 1.41
-6.59 0.02 1.44
-6.78 0.04 1.42
-6.91 0.05 1.41
-6.66 0.07 1.43
-6.73 0.09 1.43
-7.11 0.11 1.39
-6.88 0.12 1.41
-6.79 0.14 1.42
-6.89 0.16 1.41
-7.07 0.18 1.39
-6.89 0.19 1.41
-7.07 0.22 1.39
-7.08 0.23 1.39
-6.84 0.24 1.41
-6.62 0.25 1.44
-4.28 0.18 1.69
-6.52 0.28 1.45
-6.34 0.29 1.46
-6.08 0.30 1.49
-6.97 0.35 1.40
-6.68 0.36 1.43
-6.71 0.37 1.42
-6.89 0.40 1.40
-6.94 0.42 1.40
-6.98 0.44 1.40
-5.83 0.39 1.52
-5.64 0.39 1.54
-7.29 0.52 1.36
-5.82 0.43 1.52
-6.11 0.47 1.49
-5.62 0.45 1.54
-7.41 0.60 1.35
-5.11 0.45 1.59
-5.06 0.46 1.60
-5.26 0.49 1.58
-5.43 0.52 1.56
-6.80 0.67 1.41
-5.52 0.57 1.55
-6.84 0.71 1.40
-5.20 0.57 1.58
-5.38 0.60 1.56
-6.22 0.70 1.47
-6.90 0.79 1.40
-7.15 0.83 1.37
-7.02 0.84 1.38
-7.07 0.86 1.38
-6.03 0.76 1.49
-5.67 0.73 1.53
-5.86 0.77 1.51
-4.88 0.66 1.61
-5.26 0.72 1.57
-5.09 0.71 1.59
-5.17 0.74 1.58
-6.52 0.93 1.43
-5.02 0.76 1.59
-5.32 0.81 1.56
-4.67 0.73 1.63
-4.83 0.77 1.61
-4.87 0.82 1.61
-4.89 0.88 1.60
-4.59 0.86 1.64
-8.35 1.54 1.22
-4.73 0.92 1.62
-4.55 0.90 1.64
-4.72 0.96 1.62
-5.08 1.04 1.58
-4.83 1.01 1.61
-4.91 1.03 1.60
-5.03 1.07 1.58
-4.45 0.97 1.65
-4.79 1.05 1.61
-4.28 0.96 1.66
-4.59 1.04 1.63
-4.74 1.08 1.61
-4.27 0.99 1.66
-4.44 1.04 1.64
-4.64 1.10 1.62
-4.12 1.00 1.68
-4.66 1.13 1.62
-4.88 1.19 1.59
-4.14 1.05 1.68
-4.39 1.12 1.65
-4.66 1.23 1.61
-5.84 1.56 1.48
-4.62 1.27 1.62
-4.34 1.22 1.65
-5.97 1.69 1.46
-5.89 1.69 1.47
-4.49 1.33 1.63
-4.06 1.26 1.67
-2.52 -1.65 1.63
-2.35 -1.55 1.64
-2.11 -1.45 1.67
-1.91 -1.37 1.69
-2.29 -1.46 1.65
-2.50 -1.47 1.63
-2.35 -1.41 1.65
-2.42 -1.42 1.64
-3.25 -1.59 1.55
-2.28 -1.29 1.66
-2.69 -1.39 1.61
-3.47 -1.58 1.53
-3.75 -1.64 1.50
-3.71 -1.60 1.50
-3.37 -1.49 1.54
-3.72 -1.55 1.50
-2.23 -1.17 1.66
-3.24 -1.40 1.55
-3.09 -1.35 1.57
-3.38 -1.41 1.54
-3.80 -1.49 1.49
-3.83 -1.47 1.49
-3.84 -1.45 1.49
-3.05 -1.26 1.58
-3.24 -1.29 1.56
-3.19 -1.26 1.56
-3.41 -1.30 1.54
-3.25 -1.25 1.55
-3.88 -1.37 1.49
-3.91 -1.36 1.48
-3.47 -1.22 1.53
-4.15 -1.34 1.46
-3.64 -1.22 1.51
-4.06 -1.26 1.47
-4.17 -1.26 1.46
-3.42 -1.09 1.54
-3.66 -1.12 1.51
-4.28 -1.22 1.45
-3.88 -1.13 1.49
-3.00 -0.96 1.58
-3.24 -0.99 1.56
-3.05 -0.95 1.58
-4.03 -1.09 1.47
-3.00 -0.91 1.58
-2.95 -0.89 1.59
-3.06 -0.89 1.58
-3.06 -0.88 1.58
-3.10 -0.87 1.57
-3.08 -0.85 1.57
-2.95 -0.82 1.59
-3.32 -0.86 1.55
-3.34 -0.85 1.55
-3.53 -0.86 1.53
-3.63 -0.86 1.52
-3.24 -0.79 1.56
-3.82 -0.86 1.50
-3.58 -0.81 1.52
-4.64 -0.93 1.41
-3.11 -0.72 1.57
-2.82 -0.67 1.60
-2.94 -0.67 1.59
-2.84 -0.65 1.60
-3.50 -0.71 1.53
-2.66 -0.60 1.62
-2.64 -0.59 1.62
-2.65 -0.58 1.62
-2.49 -0.55 1.64
-2.48 -0.53 1.64
-2.45 -0.52 1.64
-2.45 -0.51 1.64
-2.43 -0.49 1.64
-2.73 -0.51 1.61
-2.54 -0.48 1.63
-6.35 -0.81 1.23
-2.70 -0.47 1.61
-3.05 -0.48 1.58
-2.69 -0.44 1.62
-2.98 -0.45 1.58
-2.70 -0.42 1.61
-2.73 -0.41 1.61
-2.45 -0.37 1.64
-6.92 -0.68 1.16
-3.00 -0.39 1.58
-5.01 -0.51 1.37
-5.08 -0.49 1.36
-2.59 -0.32 1.63
-5.28 -0.47 1.34
-2.29 -0.28 1.66
-6.13 -0.47 1.25
-5.99 -0.45 1.26
-6.38 -0.45 1.22
-6.75 -0.44 1.18
-6.58 -0.41 1.20
-6.50 -0.39 1.21
-6.57 -0.37 1.20
-6.26 -0.33 1.23
-7.08 -0.26 1.39
-7.00 -0.24 1.40
-5.30 -0.17 1.58
-7.19 -0.21 1.38
-7.04 -0.19 1.40
-5.55 -0.14 1.56
-4.90 -0.11 1.62
-7.20 -0.14 1.38
-6.68 -0.10 1.43
-7.05 -0.09 1.40
-6.53 -0.06 1.45
-6.57 -0.05 1.45
-6.63 -0.03 1.44
-6.92 -0.01 1.41
-5.96 0.02 1.21
-6.18 0.15 1.18
-6.20 0.19 1.18
-6.24 0.21 1.17
-3.80 0.91 1.69
-0.40 -1.21 1.84
-1.04 -1.36 1.76
-0.95 -1.29 1.77
-0.96 -1.28 1.77
-0.97 -1.27 1.77
-0.87 -1.23 1.78
-1.04 -1.27 1.76
-0.89 -1.21 1.78
-1.16 -1.26 1.75
-1.37 -1.18 1.73
-1.11 -1.06 1.76
-1.21 -1.08 1.75
-1.24 -1.08 1.75
-1.64 -0.97 1.70
-7.50 -1.68 1.04
-7.02 -1.30 1.09
-6.94 -1.18 1.10
-6.78 -1.09 1.12
-7.03 -1.10 1.09
-6.91 -1.06 1.11
-6.70 -0.99 1.13
-6.30 -0.84 1.18
-6.56 -0.80 1.15
-6.79 -0.78 1.12
-6.82 -0.73 1.12
-6.62 -0.68 1.14
-5.91 -0.52 1.22
-6.20 -0.52 1.19
-0.94 -0.18 1.78
-6.44 -0.36 1.16
-6.00 -0.30 1.21
-6.54 -0.28 1.15
-6.55 -0.26 1.14
-6.66 -0.19 1.13
-6.37 -0.17 1.16
-6.42 -0.15 1.16
-6.08 -0.08 1.20
-6.26 -0.06 1.18
-6.16 -0.04 1.19
-6.10 -0.02 1.19
-6.78 0.19 1.32
-3.48 0.15 1.72
-4.49 0.54 1.59
-8.76 1.30 1.06
-8.65 1.33 1.08
-3.90 1.08 1.64
-3.58 1.04 1.68
-4.07 1.20 1.61
-3.93 1.21 1.63
-1.14 -1.36 1.72
-0.90 -1.25 1.75
-0.98 -1.27 1.74
-0.95 -1.20 1.75
-1.16 -1.27 1.72
-1.21 -1.28 1.71
-1.01 -1.19 1.74
-1.19 -1.24 1.72
-1.39 -1.30 1.69
-1.06 -1.08 1.74
-1.45 -0.96 1.69
-1.61 -0.95 1.67
-6.87 -1.33 1.04
-6.66 -1.24 1.07
-6.77 -1.21 1.05
-6.86 -1.19 1.04
-6.64 -1.14 1.07
-6.72 -1.13 1.06
-6.95 -1.11 1.03
-6.76 -1.07 1.06
-6.67 -1.04 1.07
-6.64 -1.01 1.07
-6.65 -0.99 1.07
-6.58 -0.96 1.08
-6.56 -0.94 1.08
-6.36 -0.87 1.10
-6.40 -0.86 1.10
-6.46 -0.84 1.09
-6.45 -0.80 1.09
-6.39 -0.77 1.10
-6.44 -0.75 1.09
-9.97 -0.95 0.67
-1.62 -0.31 1.67
-6.27 -0.63 1.11
-5.89 -0.54 1.16
-5.65 -0.49 1.19
-5.74 0.00 1.12
-5.53 0.02 1.14
-6.87 0.04 1.27
-6.53 0.05 1.31
-6.56 0.07 1.31
-6.55 0.08 1.31
-6.62 0.10 1.30
-6.57 0.12 1.30
-6.54 0.13 1.31
-6.62 0.15 1.30
-6.49 0.16 1.31
-6.41 0.18 1.32
-6.52 0.20 1.31
-6.42 0.21 1.32
-6.44 0.23 1.32
-6.40 0.24 1.32
-6.31 0.26 1.33
-6.34 0.27 1.33
-6.56 0.30 1.30
-6.28 0.30 1.34
-7.69 0.54 1.15
-7.36 0.56 1.20
-11.61 0.94 0.65
-4.21 0.44 1.59
-4.69 0.50 1.53
-7.32 0.81 1.20
-4.37 0.53 1.57
-4.66 0.58 1.53
-4.60 0.64 1.54
-8.73 1.18 1.01
-8.54 1.20 1.03
-8.54 1.22 1.03
-7.48 1.41 1.16
-7.56 1.44 1.15
-7.26 1.41 1.18
-7.16 1.41 1.20
-7.40 1.47 1.16
-7.31 1.47 1.18
-7.06 1.44 1.21
-7.28 1.50 1.18
-7.25 1.52 1.18
-7.00 1.49 1.21
-3.81 0.86 1.63
-7.65 1.66 1.13
-7.12 1.57 1.20
-3.90 0.91 1.62
-3.79 0.90 1.63
-3.94 0.94 1.61
-7.25 1.67 1.18
-3.84 0.94 1.62
-3.62 0.91 1.65
-4.03 1.01 1.60
-3.84 0.98 1.62
-3.86 0.99 1.62
-3.70 0.99 1.64
-3.76 1.02 1.63
-3.98 1.09 1.60
-4.07 1.18 1.58
-4.05 1.23 1.58
-3.81 1.33 1.61
-3.70 1.30 1.62
-1.45 -1.51 1.65
-1.19 -1.38 1.69
-1.21 -1.37 1.69
-1.30 -1.38 1.68
-1.30 -1.36 1.68
-1.19 -1.31 1.69
-1.38 -1.34 1.67
-1.34 -1.30 1.67
-1.38 -1.31 1.67
-1.50 -1.34 1.65
-1.46 -1.31 1.66
-1.94 -1.46 1.59
-1.79 -1.39 1.62
-1.16 -1.18 1.70
-1.49 -1.26 1.66
-1.57 -1.26 1.65
-1.54 -1.23 1.65
-1.55 -1.22 1.65
-1.39 -1.13 1.67
-1.50 -1.15 1.66
-1.50 -1.14 1.66
-1.46 -1.12 1.66
-1.78 -1.20 1.62
-1.57 -1.13 1.65
-1.78 -1.18 1.62
-1.36 -1.05 1.68
-1.58 -1.10 1.65
-1.55 -1.07 1.65
-1.50 -0.99 1.66
-1.84 -1.06 1.61
-2.10 -1.11 1.58
-2.04 -1.09 1.59
-1.80 -1.02 1.62
-2.03 -1.05 1.59
-3.20 -1.26 1.44
-3.36 -1.28 1.42
-3.25 -1.23 1.44
-2.43 -1.02 1.54
-2.54 -1.01 1.53
-3.62 -1.17 1.39
-3.13 -1.00 1.45
-7.39 -1.67 0.91
-2.16 -0.76 1.58
-2.95 -0.86 1.48
-2.89 -0.82 1.48
-2.94 -0.81 1.48
-3.11 -0.82 1.46
-2.86 -0.75 1.49
-3.65 -0.85 1.39
-6.59 -1.22 1.01
-6.60 -1.20 1.01
-6.63 -1.19 1.01
-6.61 -1.16 1.01
-6.61 -1.14 1.01
-6.56 -1.11 1.02
-6.87 -1.12 0.98
-6.61 -1.07 1.01
-2.15 -0.54 1.58
-6.67 -1.03 1.00
-6.62 -1.01 1.01
-6.60 -0.98 1.01
-6.68 -0.97 1.00
-6.43 -0.92 1.04
-6.43 -0.90 1.04
-2.43 -0.49 1.54
-2.52 -0.49 1.53
-6.31 -0.82 1.05
-2.26 -0.44 1.56
-2.17 -0.42 1.57
-2.38 -0.43 1.55
-6.34 -0.74 1.05
-6.22 -0.71 1.06
-1.79 -0.34 1.62
-1.71 -0.32 1.63
-1.22 -0.27 1.70
-1.40 -0.27 1.67
-1.31 -0.24 1.68
-5.12 -0.46 1.20
-4.99 -0.43 1.22
-5.03 -0.42 1.21
-4.99 -0.40 1.22
-5.10 -0.38 1.20
-5.22 -0.37 1.19
-4.94 -0.34 1.22
-5.06 -0.33 1.21
-2.26 -0.20 1.56
-4.93 -0.28 1.22
-4.88 -0.27 1.23
-4.96 -0.25 1.22
-4.97 -0.23 1.22
-5.04 -0.22 1.21
-4.89 -0.19 1.23
-5.15 -0.18 1.19
-5.17 -0.16 1.19
-5.28 -0.15 1.18
-5.48 -0.13 1.15
-5.95 -0.12 1.09
-5.41 -0.09 1.16
-6.16 -0.08 1.06
-5.99 -0.06 1.09
-5.71 -0.04 1.12
-5.58 -0.02 1.14
-6.65 0.00 1.24
-6.56 0.02 1.26
-6.67 0.03 1.24
-6.67 0.05 1.24
-6.56 0.07 1.26
-6.68 0.09 1.24
-6.56 0.10 1.26
-6.37 0.11 1.28
-6.44 0.13 1.27
-6.44 0.15 1.27
-6.33 0.16 1.28
-6.43 0.18 1.27
-6.55 0.20 1.26
-6.44 0.21 1.27
-6.60 0.23 1.25
-6.71 0.25 1.23
-6.57 0.27 1.25
-6.53 0.28 1.26
-6.60 0.30 1.25
-6.87 0.33 1.21
-6.55 0.33 1.25
-6.19 0.33 1.30
-6.53 0.36 1.25
-7.03 0.41 1.19
-7.00 0.42 1.19
-5.74 0.37 1.36
-7.32 0.48 1.15
-6.81 0.46 1.21
-7.70 0.54 1.10
-7.46 0.54 1.13
-7.48 0.56 1.12
-7.28 0.57 1.15
-6.94 0.56 1.20
-11.34 0.92 0.60
-7.06 0.61 1.18
-6.97 0.62 1.19
-4.77 0.45 1.49
-7.39 0.69 1.13
-4.59 0.45 1.51
-7.07 0.70 1.17
-7.02 0.71 1.18
-6.94 0.72 1.19
-4.74 0.52 1.49
-4.77 0.53 1.48
-4.55 0.52 1.51
-4.83 0.56 1.48
-4.62 0.55 1.50
-4.95 0.60 1.46
-5.29 0.65 1.41
-5.28 0.67 1.41
-4.91 0.64 1.46
-4.92 0.65 1.46
-5.24 0.70 1.42
-5.08 0.70 1.44
-4.93 0.69 1.46
-8.48 1.17 0.97
-4.85 0.71 1.47
-8.41 1.20 0.98
-4.60 0.70 1.50
-4.74 0.73 1.48
-8.40 1.27 0.98
-5.25 0.84 1.41
-7.77 1.42 1.06
-7.16 1.33 1.14
-7.54 1.42 1.09
-7.58 1.45 1.08
-7.16 1.39 1.14
-4.77 0.97 1.47
-7.27 1.45 1.12
-8.17 1.64 1.00
-4.93 1.04 1.44
-7.13 1.48 1.14
-6.96 1.46 1.16
-7.23 1.53 1.13
-7.25 1.56 1.12
-4.05 0.92 1.56
-4.10 0.94 1.56
-4.40 1.02 1.51
-4.11 0.97 1.55
-4.12 0.98 1.55
-7.07 1.63 1.14
-3.96 0.97 1.57
-3.98 0.99 1.57
-4.16 1.04 1.54
-4.16 1.06 1.54
-4.12 1.06 1.55
-4.86 1.25 1.44
-4.10 1.11 1.55
-4.03 1.15 1.55
-4.27 1.22 1.52
-4.48 1.31 1.49
-4.30 1.29 1.51
-4.35 1.32 1.51
-4.01 1.28 1.55
-4.29 1.37 1.51
-1.60 -1.53 1.60
-1.65 -1.43 1.60
-1.79 -1.47 1.58
-1.56 -1.37 1.61
-2.33 -1.61 1.51
-2.18 -1.55 1.53
-1.45 -1.28 1.63
-2.62 -1.62 1.47
-2.64 -1.56 1.47
-1.98 -1.31 1.56
-2.50 -1.41 1.49
-1.84 -1.22 1.58
-1.88 -1.21 1.57
-1.93 -1.16 1.57
-2.22 -1.23 1.53
-3.56 -1.54 1.35
-3.58 -1.53 1.34
-3.87 -1.52 1.31
-3.79 -1.47 1.32
-4.02 -1.51 1.29
-3.67 -1.41 1.33
-3.59 -1.38 1.35
-3.42 -1.31 1.37
-3.50 -1.32 1.36
-3.47 -1.28 1.36
-3.80 -1.33 1.32
-3.78 -1.31 1.32
-3.72 -1.27 1.33
-3.40 -1.19 1.37
-3.37 -1.17 1.38
-3.66 -1.20 1.34
-4.22 -1.29 1.26
-3.51 -1.14 1.36
-3.49 -1.12 1.36
-3.77 -1.14 1.32
-4.04 -1.17 1.29
-2.75 -0.91 1.46
-3.97 -1.10 1.30
-2.88 -0.89 1.44
-2.92 -0.88 1.44
-4.29 -1.09 1.25
-3.93 -1.00 1.30
-3.46 -0.91 1.37
-2.95 -0.82 1.43
-2.87 -0.80 1.45
-3.55 -0.87 1.35
-4.28 -0.92 1.26
-6.90 -1.24 0.91
-6.90 -1.22 0.90
-3.14 -0.71 1.41
-3.05 -0.69 1.42
-6.94 -1.13 0.90
-2.42 -0.57 1.51
-6.76 -1.05 0.92
-4.32 -0.76 1.25
-6.76 -1.00 0.92
-2.13 -0.48 1.55
-2.51 -0.51 1.49
-2.39 -0.48 1.51
-2.49 -0.47 1.50
-2.53 -0.46 1.49
-2.27 -0.43 1.53
-2.47 -0.42 1.50
-2.43 -0.41 1.50
-2.26 -0.37 1.53
-1.69 -0.32 1.60
-1.73 -0.31 1.60
-5.95 -0.59 1.03
-2.22 -0.31 1.53
-1.83 -0.27 1.58
-5.28 -0.45 1.12
-2.18 -0.26 1.54
-2.72 -0.28 1.46
-5.13 -0.39 1.14
-3.01 -0.25 1.42
-2.75 -0.23 1.46
-4.88 -0.28 1.17
-2.52 -0.18 1.49
-2.33 -0.16 1.52
-2.28 -0.15 1.52
-2.28 -0.13 1.52
-2.69 -0.13 1.47
-5.07 -0.16 1.15
-2.38 -0.08 1.51
-6.35 -0.09 1.29
-6.49 -0.08 1.27
-6.54 -0.06 1.26
-6.65 -0.05 1.25
-6.38 -0.03 1.28
-6.42 -0.02 1.28
-4.98 0.00 1.10
-5.60 0.02 1.02
-5.34 0.04 1.05
-5.45 0.06 1.04
-1.58 0.04 1.58
-5.96 0.10 0.96
-5.74 0.12 1.00
-5.65 0.14 1.01
-5.74 0.16 0.99
-5.85 0.18 0.98
-5.79 0.20 0.99
-6.67 0.18 1.19
-6.62 0.20 1.20
-6.89 0.22 1.16
-6.69 0.24 1.19
-6.64 0.25 1.19
-6.83 0.27 1.17
-6.90 0.29 1.16
-7.04 0.32 1.13
-6.81 0.33 1.17
-6.71 0.34 1.18
-11.60 0.60 0.49
-6.82 0.38 1.16
-7.20 0.42 1.11
-7.07 0.43 1.13
-6.97 0.44 1.14
-7.30 0.48 1.10
-7.08 0.48 1.13
-7.22 0.51 1.11
-7.09 0.52 1.12
-7.19 0.54 1.11
-7.03 0.55 1.13
-6.94 0.56 1.14
-6.89 0.57 1.15
-7.25 0.64 1.10
-7.29 0.66 1.09
-7.06 0.66 1.12
-8.96 1.00 0.85
-4.33 0.52 1.51
-9.04 1.13 0.83
-9.22 1.17 0.81
-8.97 1.19 0.84
-9.05 1.22 0.83
-8.73 1.20 0.88
-8.55 1.20 0.90
-9.06 1.29 0.83
-8.43 1.23 0.92
-8.23 1.22 0.95
-7.91 1.44 0.98
-7.67 1.42 1.01
-2.90 0.59 1.70
-7.82 1.48 0.99
-7.71 1.49 1.01
-7.67 1.50 1.01
-7.35 1.46 1.06
-7.30 1.47 1.06
-7.01 1.43 1.11
-6.79 1.41 1.14
-7.55 1.57 1.03
-7.17 1.52 1.08
-6.88 1.48 1.12
-7.15 1.55 1.08
-3.80 0.88 1.57
-3.60 0.85 1.60
-3.45 0.83 1.62
-3.55 0.90 1.60
-3.62 0.92 1.59
-6.85 1.67 1.12
-6.81 1.68 1.12
-3.58 0.95 1.59
-3.65 1.01 1.58
-3.89 1.12 1.54
-3.71 1.08 1.57
-3.71 1.10 1.57
-3.93 1.16 1.54
-3.92 1.17 1.54
-3.79 1.15 1.56
-3.75 1.15 1.56
-3.85 1.20 1.55
-3.56 1.29 1.58
-3.75 1.38 1.55
-1.20 -1.28 1.64
-1.21 -1.24 1.63
-1.26 -1.24 1.63
-1.06 -1.13 1.66
-1.23 -1.18 1.63
-1.09 -1.12 1.65
-1.16 -1.14 1.64
-1.24 -1.13 1.63
-1.56 -1.18 1.59
-1.43 -1.12 1.61
-1.36 -1.09 1.62
-1.36 -1.07 1.62
-1.47 -1.09 1.60
-1.57 -1.10 1.59
-3.48 -1.58 1.31
-1.55 -1.05 1.59
-1.56 -1.04 1.59
-3.78 -1.48 1.27
-1.72 -0.99 1.57
-3.88 -1.47 1.26
-3.55 -1.38 1.31
-3.31 -1.32 1.34
-2.95 -1.21 1.39
-1.84 -0.96 1.55
-2.38 -1.01 1.47
-3.44 -1.18 1.32
-3.36 -1.15 1.34
-3.57 -1.16 1.31
-3.55 -1.14 1.31
-3.34 -1.09 1.34
-3.12 -1.02 1.37
-2.71 -0.94 1.43
-2.60 -0.91 1.45
-2.53 -0.84 1.46
-2.86 -0.89 1.41
-2.59 -0.82 1.45
-7.41 -1.55 0.76
-7.56 -1.55 0.74
-7.37 -1.50 0.77
-7.35 -1.47 0.77
-2.48 -0.74 1.46
-7.16 -1.39 0.80
-2.24 -0.67 1.50
-7.19 -1.33 0.80
-7.28 -1.32 0.78
-7.06 -1.26 0.81
-7.00 -1.23 0.82
-7.18 -1.23 0.80
-7.13 -1.20 0.81
-2.65 -0.64 1.44
-7.05 -1.15 0.82
-7.08 -1.13 0.81
-6.81 -1.07 0.85
-6.68 -1.04 0.87
-6.82 -1.03 0.85
-6.70 -0.99 0.87
-1.78 -0.46 1.56
-6.91 -0.97 0.84
-6.49 -0.91 0.90
-6.47 -0.88 0.90
-6.43 -0.86 0.90
-6.17 -0.81 0.94
-6.34 -0.81 0.92
-1.91 -0.40 1.54
-1.99 -0.39 1.53
-1.88 -0.37 1.55
-6.30 -0.72 0.92
-1.57 -0.33 1.59
-6.13 -0.66 0.95
-1.54 -0.31 1.60
-1.40 -0.29 1.62
-1.37 -0.27 1.62
-5.82 -0.56 0.99
-1.15 -0.24 1.65
-5.54 -0.50 1.03
-5.59 -0.47 1.02
-5.69 -0.45 1.01
-5.43 -0.42 1.04
-5.21 -0.39 1.08
-5.25 -0.37 1.07
-5.19 -0.35 1.08
-5.25 -0.33 1.07
-5.17 -0.31 1.08
-5.19 -0.30 1.08
-5.01 -0.27 1.10
-4.86 -0.25 1.12
-4.84 -0.23 1.13
-5.15 -0.22 1.08
-5.04 -0.20 1.10
-5.05 -0.18 1.10
-5.16 -0.16 1.08
-4.87 -0.14 1.12
-4.85 -0.12 1.12
-5.00 -0.11 1.10
-5.80 -0.10 0.99
-4.80 -0.07 1.13
-4.71 -0.05 1.14
-4.69 -0.03 1.15
-4.86 -0.02 1.12
-6.34 0.00 1.18
-6.45 0.02 1.17
-6.73 0.05 1.13
-6.50 0.07 1.16
-6.50 0.08 1.16
-6.64 0.10 1.14
-6.47 0.11 1.16
-6.63 0.13 1.14
-6.48 0.15 1.16
-6.50 0.16 1.16
-6.52 0.18 1.15
-6.66 0.20 1.13
-6.83 0.22 1.11
-6.71 0.24 1.13
-7.01 0.26 1.08
-7.28 0.29 1.04
-7.30 0.31 1.04
-7.10 0.34 1.07
-7.03 0.35 1.08
-6.79 0.36 1.11
-6.96 0.39 1.09
-6.53 0.38 1.15
-6.83 0.41 1.10
-6.92 0.44 1.09
-6.75 0.44 1.11
-6.86 0.47 1.10
-6.80 0.48 1.11
-6.67 0.49 1.13
-6.85 0.52 1.10
-6.89 0.54 1.09
-11.28 0.92 0.43
-6.92 0.59 1.09
-7.05 0.62 1.07
-6.92 0.63 1.09
-7.35 0.68 1.02
-7.03 0.67 1.07
-7.16 0.70 1.05
-6.97 0.70 1.08
-4.63 0.49 1.43
-4.58 0.50 1.43
-4.66 0.52 1.42
-6.99 0.78 1.07
-4.91 0.57 1.38
-4.73 0.57 1.41
-4.71 0.58 1.41
-4.76 0.59 1.40
-8.92 1.09 0.78
-8.64 1.13 0.82
-5.07 0.70 1.35
-5.24 0.73 1.33
-8.36 1.16 0.86
-4.88 0.71 1.38
-8.35 1.20 0.86
-4.66 0.71 1.42
-8.16 1.21 0.88
-8.05 1.22 0.90
-5.22 0.85 1.33
-8.07 1.47 0.89
-8.02 1.48 0.90
-7.82 1.47 0.93
-8.19 1.56 0.87
-7.88 1.52 0.92
-4.64 0.96 1.41
-4.79 1.00 1.38
-7.40 1.53 0.98
-7.12 1.49 1.03
-4.27 0.95 1.46
-4.08 0.92 1.49
-4.21 0.96 1.47
-4.33 0.99 1.45
-4.19 0.97 1.47
-4.28 1.01 1.46
-4.15 0.99 1.48
-4.29 1.03 1.45
-4.22 1.03 1.46
-4.10 1.03 1.48
-4.13 1.04 1.48
-6.32 1.59 1.14
-4.54 1.21 1.41
-4.24 1.17 1.45
-4.59 1.27 1.40
-4.39 1.23 1.43
-4.28 1.21 1.45
-4.31 1.23 1.44
-4.49 1.29 1.41
-4.46 1.30 1.42
-3.99 1.18 1.49
-4.37 1.30 1.43
-4.13 1.26 1.47
-4.29 1.34 1.44
-4.13 1.34 1.46
-4.36 1.59 1.41
-1.80 -1.41 1.51
-1.70 -1.27 1.53
-1.53 -1.20 1.56
-1.58 -1.20 1.55
-1.81 -1.17 1.52
-1.92 -1.19 1.50
-3.50 -1.59 1.26
-3.37 -1.54 1.28
-3.39 -1.53 1.28
-3.37 -1.51 1.28
-2.03 -1.16 1.48
-3.30 -1.46 1.29
-1.73 -1.06 1.53
-3.13 -1.39 1.32
-2.01 -1.10 1.49
-3.51 -1.44 1.26
-3.71 -1.47 1.23
-3.64 -1.44 1.24
-3.70 -1.44 1.23
-3.54 -1.39 1.26
-3.76 -1.42 1.22
-3.77 -1.41 1.22
-3.77 -1.39 1.22
-3.72 -1.37 1.23
-3.69 -1.34 1.23
-3.66 -1.32 1.24
-3.56 -1.29 1.25
-3.63 -1.29 1.24
-3.60 -1.26 1.25
-3.17 -1.16 1.32
-3.07 -1.13 1.33
-3.37 -1.17 1.28
-3.61 -1.21 1.25
-3.74 -1.21 1.23
-3.29 -1.12 1.30
-3.40 -1.12 1.28
-3.14 -1.06 1.32
-3.31 -1.08 1.29
-3.33 -1.07 1.29
-3.79 -1.13 1.22
-2.89 -0.96 1.36
-3.41 -1.04 1.28
-3.18 -0.98 1.32
-3.63 -1.04 1.25
-3.84 -1.06 1.22
-2.91 -0.90 1.36
-2.73 -0.86 1.38
-3.02 -0.89 1.34
-4.01 -1.03 1.19
-3.98 -1.01 1.20
-2.68 -0.80 1.39
-2.98 -0.83 1.35
-2.86 -0.80 1.36
-2.76 -0.77 1.38
-2.71 -0.75 1.39
-2.96 -0.77 1.35
-2.92 -0.75 1.36
-7.32 -1.33 0.70
-3.77 -0.84 1.23
-3.67 -0.81 1.24
-3.76 -0.81 1.23
-3.87 -0.80 1.21
-3.87 -0.79 1.21
-4.10 -0.80 1.18
-4.09 -0.78 1.18
-7.05 -1.10 0.74
-4.11 -0.75 1.18
-7.13 -1.07 0.73
-7.26 -1.06 0.71
-3.95 -0.69 1.20
-4.32 -0.71 1.15
-2.78 -0.54 1.38
-4.67 -0.71 1.09
-3.00 -0.54 1.34
-4.48 -0.66 1.12
-6.51 -0.82 0.82
-6.34 -0.79 0.85
-6.46 -0.78 0.83
-6.45 -0.75 0.83
-6.80 -0.76 0.78
-6.22 -0.69 0.86
-6.46 -0.69 0.83
-2.12 -0.35 1.47
-2.76 -0.38 1.38
-6.56 -0.63 0.81
-6.99 -0.64 0.75
-5.84 -0.54 0.92
-1.89 -0.28 1.51
-5.94 -0.51 0.90
-2.46 -0.29 1.42
-2.30 -0.27 1.45
-5.34 -0.42 0.99
-2.10 -0.24 1.48
-5.32 -0.38 1.00
-5.16 -0.35 1.02
-5.04 -0.33 1.04
-5.14 -0.31 1.02
-2.58 -0.20 1.40
-7.40 -0.26 1.03
-6.47 -0.21 1.17
-6.67 -0.20 1.14
-6.59 -0.18 1.15
-6.97 -0.17 1.09
-6.61 -0.15 1.15
-6.90 -0.14 1.10
-6.52 -0.11 1.16
-6.56 -0.10 1.15
-6.40 -0.08 1.18
-6.38 -0.06 1.18
-6.26 -0.05 1.20
-6.23 -0.03 1.20
-6.34 -0.02 1.18
-6.37 0.00 0.77
-4.85 0.05 1.01
-4.75 0.07 1.03
-5.10 0.09 0.97
-4.90 0.11 1.00
-5.77 0.14 0.87
-5.47 0.15 0.91
-5.04 0.16 0.98
-5.46 0.19 0.91
-5.49 0.21 0.91
-1.23 0.11 1.57
-5.24 0.26 0.95
-1.32 0.14 1.56
-5.42 0.31 0.92
-5.82 0.34 0.85
-5.60 0.35 0.89
-6.90 0.38 1.05
-6.92 0.40 1.04
-3.47 0.27 1.58
-8.85 1.17 0.72
-8.03 1.40 0.84
-8.12 1.54 0.82
-3.26 0.87 1.59
-3.67 1.00 1.52
-3.65 1.00 1.52
-3.54 1.00 1.54
-3.84 1.09 1.49
-3.59 1.04 1.53
-3.59 1.05 1.53
-3.63 1.08 1.52
-3.66 1.10 1.51
-3.49 1.06 1.54
-3.73 1.15 1.50
-3.71 1.16 1.50
-3.67 1.18 1.51
-3.79 1.26 1.48
-3.54 1.22 1.52
-3.83 1.36 1.47
-3.68 1.63 1.47
-0.60 -1.68 1.65
-0.38 -1.53 1.69
-0.77 -1.22 1.64
-0.87 -1.24 1.63
-0.98 -1.25 1.61
-1.37 -1.31 1.55
-1.27 -1.27 1.57
-1.08 -1.14 1.60
-1.09 -1.13 1.60
-1.30 -1.19 1.57
-1.25 -1.13 1.57
-1.24 -1.12 1.58
-1.28 -1.12 1.57
-1.36 -1.14 1.56
-1.21 -1.09 1.58
-1.06 -1.03 1.60
-1.08 -1.03 1.60
-1.13 -1.03 1.59
-1.30 -1.07 1.57
-1.41 -1.08 1.55
-1.14 -0.99 1.59
-0.92 -0.92 1.63
-1.14 -0.96 1.59
-1.09 -0.92 1.60
-1.35 -0.91 1.56
-1.55 -0.95 1.53
-1.52 -0.93 1.54
-1.41 -0.86 1.55
-2.17 -0.97 1.44
-3.00 -1.03 1.31
-7.97 -1.66 0.52
-7.74 -1.60 0.56
-7.90 -1.60 0.54
-7.95 -1.58 0.53
-7.66 -1.49 0.58
-7.73 -1.47 0.57
-7.76 -1.45 0.56
-8.18 -1.49 0.49
-7.98 -1.43 0.53
-7.39 -1.33 0.62
-7.97 -1.38 0.53
-7.61 -1.31 0.58
-7.52 -1.28 0.60
-7.40 -1.24 0.62
-7.08 -1.17 0.67
-7.30 -1.18 0.63
-7.36 -1.16 0.62
-7.47 -1.15 0.61
-7.48 -1.13 0.61
-7.89 -1.15 0.54
-7.60 -1.09 0.59
-7.05 -1.01 0.67
-1.90 -0.46 1.48
-1.30 -0.39 1.57
-7.32 -0.94 0.63
-1.63 -0.39 1.52
-1.67 -0.39 1.51
-1.63 -0.37 1.52
-1.44 -0.32 1.55
-1.16 -0.29 1.59
-7.63 -0.73 0.58
-6.06 -0.60 0.83
-6.45 -0.58 0.77
-6.53 -0.54 0.75
-5.22 -0.43 0.96
-6.26 -0.46 0.80
-5.61 -0.41 0.90
-4.94 -0.34 1.00
-5.49 -0.33 0.92
-4.76 -0.28 1.03
-7.21 -0.30 0.65
-1.91 -0.13 1.47
-6.36 -0.23 0.78
-6.59 -0.22 0.74
-1.22 -0.07 1.58
-1.33 -0.07 1.56
-5.20 -0.11 0.96
-4.95 -0.07 1.00
-6.62 -0.00 1.03
-6.94 0.02 0.98
-7.04 0.04 0.97
-6.66 0.05 1.03
-6.66 0.07 1.03
-6.73 0.08 1.02
-6.34 0.10 1.08
-6.39 0.11 1.07
-6.31 0.13 1.08
-6.40 0.15 1.07
-6.46 0.16 1.06
-6.65 0.18 1.03
-6.66 0.20 1.02
-7.18 0.23 0.94
-6.85 0.24 0.99
-7.24 0.27 0.93
-6.99 0.28 0.97
-7.54 0.32 0.88
-6.80 0.33 1.00
-6.71 0.34 1.01
-7.12 0.38 0.95
-7.26 0.40 0.92
-7.24 0.42 0.93
-7.00 0.42 0.96
-6.95 0.44 0.97
-6.93 0.45 0.97
-7.03 0.48 0.96
-6.98 0.49 0.97
-6.88 0.50 0.98
-7.24 0.55 0.92
-4.15 0.35 1.43
-4.01 0.38 1.45
-4.22 0.41 1.42
-7.36 0.70 0.90
-6.98 0.69 0.96
-4.70 0.49 1.34
-8.62 0.90 0.69
-8.54 0.94 0.70
-8.12 0.92 0.77
-7.30 0.85 0.90
-8.92 1.07 0.63
-8.03 1.03 0.78
-8.76 1.14 0.66
-8.62 1.17 0.68
-7.69 1.33 0.82
-7.83 1.37 0.80
-8.15 1.44 0.74
-7.63 1.38 0.83
-7.72 1.43 0.81
-7.71 1.59 0.81
-7.70 1.61 0.81
-4.15 0.96 1.40
-4.07 0.95 1.42
-3.96 0.96 1.43
-3.96 0.97 1.43
-4.03 1.00 1.42
-3.84 0.98 1.45
-3.94 1.01 1.43
-3.96 1.06 1.43
-3.88 1.06 1.44
-3.96 1.10 1.43
-3.89 1.09 1.44
-3.44 1.00 1.51
-3.96 1.14 1.42
-4.05 1.18 1.41
-4.11 1.20 1.40
-3.96 1.18 1.42
-4.01 1.20 1.41
-4.16 1.29 1.38
-3.80 1.20 1.45
-4.25 1.35 1.37
-3.78 1.23 1.45
-3.94 1.29 1.42
-3.63 1.22 1.47
-3.62 1.23 1.47
-3.95 1.43 1.41
-1.20 -1.20 1.54
-1.59 -1.30 1.48
-1.28 -1.18 1.53
-1.40 -1.19 1.51
-1.52 -1.21 1.49
-1.62 -1.09 1.48
-3.41 -1.54 1.18
-1.45 -1.01 1.51
-1.56 -1.01 1.49
-1.76 -1.05 1.45
-1.70 -1.02 1.47
-3.57 -1.46 1.15
-3.52 -1.43 1.16
-3.58 -1.43 1.15
-3.37 -1.36 1.19
-3.40 -1.36 1.18
-3.44 -1.35 1.18
-1.72 -0.96 1.46
-3.54 -1.34 1.16
-3.66 -1.35 1.14
-3.54 -1.31 1.16
-2.00 -0.97 1.42
-1.82 -0.92 1.45
-3.46 -1.25 1.18
-3.48 -1.24 1.17
-3.37 -1.20 1.19
-3.28 -1.17 1.21
-3.30 -1.16 1.20
-3.16 -1.12 1.23
-3.40 -1.15 1.19
-3.49 -1.16 1.17
-3.52 -1.15 1.17
-3.19 -1.07 1.22
-3.22 -1.06 1.22
-3.18 -1.04 1.22
-3.31 -1.05 1.20
-3.10 -1.00 1.24
-3.33 -1.02 1.20
-3.03 -0.94 1.25
-3.43 -1.00 1.18
-7.97 -1.64 0.43
-8.05 -1.63 0.42
-7.80 -1.57 0.46
-1.81 -0.66 1.45
-7.81 -1.52 0.46
-7.76 -1.49 0.47
-7.73 -1.46 0.48
-4.66 -1.01 0.98
-7.77 -1.41 0.47
-7.61 -1.37 0.50
-7.58 -1.34 0.50
-7.48 -1.30 0.52
-2.14 -0.60 1.40
-3.63 -0.78 1.15
-3.96 -0.80 1.10
-3.92 -0.78 1.10
-4.26 -0.80 1.05
-7.40 -1.15 0.53
-4.48 -0.80 1.01
-7.70 -1.13 0.48
-7.89 -1.13 0.45
-7.67 -1.08 0.49
-4.53 -0.73 1.00
-7.48 -1.01 0.52
-7.41 -0.98 0.53
-7.19 -0.93 0.57
-1.78 -0.41 1.46
-6.25 -0.80 0.72
-1.86 -0.40 1.44
-6.07 -0.74 0.75
-1.91 -0.38 1.43
-6.40 -0.73 0.70
-6.41 -0.71 0.69
-2.08 -0.36 1.41
-2.24 -0.36 1.38
-7.41 -0.72 0.53
-6.00 -0.59 0.76
-7.05 -0.64 0.59
-6.17 -0.56 0.73
-6.20 -0.55 0.73
-6.15 -0.52 0.74
-6.17 -0.50 0.73
-7.58 -0.44 0.88
-7.36 -0.40 0.92
-7.44 -0.39 0.91
-7.60 -0.38 0.88
-7.59 -0.36 0.88
-7.34 -0.33 0.92
-7.17 -0.31 0.95
-7.00 -0.28 0.98
-6.90 -0.26 0.99
-7.31 -0.26 0.93
-7.17 -0.23 0.95
-7.58 -0.23 0.88
-6.54 -0.18 1.05
-6.35 -0.16 1.08
-6.43 -0.15 1.07
-6.67 -0.13 1.03
-6.49 -0.11 1.06
-6.99 -0.11 0.98
-6.62 -0.08 1.04
-6.82 -0.07 1.00
-7.06 -0.05 0.96
-6.89 -0.03 0.99
-6.75 -0.02 1.01
-4.30 0.02 0.98
-1.60 0.02 1.45
-6.27 0.05 1.04
-6.33 0.06 1.03
-6.48 0.08 1.00
-6.38 0.10 1.02
-6.33 0.11 1.03
-6.20 0.12 1.05
-6.26 0.14 1.04
-6.16 0.15 1.06
-6.52 0.18 1.00
-6.23 0.19 1.05
-6.55 0.21 0.99
-6.56 0.23 0.99
-6.67 0.25 0.97
-7.23 0.31 0.87
-6.71 0.32 0.96
-6.64 0.33 0.97
-6.78 0.36 0.95
-6.88 0.38 0.93
-6.80 0.39 0.94
-6.91 0.42 0.92
-7.07 0.44 0.90
-6.83 0.45 0.94
-6.90 0.48 0.92
-8.14 0.65 0.71
-7.32 0.62 0.85
-7.86 0.71 0.75
-7.33 0.68 0.84
-8.31 0.83 0.67
-4.28 0.52 1.37
-4.40 0.54 1.35
-7.93 1.10 0.73
-7.82 1.16 0.74
-4.82 0.75 1.27
-3.94 0.64 1.42
-7.60 1.23 0.78
-4.43 0.79 1.33
-8.08 1.41 0.69
-6.97 1.24 0.89
-7.70 1.42 0.75
-7.93 1.48 0.71
-4.15 0.84 1.38
-4.23 0.86 1.36
-4.14 0.87 1.38
-7.74 1.57 0.74
-4.27 0.92 1.35
-7.75 1.64 0.73
-4.08 0.92 1.38
-4.34 0.98 1.34
-3.95 0.92 1.40
-4.17 0.98 1.37
-4.02 0.96 1.39
-4.05 0.98 1.38
-4.27 1.04 1.35
-3.90 0.97 1.41
-4.21 1.05 1.35
-3.81 0.98 1.42
-4.00 1.03 1.39
-4.30 1.12 1.34
-3.85 1.02 1.42
-4.04 1.08 1.38
-3.73 1.01 1.44
-3.77 1.03 1.43
-3.82 1.06 1.42
-4.06 1.13 1.38
-3.92 1.11 1.40
-3.84 1.09 1.41
-3.93 1.13 1.40
-3.84 1.12 1.41
-3.26 0.98 1.51
-3.82 1.14 1.41
-3.92 1.17 1.39
-3.89 1.18 1.40
-4.02 1.22 1.37
-3.84 1.18 1.41
-3.72 1.16 1.43
-3.68 1.16 1.43
-3.75 1.19 1.42
-3.82 1.22 1.41
-3.52 1.15 1.46
-3.65 1.20 1.44
-3.63 1.20 1.44
-3.84 1.28 1.40
-3.76 1.26 1.41
-3.74 1.27 1.42
-3.64 1.25 1.44
-3.83 1.32 1.40
-3.75 1.30 1.41
-3.68 1.33 1.42
-3.78 1.37 1.40
-3.84 1.40 1.39
-3.79 1.41 1.40
-3.72 1.41 1.41
-4.13 1.58 1.33
-4.20 1.62 1.32
-4.01 1.59 1.35
-4.04 1.67 1.34
-0.13 -1.37 1.69
-0.52 -1.55 1.61
-0.36 -1.44 1.64
-0.90 -1.67 1.54
-0.40 -1.31 1.64
-0.23 -1.22 1.68
-0.50 -1.30 1.63
-0.55 -1.31 1.62
-0.55 -1.29 1.62
-0.66 -1.33 1.60
-0.47 -1.24 1.64
-2.04 -1.61 1.36
-1.53 -1.18 1.46
-1.21 -1.08 1.52
-1.68 -1.20 1.43
-1.49 -1.12 1.47
-0.89 -0.95 1.57
-1.44 -1.08 1.48
-1.35 -1.04 1.49
-1.57 -1.09 1.45
-1.65 -1.10 1.44
-3.50 -1.57 1.11
-1.54 -1.04 1.46
-3.42 -1.49 1.13
-1.70 -1.05 1.43
-1.68 -1.04 1.44
-1.78 -1.05 1.42
-1.70 -1.02 1.43
-3.17 -1.34 1.18
-3.38 -1.36 1.14
-3.32 -1.33 1.15
-1.58 -0.93 1.46
-1.81 -0.97 1.42
-1.87 -0.97 1.41
-3.43 -1.29 1.13
-3.27 -1.22 1.16
-3.11 -1.18 1.19
-3.24 -1.19 1.17
-3.27 -1.18 1.16
-3.22 -1.16 1.17
-3.06 -1.10 1.20
-2.04 -0.88 1.38
-3.23 -1.09 1.17
-3.08 -1.05 1.20
-3.00 -1.02 1.21
-3.00 -1.01 1.21
-3.24 -1.02 1.17
-3.03 -0.95 1.21
-3.12 -0.96 1.19
-3.13 -0.94 1.19
-2.91 -0.90 1.23
-2.88 -0.86 1.23
-7.98 -1.64 0.35
-2.34 -0.74 1.33
-8.02 -1.57 0.34
-7.83 -1.52 0.38
-7.66 -1.47 0.41
-2.22 -0.68 1.35
-7.58 -1.38 0.42
-1.76 -0.57 1.43
-7.45 -1.29 0.44
-7.32 -1.25 0.47
-3.60 -0.77 1.11
-2.17 -0.58 1.36
-3.08 -0.66 1.20
-2.10 -0.52 1.37
-7.70 -1.10 0.40
-7.75 -1.08 0.39
-7.24 -1.01 0.48
-6.64 -0.90 0.58
-6.56 -0.85 0.60
-2.16 -0.43 1.36
-2.18 -0.42 1.36
-1.90 -0.39 1.40
-1.74 -0.36 1.43
-2.38 -0.39 1.32
-2.33 -0.37 1.33
-6.18 -0.63 0.66
-1.70 -0.30 1.44
-6.17 -0.58 0.67
-6.09 -0.56 0.68
-5.67 -0.49 0.75
-6.00 -0.47 0.70
-5.81 -0.44 0.73
-5.60 -0.41 0.76
-2.04 -0.22 1.38
-5.89 -0.38 0.71
-6.30 -0.36 0.64
-5.94 -0.30 0.70
-5.92 -0.28 0.71
-5.98 -0.27 0.70
-2.06 -0.13 1.37
-1.65 -0.11 1.44
-6.03 -0.19 0.69
-4.46 -0.12 0.96
-4.56 -0.10 0.94
-1.28 -0.05 1.50
-4.88 -0.07 0.89
-4.80 -0.05 0.90
-1.34 -0.01 1.49
-6.52 -0.00 0.94
-6.52 0.02 0.94
-6.48 0.03 0.95
-6.43 0.05 0.96
-6.43 0.06 0.96
-6.40 0.08 0.96
-6.46 0.10 0.95
-6.39 0.11 0.96
-6.21 0.12 1.00
-6.21 0.14 0.99
-6.31 0.16 0.98
-6.27 0.17 0.98
-6.19 0.19 1.00
-5.93 0.19 1.04
-6.10 0.22 1.01
-6.20 0.23 0.99
-6.68 0.27 0.91
-6.62 0.28 0.92
-7.20 0.32 0.81
-6.83 0.33 0.88
-6.81 0.34 0.88
-6.99 0.37 0.85
-6.87 0.38 0.87
-6.80 0.39 0.88
-6.84 0.41 0.88
-7.14 0.45 0.82
-7.04 0.46 0.84
-6.85 0.46 0.87
-7.06 0.50 0.83
-7.23 0.53 0.80
-7.10 0.53 0.83
-7.07 0.55 0.83
-7.04 0.57 0.83
-7.13 0.59 0.82
-7.15 0.61 0.81
-7.00 0.62 0.84
-7.22 0.65 0.80
-6.97 0.65 0.84
-8.29 0.79 0.61
-7.88 0.77 0.68
-5.14 0.53 1.18
-5.63 0.59 1.09
-5.19 0.56 1.17
-4.92 0.55 1.21
-5.31 0.60 1.14
-4.74 0.55 1.25
-7.56 0.87 0.73
-5.12 0.62 1.18
-8.16 0.98 0.62
-4.77 0.61 1.24
-6.50 0.82 0.92
-7.18 0.92 0.80
-4.65 0.63 1.26
-7.51 1.00 0.74
-7.44 1.01 0.75
-4.54 0.65 1.28
-8.09 1.14 0.63
-4.68 0.70 1.25
-7.94 1.16 0.66
-4.62 0.71 1.26
-7.75 1.17 0.69
-5.25 0.83 1.14
-4.69 0.76 1.25
-4.49 0.74 1.28
-5.05 0.84 1.18
-4.96 0.84 1.20
-8.13 1.35 0.61
-8.15 1.38 0.61
-8.26 1.41 0.59
-7.72 1.35 0.69
-7.75 1.37 0.68
-7.59 1.37 0.71
-8.07 1.47 0.62
-7.67 1.42 0.69
-7.70 1.44 0.68
-7.74 1.47 0.68
-4.43 0.89 1.28
-7.62 1.49 0.70
-7.62 1.51 0.70
-4.66 0.97 1.24
-6.23 1.28 0.95
-7.49 1.54 0.72
-6.95 1.46 0.82
-6.24 1.33 0.95
-7.66 1.64 0.68
-7.76 1.68 0.66
-7.68 1.68 0.68
-7.59 1.68 0.69
-4.39 1.03 1.29
-4.81 1.13 1.21
-5.77 1.35 1.03
-5.59 1.36 1.06
-4.88 1.21 1.19
-4.71 1.19 1.22
-4.73 1.20 1.22
-5.07 1.34 1.15
-5.98 1.58 0.98
-6.18 1.66 0.94
-6.16 1.67 0.94
-4.34 1.22 1.28
-4.27 1.22 1.29
-4.76 1.36 1.20
-4.30 1.25 1.29
-5.85 1.67 0.99
-4.07 1.33 1.32
-3.17 -1.63 1.12
-3.37 -1.64 1.08
-3.40 -1.64 1.08
-3.48 -1.64 1.06
-3.70 -1.67 1.03
-3.39 -1.58 1.08
-3.52 -1.59 1.06
-3.36 -1.54 1.09
-3.35 -1.52 1.09
-3.55 -1.56 1.05
-3.56 -1.54 1.05
-3.37 -1.47 1.09
-3.54 -1.48 1.06
-3.33 -1.41 1.10
-3.38 -1.41 1.09
-3.52 -1.43 1.06
-3.42 -1.39 1.08
-3.58 -1.40 1.05
-3.41 -1.33 1.09
-3.43 -1.32 1.08
-3.33 -1.28 1.10
-3.31 -1.26 1.10
-3.15 -1.21 1.13
-3.38 -1.25 1.09
-3.27 -1.21 1.11
-3.31 -1.19 1.10
-3.23 -1.16 1.12
-3.35 -1.17 1.10
-3.34 -1.15 1.10
-3.36 -1.14 1.10
-3.42 -1.14 1.09
-3.48 -1.14 1.08
-3.43 -1.10 1.09
-3.54 -1.10 1.06
-3.46 -1.07 1.08
-3.47 -1.06 1.08
-3.41 -1.04 1.09
-3.12 -0.96 1.14
-3.37 -0.97 1.10
-3.40 -0.96 1.09
-3.50 -0.96 1.07
-3.47 -0.94 1.08
-3.45 -0.93 1.08
-3.63 -0.92 1.05
-4.29 -1.00 0.93
-4.77 -1.06 0.84
-4.33 -0.98 0.93
-4.14 -0.93 0.96
-3.89 -0.88 1.00
-3.67 -0.84 1.04
-3.91 -0.84 1.00
-3.71 -0.78 1.04
-3.90 -0.79 1.00
-3.79 -0.76 1.02
-3.92 -0.76 1.00
-4.13 -0.77 0.96
-4.12 -0.75 0.96
-4.07 -0.73 0.97
-4.06 -0.72 0.97
-4.01 -0.69 0.98
-4.17 -0.70 0.96
-4.67 -0.73 0.86
-4.62 -0.71 0.87
-4.58 -0.69 0.88
-3.73 -0.59 1.03
-6.05 -0.78 0.62
-6.11 -0.77 0.61
-6.12 -0.75 0.60
-6.07 -0.72 0.61
-4.44 -0.57 0.91
-6.42 -0.71 0.55
-6.42 -0.69 0.55
-5.98 -0.63 0.63
-5.84 -0.60 0.65
-5.96 -0.59 0.63
-5.92 -0.57 0.64
-5.81 -0.54 0.66
-5.64 -0.51 0.69
-5.86 -0.50 0.65
-5.66 -0.47 0.68
-5.78 -0.46 0.66
-5.84 -0.44 0.65
-5.57 -0.41 0.70
-5.44 -0.38 0.73
-2.68 -0.24 1.22
-5.77 -0.36 0.66
-5.94 -0.35 0.63
-5.90 -0.32 0.64
-5.75 -0.30 0.67
-5.86 -0.28 0.65
-5.76 -0.26 0.67
-5.84 -0.24 0.65
-5.92 -0.22 0.64
-5.80 -0.20 0.66
-4.61 -0.16 0.87
-5.67 -0.16 0.68
-7.01 -0.11 0.85
-6.67 -0.08 0.92
-7.08 -0.07 0.84
-6.61 -0.05 0.93
-6.43 -0.03 0.96
-6.50 -0.02 0.95
-4.44 -0.00 0.84
-4.40 0.02 0.85
-5.35 0.04 0.67
-4.78 0.05 0.78
-4.53 0.07 0.82
-4.62 0.09 0.81
-4.73 0.10 0.78
-4.65 0.12 0.80
-5.20 0.15 0.70
-4.79 0.16 0.77
-4.09 0.16 0.90
-6.30 0.17 0.92
-6.01 0.18 0.98
-5.96 0.19 0.99
-6.23 0.22 0.93
-5.97 0.22 0.98
-6.69 0.27 0.85
-7.01 0.31 0.79
-6.80 0.32 0.82
-6.97 0.35 0.79
-7.07 0.37 0.77
-6.70 0.37 0.84
-7.02 0.40 0.78
-7.24 0.43 0.74
-6.89 0.45 0.80
-7.34 0.51 0.72
-8.06 0.58 0.58
-7.17 0.54 0.75
-7.12 0.55 0.76
-8.01 0.64 0.59
-8.13 0.67 0.56
-8.81 0.76 0.43
-7.96 0.71 0.60
-7.71 0.71 0.64
-7.83 0.76 0.62
-3.94 0.42 1.36
-7.96 0.83 0.59
-4.24 0.48 1.30
-4.20 0.48 1.31
-4.11 0.48 1.32
-4.20 0.50 1.31
-4.19 0.53 1.31
-4.11 0.53 1.32
-4.16 0.54 1.31
-4.18 0.56 1.31
-4.19 0.57 1.31
-4.15 0.58 1.31
-4.20 0.59 1.30
-4.24 0.61 1.29
-4.13 0.61 1.31
-4.12 0.62 1.32
-4.20 0.64 1.30
-4.20 0.65 1.30
-4.17 0.66 1.30
-4.14 0.66 1.31
-4.27 0.69 1.28
-8.23 1.34 0.52
-8.37 1.39 0.49
-8.13 1.39 0.54
-8.00 1.39 0.56
-7.65 1.35 0.63
-7.68 1.38 0.62
-7.61 1.43 0.63
-4.32 0.91 1.26
-4.38 0.94 1.25
-4.34 0.94 1.26
-7.46 1.57 0.65
-3.81 0.89 1.36
-3.82 0.90 1.35
-3.89 0.96 1.34
-3.80 0.96 1.35
-3.83 0.98 1.35
-3.81 0.99 1.35
-4.12 1.07 1.29
-4.08 1.07 1.30
-4.08 1.08 1.30
-3.85 1.05 1.34
-3.78 1.05 1.35
-3.95 1.10 1.32
-3.97 1.12 1.31
-3.74 1.07 1.36
-3.87 1.11 1.33
-3.80 1.10 1.35
-4.14 1.20 1.28
-3.53 1.06 1.40
-3.75 1.13 1.35
-3.78 1.14 1.35
-3.68 1.13 1.37
-3.66 1.13 1.37
-3.70 1.16 1.36
-3.90 1.22 1.32
-3.65 1.16 1.37
-3.87 1.23 1.32
-3.75 1.23 1.35
-3.75 1.24 1.35
-3.62 1.21 1.37
-3.52 1.19 1.39
-3.57 1.23 1.38
-3.58 1.24 1.37
-3.57 1.25 1.38
-3.86 1.35 1.32
-3.76 1.33 1.34
-3.50 1.26 1.39
-4.13 1.47 1.26
-3.81 1.38 1.32
-3.87 1.41 1.31
-3.89 1.43 1.30
-4.25 1.56 1.23
-3.81 1.42 1.32
-3.97 1.49 1.29
-3.69 1.41 1.34
-3.78 1.45 1.32
-0.27 -1.51 1.60
-0.49 -1.53 1.56
-0.52 -1.53 1.56
-0.61 -1.57 1.54
-0.74 -1.62 1.51
-0.61 -1.54 1.54
-0.65 -1.55 1.53
-0.69 -1.56 1.53
-0.57 -1.49 1.55
-0.55 -1.45 1.56
-0.60 -1.44 1.55
-0.77 -1.51 1.51
-0.77 -1.50 1.52
-0.61 -1.40 1.55
-0.63 -1.40 1.54
-0.80 -1.47 1.51
-0.83 -1.48 1.50
-0.82 -1.45 1.51
-1.06 -1.55 1.46
-0.64 -1.34 1.55
-0.41 -1.23 1.59
-0.73 -1.34 1.53
-1.01 -1.44 1.48
-0.70 -1.30 1.54
-0.62 -1.26 1.55
-1.82 -1.60 1.32
-1.58 -1.35 1.37
-1.13 -1.08 1.47
-1.35 -1.13 1.42
-1.33 -1.09 1.43
-1.43 -1.11 1.41
-1.64 -1.16 1.37
-1.36 -1.07 1.42
-3.30 -1.59 1.05
-2.03 -1.21 1.30
-1.93 -1.17 1.32
-2.12 -1.21 1.28
-1.81 -1.11 1.34
-1.94 -1.13 1.31
-1.96 -1.13 1.31
-3.00 -1.37 1.11
-3.10 -1.38 1.09
-3.40 -1.44 1.03
-3.14 -1.36 1.08
-3.43 -1.42 1.03
-1.71 -1.00 1.36
-1.84 -1.02 1.33
-1.95 -1.03 1.31
-1.99 -1.03 1.31
-3.08 -1.27 1.10
-3.10 -1.26 1.09
-2.96 -1.21 1.12
-2.87 -1.18 1.14
-2.93 -1.18 1.13
-3.17 -1.22 1.08
-2.24 -1.01 1.26
-2.01 -0.95 1.30
-2.56 -1.05 1.20
-2.35 -1.00 1.24
-2.40 -0.99 1.23
-1.91 -0.88 1.33
-2.23 -0.93 1.26
-1.78 -0.84 1.35
-2.93 -1.04 1.13
-2.89 -1.02 1.14
-2.11 -0.87 1.29
-2.81 -0.98 1.15
-1.69 -0.77 1.37
-1.86 -0.79 1.34
-3.00 -0.98 1.12
-2.60 -0.89 1.19
-1.84 -0.75 1.34
-2.75 -0.89 1.17
-2.75 -0.88 1.16
-2.69 -0.86 1.18
-2.68 -0.84 1.18
-2.91 -0.87 1.14
-2.77 -0.83 1.16
-2.59 -0.79 1.20
-2.46 -0.76 1.22
-2.36 -0.73 1.24
-2.59 -0.76 1.20
-2.79 -0.77 1.16
-2.34 -0.70 1.24
-2.61 -0.72 1.19
-2.47 -0.69 1.22
-2.29 -0.64 1.25
-3.29 -0.76 1.06
-3.29 -0.74 1.06
-3.40 -0.74 1.04
-2.77 -0.65 1.16
-1.74 -0.51 1.36
-3.26 -0.67 1.07
-2.53 -0.58 1.21
-3.98 -0.72 0.94
-3.62 -0.67 1.00
-4.04 -0.70 0.92
-3.95 -0.67 0.94
-2.25 -0.49 1.26
-1.86 -0.42 1.34
-3.66 -0.55 0.99
-1.79 -0.38 1.35
-6.02 -0.72 0.55
-2.19 -0.39 1.27
-6.19 -0.67 0.52
-5.91 -0.63 0.57
-5.99 -0.61 0.55
-5.99 -0.59 0.55
-1.98 -0.31 1.31
-1.96 -0.29 1.32
-2.55 -0.32 1.20
-2.44 -0.30 1.22
-2.51 -0.29 1.21
-2.28 -0.27 1.25
-2.27 -0.26 1.26
-2.40 -0.25 1.23
-5.72 -0.40 0.60
-5.68 -0.38 0.61
-2.51 -0.22 1.21
-2.07 -0.19 1.29
-6.12 -0.33 0.53
-5.91 -0.28 0.57
-5.89 -0.26 0.57
-2.56 -0.15 1.20
-3.51 -0.16 1.02
-6.18 -0.21 0.51
-6.01 -0.19 0.55
-5.75 -0.16 0.60
-5.75 -0.14 0.60
-5.41 -0.12 0.66
-5.39 -0.10 0.66
-6.24 -0.09 0.50
-1.65 -0.03 1.37
-6.32 -0.04 0.49
-1.62 -0.01 1.38
-5.98 -0.00 0.93
-6.04 0.01 0.91
-7.03 0.03 0.72
-6.19 0.05 0.88
-6.08 0.06 0.91
-5.93 0.07 0.93
-6.22 0.09 0.88
-6.31 0.11 0.86
-6.30 0.13 0.86
-6.35 0.14 0.85
-6.32 0.16 0.86
-6.28 0.17 0.86
-6.34 0.19 0.85
-6.44 0.21 0.83
-6.39 0.22 0.84
-6.23 0.23 0.87
-6.00 0.24 0.92
-6.33 0.27 0.85
-6.07 0.28 0.90
-6.47 0.31 0.82
-6.44 0.32 0.83
-6.47 0.34 0.82
-6.77 0.37 0.76
-6.51 0.38 0.81
-6.33 0.38 0.85
-6.88 0.43 0.74
-7.02 0.46 0.71
-6.89 0.47 0.74
-6.88 0.48 0.74
-6.69 0.49 0.77
-6.76 0.51 0.76
-6.88 0.54 0.74
-7.23 0.58 0.67
-7.07 0.59 0.70
-7.40 0.63 0.63
-7.26 0.64 0.66
-7.11 0.64 0.69
-7.36 0.68 0.64
-7.28 0.69 0.65
-7.77 0.76 0.55
-7.68 0.77 0.57
-7.55 0.78 0.60
-7.48 0.79 0.61
-4.83 0.54 1.14
-7.39 0.82 0.63
-7.67 0.87 0.57
-7.47 0.86 0.61
-7.32 0.87 0.64
-7.29 0.88 0.64
-7.59 0.93 0.58
-4.72 0.61 1.16
-4.52 0.60 1.20
-4.62 0.63 1.17
-4.56 0.63 1.18
-4.65 0.65 1.17
-4.96 0.71 1.10
-4.94 0.72 1.11
-4.63 0.69 1.17
-5.17 0.78 1.06
-4.61 0.71 1.17
-4.50 0.71 1.19
-4.61 0.74 1.17
-4.37 0.71 1.22
-4.54 0.75 1.18
-8.26 1.33 0.44
-4.60 0.78 1.17
-6.38 1.08 0.81
-7.83 1.39 0.52
-7.69 1.38 0.54
-7.57 1.38 0.57
-7.36 1.36 0.61
-6.46 1.22 0.79
-4.95 0.97 1.09
-7.03 1.36 0.67
-6.32 1.25 0.81
-7.05 1.40 0.67
-6.29 1.28 0.82
-7.67 1.56 0.54
-4.64 0.99 1.15
-6.53 1.38 0.77
-7.64 1.61 0.54
-7.62 1.63 0.54
-7.54 1.63 0.56
-4.66 1.06 1.14
-6.30 1.41 0.81
-6.16 1.45 0.83
-5.86 1.40 0.89
-4.48 1.12 1.17
-4.56 1.15 1.16
-5.45 1.39 0.97
-4.97 1.29 1.07
-4.50 1.20 1.16
-4.75 1.28 1.11
-5.35 1.45 0.99
-5.77 1.57 0.90
-5.90 1.62 0.87
-5.83 1.62 0.88
-4.91 1.43 1.07
-4.28 1.28 1.20
-4.57 1.38 1.14
-4.38 1.34 1.18
-4.12 1.28 1.23
-4.06 1.27 1.24
-4.30 1.35 1.19
-4.23 1.35 1.20
-4.35 1.39 1.18
-3.41 -1.64 0.97
-3.35 -1.61 0.98
-3.39 -1.61 0.97
-3.39 -1.59 0.97
-3.40 -1.58 0.97
-3.40 -1.56 0.97
-3.47 -1.57 0.96
-3.30 -1.51 0.99
-3.29 -1.49 1.00
-3.38 -1.50 0.98
-3.44 -1.50 0.97
-3.28 -1.45 1.00
-3.37 -1.45 0.98
-3.39 -1.44 0.98
-3.32 -1.41 0.99
-3.59 -1.46 0.94
-3.47 -1.42 0.96
-3.52 -1.42 0.95
-3.50 -1.40 0.96
-3.45 -1.37 0.97
-3.36 -1.33 0.99
-3.26 -1.30 1.01
-3.29 -1.29 1.00
-3.26 -1.27 1.01
-3.27 -1.26 1.01
-3.24 -1.24 1.01
-3.25 -1.22 1.01
-3.35 -1.23 0.99
-3.28 -1.20 1.00
-3.22 -1.17 1.02
-3.26 -1.17 1.01
-2.97 -1.10 1.07
-3.14 -1.12 1.03
-3.16 -1.11 1.03
-2.81 -1.03 1.10
-3.13 -1.07 1.04
-3.33 -1.10 1.00
-3.20 -1.06 1.02
-3.17 -1.04 1.03
-3.14 -1.02 1.04
-3.43 -1.06 0.98
-3.18 -1.00 1.03
-3.35 -1.01 0.99
-3.20 -0.97 1.02
-2.96 -0.92 1.07
-3.20 -0.95 1.02
-3.08 -0.91 1.05
-3.13 -0.91 1.04
-3.05 -0.88 1.06
-2.97 -0.86 1.07
-3.05 -0.85 1.06
-3.00 -0.83 1.07
-3.07 -0.83 1.05
-3.01 -0.81 1.06
-2.96 -0.79 1.07
-3.23 -0.81 1.02
-3.03 -0.77 1.06
-4.32 -0.93 0.80
-3.61 -0.82 0.94
-3.38 -0.77 0.99
-3.49 -0.77 0.97
-3.44 -0.75 0.98
-3.52 -0.75 0.96
-3.49 -0.73 0.97
-3.44 -0.71 0.98
-3.48 -0.70 0.97
-3.47 -0.68 0.97
-3.51 -0.67 0.96
-3.75 -0.68 0.92
-4.04 -0.70 0.86
-3.87 -0.67 0.89
-3.95 -0.66 0.88
-3.87 -0.64 0.89
-3.88 -0.62 0.89
-4.04 -0.62 0.86
-4.53 -0.65 0.76
-3.95 -0.58 0.88
-4.07 -0.57 0.85
-3.85 -0.54 0.90
-5.00 -0.60 0.67
-6.38 -0.69 0.40
-6.21 -0.65 0.43
-6.40 -0.65 0.39
-5.87 -0.59 0.50
-5.35 -0.53 0.60
-5.72 -0.54 0.53
-5.84 -0.52 0.50
-5.63 -0.49 0.54
-5.79 -0.48 0.51
-5.80 -0.46 0.51
-5.67 -0.44 0.54
-5.71 -0.42 0.53
-5.49 -0.39 0.57
-5.28 -0.36 0.61
-5.32 -0.34 0.61
-5.44 -0.33 0.58
-5.52 -0.31 0.57
-7.74 -0.29 0.58
-6.39 -0.23 0.85
-6.79 -0.22 0.77
-6.23 -0.19 0.88
-6.17 -0.17 0.89
-6.10 -0.16 0.91
-6.52 -0.15 0.82
-6.48 -0.13 0.83
-7.15 -0.13 0.70
-6.93 -0.11 0.74
-6.90 -0.09 0.75
-7.03 -0.07 0.72
-7.01 -0.05 0.72
-7.11 -0.04 0.70
-7.05 -0.02 0.72
-5.49 -0.00 0.51
-5.64 0.02 0.47
-5.29 0.04 0.55
-6.09 0.06 0.38
-5.71 0.08 0.46
-5.62 0.10 0.48
-5.88 0.14 0.42
-5.86 0.16 0.43
-5.97 0.18 0.40
-5.56 0.21 0.49
-5.69 0.24 0.46
-5.71 0.26 0.46
-5.57 0.27 0.48
-5.40 0.28 0.52
-5.54 0.31 0.49
-5.62 0.28 0.95
-5.56 0.29 0.96
-5.42 0.30 0.99
-5.50 0.32 0.97
-5.91 0.36 0.89
-5.73 0.36 0.92
-5.63 0.38 0.94
-5.15 0.38 1.04
-4.20 0.38 1.23
-7.28 0.78 0.59
-7.62 0.91 0.52
-7.52 0.94 0.53
-4.32 0.60 1.20
-4.45 0.62 1.17
-4.33 0.63 1.19
-4.18 0.64 1.23
-4.40 0.69 1.18
-4.35 0.70 1.19
-4.26 0.72 1.20
-4.55 0.86 1.14
-3.77 0.78 1.30
-7.42 1.51 0.53
-7.68 1.59 0.47
-7.76 1.63 0.45
-7.46 1.59 0.52
-4.51 1.03 1.14
-3.68 0.89 1.31
-3.62 0.89 1.32
-4.01 0.99 1.24
-3.52 0.90 1.34
-3.49 0.90 1.35
-3.31 0.88 1.38
-3.81 1.02 1.28
-3.35 0.93 1.37
-3.73 1.03 1.29
-3.41 0.96 1.36
-3.61 1.02 1.31
-3.25 0.94 1.39
-3.72 1.07 1.29
-3.52 1.03 1.33
-3.55 1.05 1.33
-3.52 1.05 1.33
-3.70 1.11 1.29
-3.55 1.09 1.32
-3.81 1.17 1.26
-3.28 1.04 1.38
-3.67 1.16 1.29
-3.84 1.21 1.26
-3.99 1.27 1.22
-3.59 1.16 1.31
-3.60 1.20 1.30
-3.47 1.17 1.33
-3.48 1.19 1.33
-3.75 1.29 1.27
-0.35 -1.48 1.54
-0.53 -1.55 1.50
-0.40 -1.46 1.53
-0.24 -1.34 1.57
-0.62 -1.46 1.49
-1.59 -1.23 1.30
-1.57 -1.19 1.31
-1.68 -1.12 1.29
-1.89 -1.15 1.25
-1.72 -1.10 1.28
-1.83 -1.11 1.26
-1.80 -1.10 1.26
-1.82 -1.09 1.26
-2.15 -1.15 1.19
-3.00 -1.33 1.02
-1.90 -1.06 1.25
-3.51 -1.42 0.91
-3.43 -1.39 0.92
-2.12 -1.07 1.20
-3.41 -1.34 0.93
-3.16 -1.27 0.98
-2.84 -1.18 1.05
-3.04 -1.22 1.01
-3.31 -1.26 0.95
-3.14 -1.21 0.99
-2.75 -1.11 1.07
-2.82 -1.10 1.06
-2.52 -1.02 1.12
-2.32 -0.96 1.16
-2.35 -0.96 1.16
-2.13 -0.90 1.20
-1.98 -0.86 1.23
-1.75 -0.80 1.28
-1.83 -0.79 1.27
-1.76 -0.77 1.28
-1.56 -0.72 1.32
-1.40 -0.69 1.36
-2.26 -0.82 1.18
-1.70 -0.71 1.29
-2.84 -0.87 1.06
-2.70 -0.83 1.09
-2.55 -0.80 1.12
-2.76 -0.82 1.07
-2.61 -0.78 1.10
-2.57 -0.75 1.11
-2.50 -0.72 1.13
-2.50 -0.71 1.13
-2.40 -0.68 1.15
-2.36 -0.66 1.16
-2.23 -0.63 1.18
-3.18 -0.70 0.99
-1.55 -0.50 1.32
-2.64 -0.61 1.10
-1.99 -0.53 1.23
-2.12 -0.51 1.21
-1.48 -0.40 1.34
-1.70 -0.40 1.29
-2.70 -0.42 1.09
-4.58 -0.45 0.70
-6.06 -0.50 0.39
-6.12 -0.48 0.38
-6.05 -0.43 0.39
-2.22 -0.23 1.19
-5.42 -0.36 0.52
-4.90 -0.32 0.63
-5.54 -0.33 0.50
-5.11 -0.30 0.59
-5.79 -0.30 0.45
-5.84 -0.28 0.44
-5.86 -0.26 0.43
-5.53 -0.23 0.50
-5.79 -0.22 0.45
-6.12 -0.21 0.38
-5.58 -0.18 0.49
-5.56 -0.16 0.49
-4.87 -0.13 0.64
-5.07 -0.11 0.59
-5.00 -0.09 0.61
-5.18 -0.08 0.57
-5.30 -0.06 0.54
-5.85 -0.04 0.43
-5.43 -0.02 0.52
-6.55 -0.00 0.69
-6.07 0.01 0.79
-6.42 0.03 0.72
-6.66 0.05 0.66
-7.03 0.07 0.59
-6.67 0.08 0.66
-6.63 0.10 0.67
-6.84 0.12 0.62
-7.05 0.14 0.58
-6.60 0.15 0.67
-6.60 0.16 0.67
-6.70 0.18 0.65
-6.78 0.20 0.64
-6.66 0.22 0.66
-7.17 0.25 0.55
-6.89 0.26 0.61
-5.67 0.23 0.87
-5.37 0.23 0.94
-6.33 0.29 0.73
-5.57 0.27 0.89
-5.47 0.28 0.91
-5.49 0.29 0.91
-5.74 0.32 0.85
-5.89 0.34 0.82
-6.16 0.37 0.76
-5.84 0.37 0.83
-5.68 0.37 0.87
-5.79 0.40 0.84
-5.60 0.40 0.88
-5.60 0.41 0.88
-5.55 0.42 0.89
-5.62 0.44 0.88
-5.76 0.47 0.85
-5.97 0.50 0.80
-5.90 0.51 0.82
-6.09 0.54 0.77
-6.21 0.57 0.75
-6.29 0.59 0.73
-6.49 0.62 0.68
