# .PCD v0.7 - Point Cloud Data file format
VERSION 0.7
FIELDS x y z
SIZE 4 4 4
TYPE F F F
COUNT 1 1 1
WIDTH 2890
HEIGHT 1
VIEWPOINT 0 0 0 1 0 0 0
POINTS 2890
DATA ASCII
-7.52 0.21 1.70
-7.66 0.24 1.69
-7.59 0.25 1.70
-7.59 0.27 1.70
-7.76 0.30 1.68
-7.89 0.32 1.68
-8.03 0.35 1.67
-7.93 0.36 1.67
-7.86 0.42 1.68
-8.15 0.48 1.66
-9.35 0.56 1.58
-8.18 0.52 1.66
-8.30 0.55 1.65
-8.19 0.58 1.65
-8.26 0.61 1.65
-7.98 0.63 1.67
-7.82 0.65 1.68
-7.66 0.68 1.68
-8.12 0.78 1.66
-9.51 1.41 1.56
-9.38 1.42 1.57
-9.58 1.47 1.55
-6.61 1.15 1.74
-12.04 -1.42 1.28
-11.73 -1.36 1.30
-11.29 -1.28 1.33
-11.72 -1.22 1.30
-11.33 -1.12 1.32
-11.69 -1.12 1.30
-11.43 -1.06 1.32
-11.81 -1.06 1.29
-12.07 -1.04 1.28
-5.07 -0.53 1.71
-4.84 -0.50 1.72
-12.09 -0.94 1.28
-4.91 -0.46 1.72
-12.40 -0.85 1.26
-12.67 -0.83 1.24
-4.84 -0.39 1.72
-12.55 -0.68 1.25
-6.05 -0.27 1.65
-6.27 -0.25 1.63
-5.71 -0.20 1.67
-5.88 -0.14 1.66
-7.42 -0.08 1.71
-7.39 -0.05 1.71
-7.43 -0.03 1.71
-7.41 -0.01 1.71
-6.75 0.05 1.55
-7.10 0.07 1.53
-6.56 0.18 1.56
-7.22 0.24 1.52
-7.60 0.22 1.65
-3.90 0.13 1.90
-4.17 0.15 1.88
-8.12 0.29 1.62
-7.83 0.30 1.64
-7.83 0.38 1.64
-4.05 0.22 1.89
-7.83 0.44 1.64
-8.30 0.54 1.60
-8.39 0.57 1.60
-8.41 0.59 1.59
-8.17 0.62 1.61
-7.98 0.75 1.62
-8.27 0.79 1.60
-8.43 0.83 1.59
-10.42 1.51 1.45
-10.27 1.52 1.46
-1.71 -1.65 1.89
-3.76 -1.61 1.76
-2.25 -0.88 1.86
-2.33 -0.84 1.85
-3.20 -0.97 1.80
-3.16 -0.95 1.80
-2.66 -0.86 1.83
-2.70 -0.80 1.83
-2.02 -0.68 1.87
-1.72 -0.63 1.89
-11.97 -1.10 1.21
-11.85 -1.06 1.22
-4.88 -0.53 1.68
-11.58 -0.97 1.23
-11.76 -0.95 1.22
-12.14 -0.94 1.20
-12.33 -0.88 1.18
-11.74 -0.81 1.22
-12.14 -0.80 1.20
-11.92 -0.75 1.21
-11.42 -0.66 1.24
-12.49 -0.68 1.17
-1.46 -0.13 1.91
-6.16 -0.25 1.59
-7.72 0.01 1.61
-7.62 0.03 1.61
-7.84 0.05 1.60
-7.93 0.07 1.59
-7.69 0.08 1.61
-7.72 0.10 1.60
-7.45 0.12 1.62
-7.50 0.14 1.62
-5.67 0.12 1.75
-7.25 0.17 1.64
-7.48 0.19 1.62
-5.98 0.17 1.73
-7.99 0.25 1.58
-7.87 0.26 1.59
-7.93 0.28 1.59
-7.83 0.30 1.60
-7.74 0.32 1.60
-7.69 0.33 1.60
-6.23 0.29 1.71
-7.83 0.38 1.59
-7.70 0.39 1.60
-6.39 0.35 1.70
-6.92 0.41 1.66
-6.95 0.43 1.65
-7.96 0.51 1.58
-6.76 0.48 1.67
-8.35 0.61 1.55
-6.58 0.51 1.68
-8.28 0.65 1.56
-8.11 0.66 1.57
-8.04 0.67 1.57
-8.04 0.69 1.57
-7.92 0.70 1.58
-8.03 0.73 1.57
-8.60 0.80 1.53
-8.31 0.80 1.55
-7.97 0.79 1.58
-8.39 0.85 1.55
-8.85 0.94 1.51
-6.69 0.82 1.67
-6.20 0.78 1.70
-9.19 1.16 1.48
-9.33 1.22 1.47
-9.45 1.26 1.46
-5.98 0.83 1.72
-6.00 0.85 1.71
-5.69 0.83 1.74
-9.18 1.32 1.48
-10.37 1.69 1.39
-10.07 1.69 1.41
-9.37 1.61 1.46
-8.82 1.61 1.50
-3.86 -1.67 1.71
-3.62 -1.59 1.73
-3.97 -1.65 1.71
-3.87 -1.56 1.71
-4.01 -1.56 1.70
-3.36 -1.39 1.75
-2.98 -1.03 1.78
-4.49 -1.29 1.67
-2.96 -0.96 1.78
-2.71 -0.91 1.80
-3.62 -1.03 1.73
-3.68 -1.02 1.73
-2.47 -0.76 1.82
-3.00 -0.81 1.78
-4.93 -1.06 1.64
-2.88 -0.76 1.79
-1.90 -0.62 1.86
-2.22 -0.64 1.83
-2.76 -0.67 1.80
-5.20 -0.95 1.62
-2.48 -0.60 1.82
-2.09 -0.54 1.84
-2.09 -0.51 1.84
-4.73 -0.77 1.65
-4.96 -0.74 1.64
-11.70 -1.36 1.15
-4.95 -0.70 1.64
-5.09 -0.70 1.63
-4.69 -0.64 1.66
-4.88 -0.64 1.64
-2.09 -0.38 1.84
-11.96 -1.14 1.13
-4.85 -0.57 1.64
-11.88 -1.06 1.14
-5.06 -0.55 1.63
-5.09 -0.53 1.63
-5.04 -0.51 1.63
-4.62 -0.47 1.66
-4.95 -0.47 1.64
-11.56 -0.84 1.16
-4.65 -0.42 1.66
-4.85 -0.41 1.64
-11.26 -0.72 1.18
-11.62 -0.71 1.16
-11.64 -0.67 1.16
-11.70 -0.64 1.15
-12.15 -0.38 1.29
-11.62 -0.30 1.33
-7.40 -0.18 1.63
-7.40 -0.12 1.63
-7.30 -0.08 1.64
-5.08 -0.03 1.79
-7.82 -0.01 1.60
-1.08 0.03 1.90
-6.72 0.16 1.46
-7.04 0.21 1.43
-7.22 0.24 1.42
-7.58 0.34 1.39
-7.83 0.40 1.37
-7.69 0.42 1.38
-7.59 0.44 1.39
-7.83 0.48 1.37
-8.05 0.57 1.53
-8.52 0.77 1.49
-9.07 0.93 1.45
-8.80 0.93 1.47
-8.42 0.91 1.50
-9.26 1.21 1.43
-9.61 1.30 1.40
-1.84 -0.82 1.84
-1.90 -0.80 1.84
-2.18 -0.82 1.82
-2.07 -0.79 1.82
-1.89 -0.75 1.84
-2.02 -0.67 1.83
-10.72 -1.39 1.16
-12.08 -1.11 1.05
-11.93 -1.07 1.06
-11.82 -1.02 1.07
-11.36 -0.96 1.11
-2.01 -0.24 1.83
-5.56 -0.29 1.55
-1.65 -0.14 1.85
-5.91 -0.24 1.52
-6.10 -0.21 1.51
-5.47 -0.17 1.56
-5.64 -0.12 1.54
-1.43 -0.05 1.87
-5.48 0.02 1.70
-5.42 0.03 1.71
-5.40 0.06 1.71
-13.04 0.20 1.08
-5.82 0.11 1.67
-5.47 0.12 1.70
-7.13 0.19 1.56
-7.98 0.23 1.49
-7.90 0.24 1.50
-6.76 0.23 1.59
-7.44 0.27 1.54
-7.97 0.31 1.49
-6.28 0.26 1.63
-3.98 0.18 1.82
-7.78 0.36 1.51
-7.80 0.38 1.51
-7.64 0.39 1.52
-7.58 0.41 1.52
-4.04 0.24 1.82
-7.80 0.46 1.51
-7.95 0.48 1.49
-7.95 0.50 1.49
-4.31 0.30 1.79
-7.85 0.54 1.50
-8.12 0.58 1.48
-8.29 0.61 1.46
-8.04 0.61 1.48
-8.29 0.65 1.46
-8.35 0.68 1.46
-4.02 0.35 1.82
-4.08 0.37 1.81
-8.54 0.75 1.44
-8.69 0.79 1.43
-8.35 0.78 1.45
-8.59 0.82 1.43
-8.99 0.88 1.40
-7.98 0.83 1.48
-8.27 0.88 1.46
-7.92 0.86 1.49
-7.98 0.89 1.48
-8.16 0.93 1.47
-8.28 0.96 1.46
-6.05 0.89 1.64
-8.50 1.42 1.43
-8.47 1.46 1.43
-8.24 1.47 1.45
-8.29 1.52 1.44
-8.51 1.58 1.42
-8.41 1.58 1.43
-8.50 1.62 1.42
-3.01 0.78 1.89
-3.67 1.03 1.83
-3.00 -1.69 1.71
-3.09 -1.54 1.71
-3.06 -1.42 1.71
-3.75 -1.58 1.65
-4.18 -1.67 1.62
-3.79 -1.56 1.65
-3.86 -1.56 1.64
-4.14 -1.61 1.62
-3.29 -1.36 1.69
-3.13 -1.31 1.70
-3.97 -1.49 1.63
-3.94 -1.45 1.64
-3.25 -1.27 1.70
-3.51 -1.31 1.67
-3.95 -1.37 1.64
-3.18 -1.20 1.70
-3.60 -1.27 1.67
-2.93 -1.12 1.72
-3.26 -1.17 1.70
-3.81 -1.26 1.65
-3.31 -1.15 1.69
-2.43 -0.97 1.76
-2.90 -1.05 1.72
-2.42 -0.94 1.76
-3.03 -1.04 1.71
-3.20 -1.06 1.70
-2.60 -0.94 1.75
-1.96 -0.81 1.80
-2.43 -0.88 1.76
-2.25 -0.84 1.78
-2.41 -0.86 1.77
-2.49 -0.86 1.76
-2.00 -0.76 1.80
-2.58 -0.85 1.75
-2.04 -0.75 1.80
-4.04 -1.05 1.63
-2.37 -0.78 1.77
-3.52 -0.94 1.67
-3.46 -0.92 1.68
-3.28 -0.88 1.69
-2.70 -0.78 1.74
-2.49 -0.73 1.76
-2.07 -0.66 1.79
-1.99 -0.64 1.80
-4.33 -0.95 1.61
-1.89 -0.61 1.81
-1.77 -0.58 1.82
-2.03 -0.60 1.80
-2.16 -0.61 1.79
-4.20 -0.83 1.62
-4.09 -0.80 1.63
-2.89 -0.65 1.73
-2.48 -0.56 1.76
-2.64 -0.55 1.75
-2.39 -0.52 1.77
-11.52 -1.38 1.01
-1.89 -0.42 1.81
-5.00 -0.69 1.55
-4.78 -0.65 1.57
-1.73 -0.38 1.82
-2.20 -0.39 1.78
-4.97 -0.60 1.55
-3.13 -0.44 1.70
-2.34 -0.36 1.77
-11.76 -0.99 0.99
-4.96 -0.51 1.55
-2.16 -0.31 1.79
-2.52 -0.32 1.75
-2.84 -0.33 1.73
-1.86 -0.26 1.81
-11.82 -0.66 1.19
-12.10 -0.64 1.16
-11.78 -0.60 1.19
-11.62 -0.56 1.20
-11.75 -0.54 1.19
-11.87 -0.51 1.18
-11.58 -0.47 1.21
-11.64 -0.45 1.20
-11.60 -0.42 1.20
-4.23 -0.15 1.81
-12.09 -0.35 1.16
-4.42 -0.11 1.79
-5.01 -0.08 1.74
-7.96 -0.11 1.50
-4.99 -0.05 1.74
-5.35 -0.02 1.71
-5.44 -0.01 1.71
-13.36 0.14 0.98
-13.13 0.17 1.00
-7.13 0.18 1.53
-8.07 0.23 1.44
-7.37 0.23 1.50
-3.84 0.15 1.81
-7.59 0.29 1.48
-3.87 0.18 1.81
-4.00 0.19 1.80
-5.04 0.26 1.71
-4.13 0.23 1.79
-8.10 0.45 1.44
-6.03 0.36 1.62
-8.18 0.50 1.43
-8.17 0.52 1.43
-8.21 0.54 1.43
-7.99 0.54 1.44
-8.26 0.58 1.42
-8.41 0.61 1.41
-8.36 0.63 1.41
-8.36 0.65 1.41
-8.32 0.67 1.41
-8.54 0.71 1.39
-8.45 0.72 1.40
-8.58 0.75 1.39
-8.51 0.77 1.40
-6.81 0.64 1.55
-8.33 0.84 1.41
-8.45 0.87 1.40
-8.35 0.90 1.41
-8.38 0.95 1.40
-8.84 1.02 1.36
-9.35 1.22 1.31
-8.31 1.41 1.40
-8.68 1.53 1.36
-8.24 1.48 1.40
-8.65 1.58 1.36
-8.79 1.64 1.35
-8.66 1.64 1.36
-3.56 -1.50 1.64
-3.18 -1.39 1.67
-2.49 -0.99 1.73
-2.35 -0.94 1.75
-2.71 -0.97 1.71
-2.03 -0.81 1.77
-1.97 -0.77 1.78
-2.37 -0.82 1.74
-2.04 -0.75 1.77
-2.31 -0.77 1.75
-2.12 -0.70 1.77
-2.12 -0.68 1.77
-2.09 -0.66 1.77
-2.19 -0.65 1.76
-2.17 -0.64 1.76
-1.63 -0.54 1.81
-11.49 -1.17 0.94
-11.19 -1.01 0.96
-11.48 -0.93 0.94
-1.64 -0.27 1.81
-4.84 -0.41 1.52
-2.05 -0.20 1.77
-1.99 -0.19 1.77
-2.24 -0.19 1.75
-1.48 -0.15 1.82
-5.74 -0.28 1.44
-5.61 -0.25 1.45
-5.66 -0.24 1.45
-5.26 -0.19 1.49
-1.41 -0.09 1.82
-2.43 -0.10 1.73
-5.42 -0.13 1.47
-5.44 -0.10 1.47
-5.44 -0.08 1.47
-3.61 -0.02 1.63
-6.12 0.01 1.58
-5.56 0.06 1.63
-6.03 0.10 1.58
-6.97 0.15 1.50
-6.99 0.16 1.49
-7.75 0.20 1.42
-8.01 0.23 1.40
-4.22 0.14 1.75
-7.48 0.25 1.45
-7.47 0.27 1.45
-7.75 0.30 1.42
-7.63 0.31 1.43
-8.04 0.35 1.39
-6.41 0.30 1.54
-4.16 0.21 1.76
-8.16 0.41 1.38
-8.10 0.43 1.39
-8.03 0.45 1.39
-8.12 0.47 1.38
-6.01 0.37 1.58
-8.10 0.51 1.38
-8.23 0.54 1.37
-8.28 0.56 1.37
-8.45 0.60 1.35
-8.30 0.61 1.36
-8.50 0.64 1.34
-8.46 0.66 1.35
-8.38 0.68 1.35
-8.25 0.69 1.37
-8.38 0.72 1.35
-8.28 0.73 1.36
-8.38 0.76 1.35
-8.54 0.80 1.34
-8.60 0.82 1.33
-8.22 0.83 1.37
-8.41 0.87 1.35
-7.91 0.84 1.39
-8.42 0.91 1.35
-8.56 0.99 1.33
-8.28 0.98 1.36
-8.23 1.00 1.36
-3.67 0.55 1.79
-3.69 0.57 1.79
-3.65 0.57 1.79
-8.64 1.29 1.32
-8.62 1.30 1.32
-8.54 1.31 1.33
-3.28 0.57 1.83
-8.44 1.37 1.33
-8.53 1.40 1.32
-8.55 1.43 1.32
-8.65 1.46 1.31
-8.57 1.56 1.32
-8.64 1.60 1.31
-6.03 1.17 1.56
-3.76 0.77 1.78
-8.46 1.67 1.32
-2.90 -1.68 1.66
-2.80 -1.57 1.67
-3.59 -1.60 1.59
-3.13 -1.45 1.64
-3.73 -1.59 1.58
-3.41 -1.48 1.61
-3.45 -1.41 1.61
-3.41 -1.20 1.61
-3.65 -1.21 1.59
-2.84 -0.98 1.67
-2.46 -0.81 1.70
-2.24 -0.77 1.72
-2.53 -0.80 1.70
-3.93 -1.00 1.57
-9.19 -1.58 1.07
-2.21 -0.64 1.73
-2.54 -0.63 1.70
-2.32 -0.52 1.72
-2.90 -0.57 1.66
-4.23 -0.65 1.54
-11.62 -1.25 0.84
-3.10 -0.48 1.64
-5.43 -0.65 1.42
-2.35 -0.39 1.71
-11.78 -1.06 0.83
-11.35 -0.99 0.87
-5.20 -0.50 1.45
-5.20 -0.48 1.45
-4.97 -0.42 1.47
-4.83 -0.39 1.48
-2.54 -0.24 1.69
-2.72 -0.23 1.68
-4.81 -0.30 1.48
-5.10 -0.29 1.45
-5.23 -0.28 1.44
-5.37 -0.27 1.43
-5.79 -0.24 1.39
-2.39 -0.13 1.71
-6.00 -0.20 1.37
-6.12 -0.19 1.36
-5.17 -0.15 1.45
-5.41 -0.09 1.64
-5.12 -0.06 1.67
-7.91 -0.07 1.41
-7.87 -0.05 1.41
-6.17 -0.03 1.57
-5.86 -0.00 1.33
-7.46 0.05 1.17
-6.29 0.06 1.28
-6.14 0.08 1.30
-6.36 0.13 1.28
-3.97 0.11 1.52
-6.40 0.17 1.27
-7.01 0.21 1.21
-4.93 0.13 1.66
-8.08 0.23 1.34
-4.30 0.14 1.72
-7.26 0.24 1.42
-4.00 0.16 1.75
-3.89 0.17 1.76
-3.96 0.18 1.75
-3.95 0.19 1.75
-7.97 0.38 1.35
-4.50 0.24 1.70
-4.02 0.22 1.74
-4.04 0.24 1.74
-8.21 0.50 1.32
-8.33 0.52 1.31
-8.45 0.55 1.30
-4.16 0.30 1.73
-8.43 0.59 1.30
-8.53 0.62 1.29
-8.55 0.64 1.29
-8.69 0.67 1.27
-8.60 0.69 1.28
-8.41 0.70 1.30
-8.29 0.71 1.31
-8.41 0.74 1.30
-8.33 0.75 1.31
-8.32 0.77 1.31
-8.48 0.81 1.29
-8.52 0.83 1.29
-8.16 0.82 1.32
-8.30 0.85 1.31
-8.15 0.86 1.32
-8.21 0.89 1.32
-8.18 0.91 1.32
-8.48 0.96 1.29
-8.73 1.01 1.26
-8.42 0.99 1.29
-8.26 1.00 1.31
-8.23 1.02 1.31
-8.52 1.07 1.28
-8.77 1.12 1.25
-8.90 1.16 1.24
-9.05 1.25 1.22
-3.61 0.55 1.78
-8.57 1.27 1.27
-8.70 1.31 1.26
-8.58 1.32 1.27
-8.83 1.38 1.24
-8.60 1.36 1.27
-8.47 1.37 1.28
-8.42 1.38 1.28
-8.33 1.39 1.29
-8.63 1.46 1.26
-8.72 1.52 1.25
-8.83 1.56 1.24
-8.82 1.58 1.24
-8.71 1.58 1.25
-8.60 1.59 1.26
-8.49 1.59 1.27
-8.62 1.63 1.26
-0.85 -1.36 1.83
-0.63 -1.26 1.85
-3.14 -1.61 1.60
-2.91 -1.46 1.63
-3.59 -1.50 1.56
-3.22 -1.39 1.59
-3.45 -1.38 1.57
-4.56 -1.60 1.46
-3.13 -1.24 1.61
-3.13 -1.18 1.61
-4.75 -1.48 1.44
-3.29 -1.17 1.59
-1.97 -0.90 1.72
-3.06 -1.10 1.61
-2.52 -0.98 1.67
-2.12 -0.89 1.71
-2.74 -1.00 1.65
-2.05 -0.86 1.72
-2.95 -1.01 1.63
-2.34 -0.89 1.69
-2.90 -0.97 1.63
-2.99 -0.98 1.62
-2.72 -0.92 1.65
-3.26 -1.00 1.59
-1.87 -0.75 1.73
-1.87 -0.73 1.73
-1.98 -0.73 1.72
-1.90 -0.71 1.73
-1.73 -0.66 1.75
-2.19 -0.72 1.70
-1.84 -0.66 1.74
-1.83 -0.65 1.74
-1.77 -0.63 1.74
-1.84 -0.63 1.74
-1.74 -0.60 1.75
-1.96 -0.62 1.72
-1.81 -0.59 1.74
-1.92 -0.60 1.73
-9.17 -1.49 1.00
-9.18 -1.43 1.00
-1.76 -0.43 1.74
-4.78 -0.70 1.44
-4.78 -0.69 1.44
-8.02 -0.96 1.12
-8.30 -0.96 1.09
-5.09 -0.66 1.41
-4.74 -0.61 1.45
-11.59 -1.15 0.76
-11.32 -1.02 0.79
-11.10 -0.94 0.81
-1.17 -0.25 1.80
-4.71 -0.45 1.45
-4.70 -0.44 1.45
-1.31 -0.23 1.79
-1.61 -0.22 1.76
-2.10 -0.24 1.71
-5.24 -0.37 1.39
-2.13 -0.22 1.71
-2.49 -0.22 1.67
-2.38 -0.20 1.68
-2.30 -0.19 1.69
-2.59 -0.19 1.66
-2.64 -0.18 1.65
-2.15 -0.15 1.70
-4.80 -0.21 1.44
-3.28 -0.16 1.59
-2.84 -0.13 1.63
-1.66 -0.09 1.75
-2.20 -0.09 1.70
-1.93 -0.08 1.72
-3.68 -0.09 1.55
-2.36 -0.06 1.68
-1.81 -0.04 1.74
-6.20 -0.04 1.29
-1.96 -0.01 1.72
-7.28 0.01 1.37
-7.24 0.02 1.38
-7.61 0.04 1.34
-7.12 0.06 1.39
-6.92 0.07 1.41
-6.85 0.09 1.42
-6.62 0.11 1.44
-6.70 0.12 1.43
-6.85 0.14 1.42
-5.47 0.13 1.56
-7.14 0.18 1.38
-5.26 0.15 1.58
-5.31 0.17 1.58
-5.34 0.18 1.57
-7.15 0.26 1.38
-7.14 0.27 1.38
-8.03 0.33 1.29
-7.56 0.33 1.34
-7.87 0.36 1.30
-8.08 0.39 1.28
-8.11 0.41 1.28
-8.16 0.43 1.27
-8.38 0.46 1.25
-4.20 0.26 1.69
-4.17 0.27 1.70
-8.69 0.57 1.21
-8.93 0.61 1.19
-8.69 0.61 1.21
-6.04 0.45 1.50
-6.01 0.46 1.50
-8.69 0.68 1.21
-8.79 0.71 1.20
-8.94 0.74 1.18
-8.71 0.74 1.21
-8.22 0.72 1.26
-8.33 0.76 1.25
-6.29 0.60 1.47
-8.29 0.79 1.25
-8.22 0.81 1.26
-8.20 0.83 1.26
-8.15 0.84 1.26
-8.48 0.90 1.23
-8.11 0.88 1.27
-8.19 0.91 1.26
-8.48 0.96 1.23
-8.13 0.94 1.26
-3.88 0.49 1.72
-8.53 1.03 1.22
-8.40 1.04 1.23
-8.09 1.02 1.27
-3.97 0.54 1.71
-8.22 1.08 1.25
-8.61 1.15 1.21
-9.05 1.23 1.16
-9.12 1.26 1.15
-8.93 1.26 1.17
-8.36 1.20 1.23
-8.47 1.24 1.22
-8.63 1.28 1.20
-8.71 1.32 1.19
-8.63 1.33 1.20
-8.55 1.34 1.21
-8.61 1.37 1.20
-8.61 1.39 1.20
-8.56 1.41 1.21
-8.64 1.44 1.20
-8.48 1.44 1.21
-8.54 1.47 1.21
-8.54 1.49 1.21
-8.59 1.52 1.20
-8.49 1.53 1.21
-8.62 1.57 1.20
-8.38 1.55 1.22
-8.76 1.64 1.18
-8.69 1.65 1.19
-8.64 1.66 1.19
-8.61 1.68 1.19
-8.30 1.67 1.23
-3.62 1.09 1.73
-2.79 -1.65 1.60
-3.02 -1.64 1.57
-2.90 -1.56 1.59
-2.98 -1.57 1.58
-2.68 -1.41 1.61
-2.96 -1.47 1.58
-3.29 -1.45 1.55
-3.68 -1.50 1.50
-4.48 -1.67 1.42
-4.14 -1.58 1.46
-4.33 -1.59 1.44
-4.70 -1.65 1.40
-4.09 -1.50 1.46
-4.99 -1.68 1.36
-4.11 -1.47 1.46
-4.83 -1.61 1.38
-4.49 -1.52 1.42
-4.06 -1.41 1.47
-4.20 -1.42 1.45
-3.56 -1.27 1.52
-3.70 -1.29 1.51
-3.56 -1.25 1.52
-3.29 -1.18 1.55
-3.22 -1.15 1.56
-3.01 -1.09 1.58
-2.94 -1.07 1.59
-3.65 -1.19 1.51
-3.05 -1.06 1.58
-2.85 -1.01 1.60
-2.96 -1.02 1.59
-3.18 -1.04 1.56
-2.78 -0.96 1.60
-3.54 -1.08 1.52
-2.82 -0.94 1.60
-3.43 -1.03 1.54
-2.92 -0.93 1.59
-3.65 -1.04 1.51
-2.08 -0.72 1.68
-1.88 -0.68 1.70
-1.88 -0.67 1.70
-2.00 -0.68 1.69
-1.95 -0.65 1.69
-2.27 -0.67 1.66
-1.94 -0.61 1.69
-4.06 -0.88 1.47
-4.52 -0.92 1.42
-4.44 -0.89 1.43
-3.50 -0.76 1.53
-3.70 -0.77 1.51
-3.45 -0.71 1.53
-4.04 -0.76 1.47
-4.13 -0.76 1.46
-4.63 -0.80 1.41
-4.24 -0.74 1.45
-4.18 -0.71 1.46
-4.64 -0.75 1.41
-4.93 -0.72 1.38
-4.76 -0.69 1.39
-5.07 -0.70 1.36
-4.93 -0.67 1.38
-5.13 -0.67 1.35
-7.90 -0.88 1.06
-4.96 -0.62 1.37
-4.43 -0.56 1.43
-4.96 -0.58 1.37
-4.16 -0.50 1.46
-4.42 -0.51 1.43
-4.09 -0.47 1.47
-4.32 -0.46 1.44
-4.06 -0.43 1.47
-4.33 -0.43 1.44
-4.20 -0.41 1.45
-4.38 -0.40 1.43
-4.41 -0.39 1.43
-4.64 -0.38 1.41
-4.97 -0.38 1.37
-5.09 -0.37 1.36
-5.12 -0.35 1.35
-5.09 -0.33 1.36
-2.54 -0.21 1.63
-2.86 -0.21 1.59
-6.09 -0.22 1.50
-6.40 -0.22 1.47
-10.75 -0.34 1.01
-6.42 -0.19 1.47
-6.49 -0.17 1.46
-10.97 -0.26 0.98
-10.78 -0.23 1.00
-11.06 -0.21 0.97
-7.15 -0.12 1.39
-6.35 -0.09 1.47
-6.75 -0.08 1.43
-5.57 -0.05 1.55
-5.46 -0.04 1.57
-5.56 -0.02 1.55
-5.37 -0.01 1.57
-0.95 0.01 1.78
-6.81 0.13 1.11
-7.12 0.21 1.07
-7.65 0.29 1.01
-7.66 0.32 1.01
-7.48 0.41 1.03
-7.86 0.45 0.99
-3.81 0.21 1.71
-8.37 0.55 1.19
-9.00 0.61 1.12
-8.77 0.61 1.15
-8.95 0.65 1.13
-2.88 0.26 1.81
-8.68 0.74 1.15
-8.68 0.76 1.15
-8.33 0.75 1.19
-8.29 0.77 1.20
-8.20 0.78 1.21
-8.50 0.83 1.17
-8.36 0.84 1.19
-8.45 0.87 1.18
-8.48 0.89 1.17
-8.18 0.88 1.21
-8.51 0.94 1.17
-8.61 0.97 1.16
-8.48 1.00 1.17
-8.49 1.02 1.17
-3.23 0.43 1.77
-8.29 1.04 1.19
-8.43 1.08 1.17
-8.44 1.10 1.17
-8.44 1.12 1.17
-9.01 1.22 1.11
-8.51 1.17 1.16
-8.59 1.23 1.15
-8.79 1.30 1.13
-8.82 1.35 1.12
-8.50 1.37 1.16
-8.81 1.55 1.12
-8.37 1.50 1.17
-8.78 1.59 1.12
-8.65 1.66 1.13
-1.75 -0.75 1.69
-1.44 -0.62 1.73
-1.41 -0.61 1.73
-0.95 -0.17 1.78
-1.71 -0.20 1.69
-10.23 -0.46 0.73
-1.42 -0.14 1.72
-1.17 -0.10 1.75
-1.60 -0.10 1.70
-1.40 -0.08 1.73
-1.04 -0.06 1.77
-1.52 -0.04 1.71
-1.22 -0.03 1.74
-1.32 -0.02 1.73
-11.21 0.01 0.80
-3.75 0.16 1.69
-3.80 0.21 1.68
-3.87 0.23 1.67
-3.77 0.23 1.68
-9.29 0.65 1.02
-8.16 0.76 1.15
-8.51 0.86 1.10
-8.24 0.85 1.14
-8.32 0.90 1.13
-8.69 0.96 1.08
-8.08 0.92 1.16
-8.32 0.96 1.12
-8.49 1.00 1.10
-8.87 1.14 1.06
-3.53 0.50 1.70
-8.51 1.14 1.10
-8.74 1.19 1.07
-3.83 0.56 1.67
-8.40 1.21 1.11
-8.75 1.35 1.06
-8.59 1.34 1.08
-8.56 1.52 1.08
-8.69 1.56 1.06
-8.43 1.69 1.09
-3.00 1.00 1.74
-0.82 -1.16 1.76
-0.81 -1.15 1.76
-1.24 -1.01 1.71
-1.85 -0.85 1.64
-9.10 -1.68 0.77
-9.35 -1.69 0.74
-8.07 -1.33 0.90
-8.31 -1.33 0.87
-11.81 -1.58 0.45
-8.41 -1.16 0.86
-7.82 -0.72 0.93
-11.14 -0.62 0.81
-11.25 -0.57 0.80
-11.19 -0.54 0.81
-11.11 -0.51 0.82
-11.02 -0.48 0.83
-3.27 -0.13 1.75
-10.90 -0.32 0.84
-5.99 -0.00 1.08
-6.63 0.04 1.30
-6.57 0.05 1.31
-4.01 0.05 1.63
-6.48 0.09 1.32
-6.34 0.10 1.34
-6.77 0.12 1.28
-6.80 0.14 1.28
-6.81 0.16 1.28
-6.74 0.17 1.28
-4.81 0.14 1.53
-5.12 0.16 1.49
-7.10 0.24 1.24
-4.06 0.15 1.62
-4.14 0.17 1.61
-4.05 0.17 1.62
-4.81 0.21 1.53
-8.14 0.37 1.10
-4.16 0.21 1.61
-4.18 0.22 1.60
-5.07 0.28 1.49
-8.11 0.45 1.11
-8.25 0.48 1.09
-5.58 0.34 1.43
-7.96 0.52 1.12
-6.15 0.44 1.35
-8.71 0.65 1.03
-8.17 0.68 1.09
-8.76 0.74 1.02
-8.43 0.74 1.06
-8.41 0.76 1.06
-8.10 0.75 1.10
-8.31 0.79 1.07
-3.67 0.38 1.66
-8.29 0.83 1.08
-8.09 0.83 1.10
-8.26 0.87 1.08
-8.31 0.90 1.07
-8.33 0.92 1.07
-8.37 0.95 1.06
-8.20 0.95 1.08
-8.22 0.97 1.08
-8.20 0.99 1.08
-8.26 1.02 1.07
-8.28 1.04 1.07
-8.25 1.06 1.07
-3.69 0.51 1.66
-3.66 0.52 1.66
-3.42 0.50 1.69
-8.36 1.16 1.06
-8.56 1.20 1.03
-8.68 1.24 1.01
-8.31 1.21 1.06
-8.45 1.25 1.04
-8.55 1.29 1.03
-8.97 1.37 0.97
-8.53 1.33 1.03
-8.58 1.36 1.02
-9.08 1.46 0.96
-8.86 1.45 0.99
-8.46 1.41 1.04
-8.45 1.43 1.04
-8.51 1.46 1.03
-8.33 1.45 1.05
-8.23 1.46 1.06
-8.37 1.50 1.04
-8.49 1.54 1.03
-8.52 1.57 1.02
-8.39 1.57 1.04
-8.57 1.62 1.02
-8.34 1.61 1.04
-8.19 1.60 1.06
-8.19 1.62 1.06
-8.43 1.69 1.03
-3.25 0.88 1.70
-0.81 -1.16 1.74
-0.86 -1.16 1.74
-1.95 -1.21 1.60
-2.75 -1.40 1.49
-2.49 -1.30 1.53
-3.99 -1.51 1.34
-4.15 -1.41 1.32
-5.12 -1.59 1.19
-2.89 -1.11 1.48
-4.58 -1.43 1.26
-5.04 -1.50 1.21
-2.12 -0.86 1.58
-1.65 -0.77 1.64
-1.52 -0.72 1.66
-1.67 -0.74 1.64
-1.52 -0.70 1.66
-1.59 -0.69 1.65
-1.75 -0.65 1.63
-3.27 -0.83 1.43
-8.46 -1.43 0.77
-8.57 -1.41 0.76
-8.20 -1.32 0.81
-8.29 -1.25 0.80
-8.32 -1.17 0.79
-4.81 -0.75 1.24
-11.71 -1.40 0.36
-4.57 -0.69 1.27
-4.30 -0.64 1.30
-4.38 -0.64 1.29
-4.58 -0.62 1.27
-7.76 -0.79 0.86
-7.82 -0.77 0.86
-7.91 -0.75 0.85
-7.91 -0.73 0.85
-7.80 -0.69 0.86
-7.66 -0.66 0.88
-7.54 -0.63 0.89
-1.98 -0.25 1.60
-1.73 -0.23 1.63
-4.90 -0.38 1.23
-4.58 -0.34 1.27
-4.52 -0.32 1.27
-4.60 -0.31 1.26
-5.28 -0.32 1.18
-2.48 -0.20 1.53
-5.51 -0.29 1.15
-2.27 -0.17 1.56
-2.08 -0.15 1.58
-1.42 -0.12 1.67
-1.92 -0.12 1.60
-2.02 -0.11 1.59
-5.24 -0.17 1.18
-1.38 -0.07 1.67
-1.64 -0.05 1.64
-4.86 -0.07 1.23
-1.46 -0.03 1.66
-5.04 -0.02 1.20
-6.37 0.02 1.28
-6.45 0.04 1.27
-6.34 0.07 1.29
-6.65 0.09 1.25
-6.64 0.10 1.25
-6.65 0.14 1.24
-5.05 0.12 1.46
-6.71 0.17 1.24
-7.61 0.23 1.12
-7.09 0.23 1.18
-7.11 0.25 1.18
-7.68 0.29 1.10
-7.57 0.33 1.12
-7.81 0.35 1.09
-8.20 0.41 1.03
-7.49 0.40 1.13
-8.12 0.45 1.04
-8.38 0.48 1.01
-8.30 0.52 1.02
-8.33 0.54 1.01
-8.42 0.59 1.00
-5.57 0.43 1.38
-8.79 0.68 0.95
-5.86 0.50 1.34
-5.75 0.50 1.36
-8.55 0.77 0.98
-8.18 0.76 1.03
-5.80 0.57 1.35
-8.25 0.81 1.02
-8.37 0.86 1.00
-8.65 0.91 0.96
-8.46 0.93 0.99
-8.45 0.95 0.99
-8.21 0.95 1.02
-8.05 0.95 1.04
-7.99 0.99 1.05
-3.74 0.50 1.62
-3.80 0.53 1.61
-3.92 0.55 1.60
-3.80 0.55 1.61
-3.73 0.55 1.62
-3.82 0.58 1.61
-3.78 0.59 1.61
-3.73 0.60 1.62
-7.99 1.23 1.04
-8.28 1.30 1.00
-8.01 1.28 1.03
-8.30 1.36 0.99
-8.14 1.36 1.01
-8.11 1.40 1.02
-8.15 1.42 1.01
-8.70 1.54 0.93
-8.15 1.47 1.01
-7.94 1.47 1.04
-8.09 1.52 1.02
-8.12 1.57 1.01
-8.01 1.57 1.02
-7.99 1.58 1.03
-8.05 1.62 1.02
-8.04 1.66 1.02
-3.61 1.09 1.61
-3.46 1.15 1.63
-1.31 -1.30 1.65
-1.91 -1.46 1.56
-2.37 -1.58 1.50
-2.62 -1.64 1.47
-2.49 -1.56 1.48
-2.41 -1.52 1.50
-2.01 -1.28 1.55
-3.64 -1.49 1.33
-4.63 -1.69 1.20
-4.42 -1.61 1.23
-4.28 -1.56 1.25
-4.10 -1.50 1.27
-3.99 -1.46 1.29
-4.35 -1.52 1.24
-3.57 -1.31 1.35
-4.95 -1.58 1.16
-5.23 -1.60 1.12
-3.93 -1.32 1.30
-4.77 -1.47 1.19
-4.68 -1.44 1.20
-4.38 -1.36 1.24
-4.78 -1.42 1.18
-4.26 -1.27 1.25
-2.62 -0.93 1.48
-2.04 -0.78 1.56
-3.88 -0.98 1.31
-3.65 -0.93 1.34
-3.62 -0.91 1.34
-8.88 -1.65 0.64
-8.41 -1.55 0.70
-8.00 -1.39 0.76
-8.40 -1.42 0.70
-3.14 -0.73 1.41
-7.86 -1.30 0.77
-8.06 -1.30 0.75
-8.04 -1.27 0.75
-8.07 -1.25 0.75
-8.09 -1.23 0.74
-3.89 -0.73 1.31
-8.00 -1.17 0.76
-3.41 -0.65 1.37
-3.54 -0.65 1.35
-4.31 -0.71 1.25
-4.81 -0.75 1.18
-8.32 -1.07 0.71
-4.48 -0.68 1.23
-4.48 -0.66 1.23
-4.53 -0.65 1.22
-4.54 -0.63 1.22
-4.61 -0.62 1.21
-4.60 -0.60 1.21
-4.31 -0.56 1.25
-4.21 -0.54 1.27
-8.26 -0.83 0.72
-7.95 -0.78 0.76
-4.23 -0.49 1.26
-4.39 -0.49 1.24
-4.43 -0.47 1.24
-4.82 -0.48 1.18
-4.29 -0.43 1.25
-4.63 -0.43 1.21
-4.32 -0.40 1.25
-4.35 -0.38 1.24
-4.64 -0.38 1.21
-4.63 -0.37 1.21
-4.66 -0.35 1.20
-4.42 -0.32 1.24
-4.56 -0.31 1.22
-5.01 -0.31 1.16
-4.60 -0.28 1.21
-4.33 -0.25 1.25
-4.22 -0.23 1.26
-5.17 -0.24 1.13
-5.07 -0.22 1.15
-4.96 -0.20 1.16
-5.17 -0.19 1.13
-5.22 -0.17 1.13
-4.85 -0.13 1.18
-5.80 -0.08 1.36
-5.82 -0.06 1.36
-6.08 -0.04 1.32
-6.04 -0.03 1.33
-6.07 -0.01 1.32
-5.47 -0.00 1.03
-5.50 0.02 1.03
-5.95 0.04 0.97
-5.74 0.06 1.00
-5.47 0.07 1.03
-6.25 0.10 0.92
-5.73 0.12 0.99
-5.70 0.14 1.00
-7.04 0.18 0.81
-5.86 0.18 0.98
-6.96 0.23 0.82
-4.59 0.13 1.49
-4.69 0.15 1.47
-7.20 0.24 1.12
-7.20 0.26 1.12
-7.56 0.29 1.06
-7.70 0.31 1.04
-7.84 0.33 1.02
-7.49 0.34 1.07
-7.46 0.36 1.08
-7.73 0.39 1.04
-7.85 0.41 1.02
-8.18 0.45 0.97
-8.02 0.46 1.00
-8.21 0.49 0.97
-7.70 0.48 1.04
-8.34 0.54 0.95
-8.53 0.58 0.92
-8.83 0.62 0.88
-8.80 0.64 0.88
-8.80 0.66 0.88
-8.66 0.67 0.90
-8.57 0.68 0.91
-8.68 0.71 0.90
-8.73 0.74 0.89
-8.69 0.76 0.90
-5.32 0.49 1.37
-5.74 0.54 1.31
-5.52 0.54 1.34
-8.18 0.80 0.97
-8.22 0.82 0.96
-8.30 0.85 0.95
-3.81 0.42 1.59
-8.65 0.93 0.90
-8.63 0.95 0.90
-5.75 0.66 1.31
-8.75 1.01 0.88
-8.58 1.01 0.90
-8.14 0.98 0.97
-7.93 0.98 1.00
-7.95 1.00 0.99
-8.39 1.07 0.93
-3.65 0.51 1.61
-8.02 1.07 0.98
-3.49 0.51 1.63
-3.56 0.53 1.62
-7.91 1.12 0.99
-8.07 1.16 0.97
-7.99 1.17 0.98
-8.51 1.26 0.91
-8.11 1.23 0.96
-8.18 1.26 0.95
-8.35 1.30 0.93
-8.05 1.28 0.97
-8.07 1.30 0.97
-8.03 1.32 0.97
-8.07 1.34 0.96
-7.87 1.33 0.99
-7.99 1.37 0.97
-7.98 1.39 0.97
-7.97 1.41 0.97
-7.92 1.42 0.98
-7.78 1.42 1.00
-7.84 1.45 0.99
-8.02 1.50 0.96
-8.11 1.54 0.95
-8.51 1.63 0.89
-8.02 1.56 0.96
-7.87 1.56 0.98
-8.13 1.63 0.95
-8.20 1.68 0.93
-8.01 1.67 0.96
-7.78 1.64 0.99
-2.39 -1.31 1.47
-1.96 -1.15 1.53
-2.98 -1.40 1.38
-3.59 -1.44 1.30
-3.50 -1.41 1.31
-3.34 -1.34 1.34
-3.59 -1.38 1.30
-3.27 -1.30 1.34
-3.45 -1.32 1.32
-3.69 -1.36 1.29
-5.00 -1.51 1.10
-4.55 -1.39 1.16
-1.53 -0.72 1.60
-1.37 -0.68 1.62
-8.60 -1.69 0.59
-3.75 -0.94 1.28
-8.85 -1.67 0.56
-9.04 -1.67 0.53
-8.65 -1.59 0.59
-8.65 -1.56 0.59
-8.18 -1.44 0.65
-8.24 -1.42 0.64
-8.04 -1.37 0.67
-8.19 -1.37 0.65
-8.18 -1.31 0.65
-8.02 -1.27 0.68
-8.07 -1.25 0.67
-8.11 -1.23 0.66
-8.02 -1.19 0.68
-7.95 -1.16 0.69
-7.79 -1.12 0.71
-8.20 -1.13 0.65
-8.68 -1.16 0.58
-4.66 -0.73 1.15
-8.30 -1.07 0.64
-9.53 -1.16 0.46
-4.57 -0.67 1.17
-8.55 -0.98 0.60
-7.92 -0.85 0.69
-8.00 -0.83 0.68
-3.98 -0.51 1.25
-8.19 -0.80 0.65
-8.05 -0.76 0.67
-8.24 -0.75 0.65
-4.00 -0.41 1.25
-4.16 -0.41 1.22
-4.13 -0.39 1.23
-4.27 -0.38 1.21
-4.44 -0.37 1.18
-4.38 -0.35 1.19
-4.64 -0.35 1.16
-4.44 -0.32 1.18
-4.47 -0.31 1.18
-4.74 -0.30 1.14
-1.81 -0.17 1.55
-1.44 -0.15 1.61
-1.36 -0.14 1.62
-4.91 -0.24 1.12
-4.94 -0.22 1.11
-5.15 -0.21 1.08
-4.81 -0.18 1.13
-4.90 -0.13 1.12
-5.46 -0.10 1.04
-5.23 -0.06 1.07
-5.46 -0.04 1.04
-5.40 -0.02 1.04
-6.17 0.00 1.21
-6.21 0.02 1.21
-6.41 0.04 1.18
-6.43 0.05 1.17
-6.44 0.07 1.17
-6.65 0.09 1.14
-6.65 0.10 1.14
-6.67 0.12 1.14
-6.51 0.13 1.16
-6.26 0.14 1.20
-6.68 0.17 1.13
-6.62 0.19 1.14
-6.65 0.20 1.14
-6.97 0.23 1.09
-7.27 0.26 1.04
-7.25 0.28 1.05
-7.15 0.29 1.06
-7.24 0.31 1.05
-7.27 0.33 1.04
-7.04 0.34 1.08
-6.77 0.34 1.12
-7.01 0.37 1.08
-6.89 0.38 1.10
-7.05 0.41 1.07
-7.10 0.43 1.06
-7.47 0.47 1.01
-7.18 0.47 1.05
-7.31 0.50 1.03
-5.53 0.40 1.30
-5.71 0.43 1.27
-9.05 0.68 0.77
-5.65 0.45 1.28
-7.71 0.62 0.97
-5.34 0.45 1.32
-8.49 0.72 0.85
-8.14 0.72 0.90
-8.52 0.77 0.85
-8.51 0.79 0.85
-8.58 0.82 0.84
-8.67 0.85 0.82
-8.35 0.84 0.87
-8.31 0.86 0.88
-6.06 0.65 1.21
-8.60 0.93 0.83
-8.41 0.93 0.86
-8.06 0.91 0.91
-7.87 0.91 0.94
-8.00 0.95 0.92
-8.61 1.04 0.83
-8.50 1.05 0.84
-8.59 1.08 0.83
-8.51 1.09 0.84
-8.33 1.09 0.86
-8.34 1.11 0.86
-4.10 0.59 1.50
-7.89 1.10 0.93
-8.21 1.16 0.88
-7.79 1.12 0.94
-7.98 1.17 0.91
-7.90 1.18 0.93
-8.16 1.23 0.89
-8.46 1.30 0.84
-8.25 1.29 0.87
-7.90 1.26 0.92
-8.08 1.31 0.89
-7.76 1.28 0.94
-7.87 1.32 0.92
-7.67 1.31 0.95
-7.92 1.36 0.92
-7.71 1.35 0.95
-7.53 1.34 0.97
-7.69 1.39 0.95
-7.81 1.43 0.93
-7.68 1.43 0.95
-7.54 1.42 0.97
-7.67 1.46 0.95
-7.65 1.48 0.95
-7.75 1.52 0.93
-7.70 1.53 0.94
-7.90 1.59 0.91
-7.69 1.57 0.94
-8.19 1.69 0.86
-8.03 1.68 0.89
-8.00 1.69 0.89
-7.72 1.68 0.93
-3.65 0.99 1.55
-3.63 1.09 1.54
-1.96 -1.51 1.48
-2.50 -1.68 1.40
-2.63 -1.68 1.38
-2.21 -1.52 1.45
-2.53 -1.61 1.40
-2.28 -1.52 1.44
-2.83 -1.68 1.35
-2.56 -1.56 1.39
-2.54 -1.54 1.40
-2.50 -1.49 1.40
-3.02 -1.40 1.33
-4.19 -1.67 1.15
-4.20 -1.66 1.15
-4.24 -1.65 1.15
-4.21 -1.58 1.15
-4.28 -1.58 1.14
-3.64 -1.42 1.24
-3.58 -1.39 1.25
-3.28 -1.31 1.29
-3.65 -1.37 1.24
-3.29 -1.28 1.29
-3.42 -1.29 1.27
-3.32 -1.26 1.29
-3.26 -1.23 1.30
-3.42 -1.25 1.27
-5.53 -1.66 0.96
-3.95 -1.29 1.19
-4.27 -1.32 1.15
-4.33 -1.32 1.14
-4.36 -1.31 1.13
-4.56 -1.33 1.10
-3.17 -1.06 1.31
-3.84 -1.15 1.21
-3.73 -1.11 1.23
-3.90 -1.13 1.21
-4.00 -1.13 1.19
-3.31 -0.94 1.29
-3.86 -1.01 1.21
-3.75 -0.98 1.23
-4.02 -1.00 1.19
-3.86 -0.96 1.21
-3.98 -0.96 1.19
-3.72 -0.91 1.23
-3.84 -0.91 1.21
-3.94 -0.91 1.20
-3.69 -0.86 1.24
-3.52 -0.82 1.26
-3.71 -0.83 1.24
-3.66 -0.81 1.24
-3.91 -0.83 1.20
-3.93 -0.82 1.20
-3.84 -0.79 1.22
-4.17 -0.81 1.17
-4.55 -0.84 1.11
-4.87 -0.86 1.06
-4.03 -0.75 1.19
-8.01 -1.17 0.59
-8.10 -1.15 0.58
-4.03 -0.70 1.19
-8.27 -1.12 0.55
-5.00 -0.73 1.04
-4.59 -0.67 1.10
-4.73 -0.67 1.08
-4.63 -0.64 1.10
-4.86 -0.65 1.06
-4.86 -0.63 1.06
-4.28 -0.56 1.15
-4.08 -0.53 1.18
-8.39 -0.84 0.54
-4.05 -0.50 1.19
-3.84 -0.47 1.22
-4.05 -0.46 1.18
-4.00 -0.45 1.19
-4.12 -0.44 1.17
-4.12 -0.42 1.17
-4.16 -0.41 1.17
-4.44 -0.41 1.13
-4.63 -0.40 1.10
-4.52 -0.38 1.11
-4.55 -0.36 1.11
-4.51 -0.34 1.11
-4.66 -0.33 1.09
-4.33 -0.30 1.14
-4.62 -0.30 1.10
-4.55 -0.28 1.11
-8.55 -0.31 0.86
-8.29 -0.28 0.90
-5.51 -0.18 1.31
-8.12 -0.24 0.92
-5.62 -0.15 1.30
-5.71 -0.14 1.28
-6.04 -0.13 1.23
-5.94 -0.12 1.25
-6.02 -0.10 1.24
-6.08 -0.09 1.23
-5.86 -0.07 1.26
-6.19 -0.06 1.21
-5.92 -0.04 1.25
-6.09 -0.03 1.22
-6.00 -0.01 1.24
-5.35 -0.00 0.93
-5.41 0.02 0.92
-5.74 0.06 0.87
-5.73 0.10 0.87
-6.01 0.14 0.83
-6.13 0.16 0.81
-6.91 0.25 0.68
-5.88 0.24 0.85
-7.44 0.31 0.60
-7.31 0.33 0.62
-6.97 0.34 0.67
-7.11 0.37 0.65
-7.49 0.41 0.59
-6.66 0.40 0.72
-7.02 0.34 1.03
-7.80 0.39 0.91
-8.65 0.67 0.77
-9.01 0.72 0.71
-9.10 0.75 0.70
-9.00 0.76 0.71
-8.78 0.77 0.75
-8.63 0.80 0.77
-4.66 0.46 1.39
-8.57 0.83 0.78
-8.20 0.82 0.83
-8.17 0.84 0.84
-8.27 0.87 0.82
-8.69 0.93 0.76
-8.37 0.92 0.81
-8.73 1.02 0.75
-8.39 1.03 0.80
-9.23 1.15 0.67
-8.85 1.13 0.73
-8.50 1.11 0.78
-3.16 0.45 1.62
-8.99 1.24 0.70
-8.43 1.18 0.79
-8.56 1.22 0.77
-8.02 1.17 0.85
-8.16 1.21 0.83
-8.63 1.30 0.75
-8.67 1.33 0.75
-8.52 1.33 0.77
-8.90 1.41 0.71
-8.19 1.32 0.82
-8.54 1.40 0.76
-7.80 1.54 0.87
-3.11 0.86 1.61
-2.94 0.92 1.63
-2.91 0.94 1.63
-2.98 0.97 1.62
-0.49 -1.18 1.69
-1.03 -1.20 1.60
-0.94 -1.15 1.62
-1.93 -1.33 1.46
-1.49 -1.12 1.54
-1.32 -1.00 1.56
-1.15 -0.85 1.59
-1.21 -0.66 1.59
-1.59 -0.66 1.53
-1.42 -0.62 1.55
-1.10 -0.55 1.60
-8.67 -1.64 0.41
-8.85 -1.64 0.39
-8.48 -1.56 0.44
-0.84 -0.48 1.64
-8.56 -1.52 0.43
-8.32 -1.46 0.47
-8.54 -1.46 0.44
-8.46 -1.43 0.45
-1.02 -0.45 1.62
-8.92 -1.40 0.38
-8.41 -1.29 0.46
-8.59 -1.28 0.43
-8.21 -1.21 0.49
-8.34 -1.20 0.47
-8.20 -1.16 0.49
-8.47 -1.16 0.45
-8.57 -1.15 0.43
-8.83 -1.15 0.39
-9.19 -1.15 0.34
-8.80 -1.09 0.40
-8.84 -1.06 0.39
-8.93 -1.02 0.38
-0.95 -0.27 1.63
-9.09 -0.86 0.35
-9.40 -0.77 0.30
-1.04 -0.22 1.61
-0.87 -0.20 1.64
-0.83 -0.19 1.64
-0.84 -0.18 1.64
-9.19 -0.56 0.34
-0.85 -0.16 1.64
-0.78 -0.15 1.65
-1.37 -0.17 1.56
-7.37 -0.34 0.62
-7.53 -0.32 0.59
-1.51 -0.10 1.54
-5.04 -0.08 0.98
-7.68 0.00 0.86
-6.29 0.02 1.09
-7.85 0.04 0.84
-6.63 0.05 1.03
-6.81 0.07 1.00
-6.51 0.08 1.05
-6.57 0.10 1.04
-6.67 0.12 1.03
-6.72 0.14 1.02
-6.98 0.16 0.97
-7.41 0.19 0.90
-6.85 0.19 1.00
-7.00 0.21 0.97
-6.75 0.22 1.01
-7.15 0.25 0.94
-6.77 0.26 1.01
-7.37 0.30 0.91
-7.87 0.34 0.83
-7.37 0.33 0.91
-7.45 0.36 0.89
-3.88 0.21 1.48
-7.09 0.38 0.95
-3.94 0.23 1.47
-7.20 0.42 0.93
-7.67 0.46 0.85
-7.18 0.45 0.94
-7.36 0.48 0.91
-6.96 0.48 0.97
-7.56 0.53 0.87
-7.02 0.51 0.96
-7.20 0.55 0.93
-7.29 0.57 0.92
-8.95 0.72 0.64
-8.05 0.67 0.79
-7.15 0.61 0.94
-7.21 0.64 0.93
-8.61 0.78 0.69
-8.47 0.79 0.72
-8.34 0.79 0.74
-8.25 0.81 0.75
-8.09 0.81 0.78
-8.08 0.83 0.78
-7.90 0.83 0.81
-5.44 0.60 1.21
-8.40 0.93 0.72
-8.75 0.99 0.66
-8.72 1.00 0.67
-8.76 1.03 0.66
-8.01 0.97 0.79
-8.12 1.00 0.77
-8.54 1.07 0.70
-8.20 1.05 0.75
-8.93 1.16 0.63
-8.39 1.12 0.72
-8.65 1.17 0.68
-8.44 1.17 0.71
-8.54 1.20 0.69
-8.95 1.28 0.62
-8.74 1.27 0.66
-8.68 1.29 0.67
-8.82 1.33 0.64
-8.48 1.30 0.70
-7.90 1.24 0.79
-7.75 1.24 0.82
-7.77 1.26 0.81
-8.52 1.40 0.69
-8.55 1.42 0.68
-8.73 1.47 0.65
-8.35 1.44 0.71
-8.73 1.52 0.65
-8.09 1.43 0.76
-8.12 1.46 0.75
-7.87 1.44 0.79
-7.97 1.48 0.77
-7.46 1.41 0.86
-8.21 1.56 0.73
-8.15 1.57 0.74
-7.86 1.54 0.79
-8.57 1.69 0.67
-3.09 0.89 1.58
-3.32 1.09 1.53
-3.25 1.12 1.54
-1.54 -1.61 1.47
-1.98 -1.55 1.41
-1.75 -1.45 1.44
-1.31 -1.26 1.52
-1.21 -1.22 1.54
-1.90 -1.39 1.42
-1.97 -1.30 1.41
-2.11 -1.33 1.39
-2.44 -1.28 1.34
-2.68 -1.32 1.30
-4.33 -1.61 1.02
-3.49 -1.34 1.17
-3.50 -1.27 1.17
-3.49 -1.25 1.17
-2.04 -0.92 1.41
-4.28 -1.34 1.04
-3.90 -1.25 1.10
-4.38 -1.30 1.02
-4.77 -1.35 0.96
-6.64 -1.62 0.65
-3.77 -1.07 1.12
-1.62 -0.68 1.48
-1.80 -0.70 1.45
-5.17 -1.21 0.89
-4.97 -1.17 0.93
-4.01 -0.97 1.09
-3.77 -0.92 1.13
-3.59 -0.88 1.16
-3.27 -0.79 1.21
-8.37 -1.45 0.37
-8.52 -1.44 0.34
-8.62 -1.26 0.33
-3.17 -0.64 1.23
-8.72 -1.22 0.31
-8.71 -1.19 0.31
-8.96 -1.19 0.27
-8.69 -1.14 0.32
-8.69 -1.08 0.32
-4.77 -0.69 0.96
-4.74 -0.67 0.97
-5.01 -0.66 0.92
-5.05 -0.64 0.92
-4.71 -0.60 0.97
-4.86 -0.59 0.95
-4.87 -0.58 0.95
-4.67 -0.54 0.98
-4.81 -0.54 0.96
-4.51 -0.50 1.01
-4.43 -0.47 1.02
-4.66 -0.47 0.98
-4.95 -0.46 0.93
-4.24 -0.25 1.43
-8.47 -0.46 0.74
-9.97 -0.51 0.49
-8.77 -0.43 0.69
-8.49 -0.40 0.74
-5.27 -0.24 1.26
-8.20 -0.34 0.78
-8.17 -0.32 0.79
-8.54 -0.32 0.73
-5.29 -0.19 1.26
-5.35 -0.17 1.25
-8.15 -0.24 0.79
-5.79 -0.16 1.17
-5.61 -0.14 1.21
-5.71 -0.10 1.19
-6.00 -0.07 1.14
-6.19 -0.06 1.11
-6.20 -0.04 1.11
-6.16 -0.03 1.11
-6.73 -0.01 1.02
-2.81 -0.00 1.24
-2.68 0.01 1.26
-2.46 0.02 1.30
-6.41 0.05 1.02
-4.27 0.06 1.39
-6.65 0.10 0.98
-7.85 0.14 0.77
-7.15 0.14 0.89
-6.38 0.15 1.02
-6.56 0.18 0.99
-6.81 0.22 0.95
-6.63 0.23 0.98
-3.71 0.15 1.48
-3.98 0.17 1.43
-7.72 0.33 0.79
-5.68 0.28 1.14
-7.55 0.40 0.82
-7.78 0.43 0.78
-3.59 0.22 1.50
-7.17 0.43 0.88
-7.88 0.49 0.76
-7.37 0.50 0.84
-8.12 0.59 0.71
-4.12 0.32 1.40
-7.78 0.60 0.77
-6.97 0.56 0.91
-7.23 0.60 0.86
-4.70 0.43 1.30
-7.64 0.71 0.79
-7.83 0.75 0.76
-8.02 0.78 0.72
-8.03 0.80 0.72
-7.98 0.82 0.73
-5.52 0.61 1.16
-8.76 0.98 0.59
-8.70 1.00 0.60
-8.37 0.98 0.66
-8.89 1.07 0.57
-8.36 1.03 0.66
-8.19 1.05 0.69
-8.38 1.11 0.65
-8.49 1.15 0.63
-8.32 1.15 0.66
-8.74 1.23 0.59
-7.90 1.13 0.73
-7.53 1.12 0.80
-8.94 1.37 0.55
-8.36 1.30 0.65
-8.03 1.27 0.71
-8.44 1.36 0.63
-8.68 1.42 0.59
-3.41 0.62 1.51
-7.88 1.37 0.73
-8.16 1.48 0.67
-8.29 1.53 0.65
-8.05 1.53 0.69
-7.69 1.50 0.75
-7.62 1.67 0.76
-3.32 0.87 1.51
-3.28 1.07 1.50
-3.21 1.08 1.52
-3.12 1.11 1.53
-3.13 1.49 1.50
-2.79 1.40 1.56
-1.41 -1.38 1.47
-1.47 -1.35 1.46
-1.32 -1.27 1.49
-1.75 -1.40 1.41
-1.19 -1.21 1.51
-1.31 -1.24 1.49
-1.49 -1.29 1.46
-1.94 -1.41 1.38
-1.52 -1.27 1.46
-1.82 -1.34 1.40
-1.85 -1.34 1.40
-1.62 -1.26 1.44
-1.61 -1.24 1.44
-1.83 -1.30 1.40
-1.72 -1.26 1.42
-1.73 -1.24 1.42
-1.53 -1.17 1.46
-1.97 -1.28 1.38
-1.71 -1.20 1.43
-1.86 -1.23 1.40
-2.61 -1.42 1.27
-2.72 -1.44 1.25
-2.57 -1.39 1.28
-2.40 -1.33 1.31
-2.27 -1.28 1.33
-2.53 -1.34 1.28
-2.43 -1.30 1.30
-2.64 -1.34 1.26
-2.54 -1.30 1.28
-2.87 -1.37 1.22
-2.61 -1.30 1.27
-3.10 -1.33 1.19
-2.79 -1.21 1.24
-1.78 -0.95 1.42
-2.00 -0.99 1.38
-2.07 -0.99 1.37
-3.05 -1.17 1.20
-2.31 -0.97 1.33
-4.18 -1.32 1.00
-4.84 -1.43 0.89
-4.46 -1.34 0.95
-4.24 -1.28 0.99
-1.26 -0.72 1.51
-4.55 -1.31 0.94
-4.66 -1.31 0.92
-3.80 -1.14 1.07
-1.38 -0.68 1.49
-1.40 -0.66 1.49
-6.62 -1.41 0.58
-3.58 -0.92 1.11
-3.68 -0.90 1.09
-3.60 -0.88 1.11
-3.55 -0.86 1.12
-3.24 -0.79 1.17
-3.32 -0.77 1.16
-3.41 -0.77 1.14
-3.25 -0.73 1.17
-2.98 -0.68 1.22
-1.51 -0.50 1.47
-3.30 -0.69 1.16
-1.40 -0.46 1.49
-0.96 -0.40 1.56
-2.90 -0.60 1.23
-1.99 -0.49 1.39
-3.02 -0.58 1.21
-3.05 -0.57 1.20
-3.21 -0.56 1.18
-2.99 -0.52 1.21
-8.04 -0.87 0.34
-0.96 -0.22 1.56
-0.93 -0.21 1.57
-0.98 -0.20 1.56
-1.02 -0.20 1.55
-4.62 -0.35 0.93
-5.09 -0.32 0.85
-2.58 -0.20 1.28
-7.67 -0.37 0.40
-4.86 -0.25 0.89
-2.79 -0.17 1.25
-5.20 -0.19 0.83
-4.61 -0.16 0.93
-5.21 -0.15 0.83
-5.09 -0.11 0.85
-4.97 -0.09 0.87
-5.24 -0.08 0.82
-2.62 -0.04 1.27
-5.27 -0.04 0.82
-2.81 -0.02 1.24
-6.88 0.00 0.88
-6.49 0.02 0.95
-6.81 0.04 0.89
-8.07 0.06 0.66
-6.76 0.07 0.90
-8.04 0.10 0.67
-7.98 0.12 0.68
-7.63 0.15 0.74
-7.87 0.18 0.70
-7.36 0.18 0.79
-7.47 0.21 0.77
-7.32 0.22 0.80
-6.58 0.22 0.93
-7.35 0.26 0.79
-7.27 0.27 0.80
-7.34 0.29 0.79
-7.38 0.31 0.78
-7.57 0.34 0.75
-7.58 0.36 0.75
-7.60 0.38 0.74
-6.24 0.33 0.99
-7.89 0.43 0.69
-7.47 0.43 0.76
-7.52 0.45 0.75
-7.56 0.47 0.75
-7.49 0.49 0.76
-7.40 0.50 0.77
-7.69 0.54 0.72
-7.37 0.54 0.78
-7.35 0.55 0.78
-7.17 0.56 0.81
-6.98 0.56 0.85
-8.20 0.68 0.63
-7.56 0.65 0.74
-7.37 0.65 0.77
-7.54 0.68 0.74
-7.50 0.70 0.75
-7.75 0.74 0.70
-7.91 0.77 0.68
-7.82 0.79 0.69
-7.90 0.81 0.68
-7.82 0.82 0.69
-7.72 0.83 0.71
-7.96 0.88 0.66
-8.03 0.91 0.65
-8.03 0.93 0.65
-8.97 1.05 0.48
-8.91 1.07 0.49
-8.81 1.08 0.50
-5.33 0.69 1.14
-5.49 0.72 1.11
-9.15 1.19 0.44
-5.73 0.78 1.06
-7.95 1.08 0.66
-7.85 1.09 0.67
-7.89 1.11 0.67
-8.20 1.18 0.61
-8.01 1.17 0.64
-8.38 1.24 0.57
-8.48 1.28 0.56
-8.82 1.35 0.49
-7.71 1.21 0.69
-8.63 1.37 0.53
-8.75 1.41 0.50
-8.17 1.34 0.61
-7.52 1.26 0.73
-7.51 1.28 0.73
-7.45 1.29 0.74
-7.45 1.30 0.74
-4.03 0.75 1.36
-8.07 1.45 0.62
-8.13 1.48 0.61
-8.40 1.55 0.56
-8.30 1.55 0.57
-8.78 1.66 0.48
-8.66 1.66 0.51
-7.21 1.53 0.77
-7.35 1.58 0.74
-7.69 1.69 0.68
-3.77 1.27 1.38
-2.81 -1.54 1.18
-3.42 -1.69 1.07
-1.60 -1.17 1.41
-2.13 -1.31 1.31
-2.98 -1.52 1.15
-3.10 -1.53 1.13
-3.06 -1.49 1.14
-3.11 -1.49 1.13
-3.60 -1.56 1.04
-3.68 -1.57 1.03
-3.56 -1.50 1.05
-4.11 -1.62 0.95
-4.18 -1.62 0.94
-4.22 -1.61 0.93
-4.34 -1.61 0.91
-4.33 -1.59 0.91
-4.54 -1.60 0.88
-4.68 -1.62 0.85
-4.32 -1.52 0.92
-4.78 -1.60 0.83
-4.16 -1.43 0.95
-3.94 -1.37 0.99
-4.13 -1.38 0.95
-4.51 -1.44 0.88
-4.66 -1.45 0.86
-5.33 -1.57 0.73
-4.89 -1.44 0.82
-4.97 -1.44 0.80
-4.64 -1.34 0.86
-4.68 -1.33 0.85
-5.44 -1.45 0.72
-5.02 -1.36 0.79
-5.10 -1.33 0.78
-4.70 -1.25 0.85
-5.45 -1.33 0.72
-4.44 -1.15 0.90
-4.23 -1.10 0.94
-4.28 -1.09 0.93
-3.94 -1.01 0.99
-3.89 -0.98 1.00
-3.86 -0.95 1.01
-3.74 -0.92 1.03
-4.08 -0.95 0.97
-3.86 -0.90 1.01
-3.80 -0.86 1.02
-3.61 -0.82 1.05
-3.73 -0.81 1.03
-3.83 -0.80 1.01
-3.62 -0.76 1.05
-3.54 -0.74 1.07
-3.42 -0.70 1.09
-3.76 -0.70 1.03
-3.54 -0.67 1.07
-3.75 -0.67 1.03
-3.63 -0.64 1.05
-3.74 -0.64 1.03
-3.74 -0.61 1.03
-3.57 -0.58 1.06
-3.78 -0.57 1.02
-4.21 -0.59 0.95
-3.68 -0.53 1.04
-4.42 -0.57 0.91
-4.02 -0.51 0.98
-4.28 -0.51 0.93
-3.83 -0.45 1.01
-4.42 -0.47 0.91
-4.84 -0.48 0.83
-4.35 -0.44 0.92
-4.54 -0.41 0.89
-4.88 -0.42 0.82
-3.25 -0.30 1.12
-4.72 -0.35 0.85
-4.77 -0.34 0.84
-4.75 -0.32 0.85
-4.87 -0.29 0.83
-4.93 -0.27 0.81
-4.76 -0.23 0.84
-4.60 -0.21 0.87
-4.66 -0.20 0.86
-4.66 -0.18 0.86
-4.69 -0.14 0.86
-8.31 -0.14 0.62
-8.17 -0.12 0.65
-7.47 -0.09 0.77
-6.73 -0.07 0.91
-6.93 -0.05 0.87
-6.69 -0.03 0.91
-6.53 -0.02 0.94
-5.15 -0.00 0.71
-2.13 0.01 1.28
-5.06 0.03 0.72
-2.64 0.03 1.18
-5.02 0.07 0.73
-5.17 0.09 0.70
-2.22 0.06 1.26
-5.42 0.13 0.65
-5.29 0.15 0.68
-2.63 0.11 1.18
-2.38 0.11 1.23
-5.31 0.15 1.11
-8.61 0.26 0.49
-7.14 0.23 0.76
-7.72 0.27 0.65
-5.80 0.22 1.02
-7.06 0.28 0.78
-3.97 0.18 1.36
-5.84 0.27 1.01
-7.95 0.38 0.61
-8.01 0.40 0.60
-5.55 0.30 1.06
-5.50 0.31 1.07
-3.75 0.23 1.40
-8.04 0.48 0.59
-7.82 0.49 0.63
-3.88 0.27 1.38
-7.73 0.52 0.65
-7.61 0.53 0.67
-6.90 0.50 0.80
-7.15 0.54 0.76
-7.54 0.58 0.68
-7.31 0.59 0.72
-7.43 0.61 0.70
-7.80 0.66 0.63
-7.40 0.65 0.70
-7.17 0.65 0.75
-7.60 0.70 0.67
-7.47 0.71 0.69
-3.81 0.39 1.38
-4.20 0.44 1.31
-7.85 0.80 0.62
-7.86 0.83 0.61
-7.94 0.85 0.60
-7.93 0.87 0.60
-7.98 0.90 0.59
-7.73 0.89 0.63
-8.89 1.06 0.41
-8.94 1.09 0.40
-9.12 1.14 0.37
-8.07 1.03 0.57
-7.91 1.03 0.59
-7.79 1.04 0.62
-7.66 1.04 0.64
-7.75 1.07 0.62
-7.63 1.08 0.65
-7.69 1.10 0.63
-7.91 1.15 0.59
-8.44 1.25 0.49
-9.07 1.36 0.37
-8.38 1.28 0.50
-8.93 1.41 0.39
-8.84 1.42 0.41
-8.96 1.46 0.38
-7.87 1.31 0.59
-7.62 1.29 0.64
-7.73 1.33 0.62
-3.61 0.67 1.41
-3.30 0.63 1.47
-3.69 0.70 1.39
-3.42 0.67 1.44
-7.54 1.39 0.65
-7.79 1.46 0.60
-8.70 1.66 0.42
-7.32 1.59 0.68
-7.43 1.63 0.66
-3.27 0.86 1.46
-3.62 0.99 1.39
-3.58 0.99 1.39
-3.33 0.96 1.44
-3.25 0.97 1.45
-3.02 0.92 1.50
-3.30 1.05 1.44
-3.41 1.09 1.42
-2.84 1.25 1.50
-3.37 1.68 1.37
-0.68 -1.33 1.54
-1.09 -1.49 1.46
-1.37 -1.58 1.40
-0.85 -1.33 1.51
-0.97 -1.34 1.48
-1.40 -1.45 1.40
-1.26 -1.37 1.43
-1.38 -1.39 1.41
-1.59 -1.46 1.36
-1.36 -1.34 1.41
-1.37 -1.33 1.41
-1.28 -1.29 1.43
-1.29 -1.28 1.43
-1.38 -1.30 1.41
-1.46 -1.32 1.40
-1.26 -1.24 1.43
-1.42 -1.29 1.40
-1.29 -1.23 1.43
-1.64 -1.34 1.36
-1.62 -1.32 1.37
-1.43 -1.25 1.40
-1.69 -1.32 1.35
-1.83 -1.35 1.33
-2.49 -1.54 1.20
-1.67 -1.28 1.36
-1.77 -1.30 1.34
-2.12 -1.38 1.27
-1.92 -1.31 1.31
-2.02 -1.33 1.29
-2.09 -1.34 1.28
-1.77 -1.24 1.34
-1.76 -1.22 1.34
-2.17 -1.33 1.26
-2.47 -1.40 1.21
-2.53 -1.40 1.19
-1.86 -1.21 1.32
-1.58 -1.12 1.38
-2.12 -1.25 1.27
-2.07 -1.23 1.29
-1.99 -1.20 1.30
-1.58 -1.08 1.38
-1.95 -1.16 1.31
-1.78 -1.11 1.34
-1.73 -1.09 1.35
-1.68 -1.06 1.36
-1.66 -1.05 1.37
-1.93 -1.10 1.31
-1.78 -1.06 1.34
-1.58 -0.99 1.38
-1.85 -1.04 1.33
-1.75 -1.00 1.35
-1.79 -0.99 1.34
-1.80 -0.97 1.34
-4.38 -1.53 0.85
-4.16 -1.46 0.89
-4.20 -1.46 0.88
-2.07 -0.99 1.29
-1.75 -0.91 1.35
-2.00 -0.95 1.30
-1.98 -0.94 1.31
-2.11 -0.95 1.28
-1.97 -0.91 1.31
-1.88 -0.88 1.33
-4.72 -1.42 0.78
-4.77 -1.42 0.78
-4.74 -1.39 0.78
-5.30 -1.48 0.67
-5.09 -1.42 0.71
-5.35 -1.45 0.67
-1.22 -0.69 1.45
-5.74 -1.48 0.59
-4.47 -1.24 0.84
-5.26 -1.36 0.68
-4.76 -1.25 0.78
-4.95 -1.27 0.74
-1.20 -0.63 1.46
-1.48 -0.67 1.41
-1.69 -0.69 1.37
-4.06 -1.02 0.91
-3.93 -0.99 0.94
-3.84 -0.96 0.96
-3.76 -0.93 0.97
-3.87 -0.93 0.95
-3.89 -0.89 0.95
-1.67 -0.56 1.37
-3.69 -0.82 0.99
-3.84 -0.82 0.96
-1.46 -0.49 1.41
-1.61 -0.50 1.38
-3.28 -0.68 1.06
-3.32 -0.67 1.06
-3.31 -0.65 1.06
-3.36 -0.64 1.05
-3.10 -0.60 1.10
-3.39 -0.60 1.04
-3.53 -0.59 1.02
-2.60 -0.48 1.19
-3.60 -0.46 1.00
-3.39 -0.38 1.04
-3.02 -0.34 1.11
-0.96 -0.21 1.50
-2.77 -0.30 1.16
-2.60 -0.28 1.19
-2.08 -0.23 1.29
-2.62 -0.24 1.19
-4.68 -0.30 0.80
-4.51 -0.26 0.83
-4.51 -0.24 0.83
-5.02 -0.24 0.73
-4.67 -0.21 0.80
-2.46 -0.14 1.22
-2.79 -0.13 1.15
-3.31 -0.13 1.06
-2.76 -0.11 1.16
-4.97 -0.13 0.74
-2.91 -0.08 1.13
-2.74 -0.07 1.16
-2.60 -0.05 1.19
-5.15 -0.06 0.71
-4.95 -0.04 0.74
-2.37 -0.02 1.23
-6.86 0.00 0.76
-6.80 0.02 0.77
-7.79 0.04 0.57
-6.80 0.05 0.76
-7.71 0.08 0.59
-7.86 0.10 0.56
-7.97 0.12 0.53
-8.03 0.14 0.52
-8.15 0.16 0.50
-8.14 0.18 0.50
-6.33 0.16 0.86
-6.13 0.17 0.89
-5.72 0.17 0.98
-5.76 0.19 0.97
-5.52 0.20 1.01
-5.73 0.22 0.97
-5.75 0.23 0.97
-6.12 0.26 0.89
-6.38 0.29 0.84
-7.44 0.35 0.63
-7.40 0.37 0.64
-7.21 0.38 0.68
-7.21 0.40 0.68
-7.10 0.41 0.70
-7.45 0.45 0.63
-7.78 0.49 0.56
-7.84 0.51 0.55
-8.05 0.54 0.51
-7.84 0.55 0.55
-6.55 0.48 0.80
-7.46 0.56 0.62
-7.77 0.60 0.56
-7.80 0.62 0.55
-7.77 0.64 0.56
-7.91 0.67 0.53
-7.79 0.68 0.55
-7.60 0.69 0.59
-7.26 0.68 0.66
-7.18 0.69 0.67
-7.48 0.73 0.61
-7.64 0.77 0.58
-7.75 0.80 0.56
-7.69 0.81 0.57
-7.51 0.81 0.60
-7.54 0.83 0.60
-7.41 0.84 0.62
-7.68 0.89 0.57
-7.94 0.96 0.51
-7.76 0.96 0.55
-7.85 0.99 0.53
-7.69 0.99 0.56
-8.50 1.11 0.40
-7.73 1.03 0.55
-7.50 1.02 0.60
-7.64 1.06 0.57
-7.43 1.05 0.61
-7.54 1.09 0.59
-7.50 1.10 0.59
-7.40 1.10 0.61
-7.61 1.15 0.57
-7.55 1.16 0.58
-7.32 1.15 0.63
-7.36 1.19 0.62
-7.27 1.20 0.63
-7.65 1.28 0.56
-7.49 1.27 0.59
-7.40 1.28 0.61
-7.37 1.29 0.61
-7.35 1.31 0.61
-7.32 1.32 0.62
-3.88 0.75 1.31
-7.67 1.42 0.55
-4.53 0.89 1.18
-3.94 0.79 1.30
-4.34 0.88 1.22
-4.57 0.93 1.17
-8.24 1.63 0.43
-7.79 1.58 0.52
-7.54 1.56 0.56
-7.62 1.59 0.55
-7.70 1.63 0.53
-7.42 1.59 0.58
-7.59 1.65 0.55
-7.28 1.60 0.61
-7.13 1.59 0.64
-7.29 1.64 0.61
-4.35 1.12 1.20
-4.08 1.13 1.25
-4.02 1.15 1.26
-2.68 -1.64 1.11
-2.87 -1.61 1.07
-3.00 -1.64 1.04
-3.14 -1.66 1.02
-3.30 -1.69 0.98
-3.24 -1.66 1.00
-3.09 -1.60 1.03
-3.19 -1.60 1.01
-2.92 -1.51 1.06
-2.86 -1.48 1.08
-3.42 -1.62 0.96
-2.84 -1.45 1.08
-3.43 -1.60 0.96
-3.55 -1.61 0.94
-3.45 -1.57 0.96
-3.60 -1.59 0.93
-3.60 -1.58 0.93
-4.04 -1.67 0.84
-3.97 -1.64 0.86
-4.18 -1.67 0.81
-3.85 -1.58 0.88
-3.72 -1.53 0.91
-4.11 -1.61 0.83
-3.93 -1.55 0.87
-4.17 -1.59 0.82
-4.10 -1.56 0.83
-4.00 -1.52 0.85
-4.27 -1.56 0.80
-4.30 -1.53 0.79
-4.39 -1.54 0.78
-4.52 -1.55 0.75
-4.50 -1.52 0.76
-4.50 -1.51 0.76
-4.48 -1.49 0.76
-4.58 -1.49 0.74
-4.62 -1.48 0.73
-4.46 -1.43 0.77
-4.49 -1.42 0.76
-4.69 -1.44 0.72
-4.63 -1.41 0.73
-4.67 -1.40 0.73
-4.81 -1.41 0.70
-4.62 -1.36 0.74
-4.73 -1.36 0.71
-4.88 -1.37 0.68
-4.99 -1.37 0.66
-4.73 -1.31 0.72
-4.56 -1.26 0.75
-4.64 -1.26 0.73
-4.40 -1.20 0.78
-4.32 -1.17 0.80
-4.18 -1.13 0.83
-4.30 -1.13 0.80
-4.27 -1.11 0.81
-4.30 -1.10 0.80
-4.38 -1.09 0.79
-4.53 -1.10 0.76
-4.11 -1.02 0.84
-4.00 -0.99 0.86
-4.14 -0.99 0.84
-3.99 -0.95 0.87
-4.02 -0.94 0.86
-3.90 -0.91 0.88
-3.98 -0.90 0.87
-3.84 -0.87 0.90
-3.76 -0.84 0.91
-3.79 -0.83 0.91
-3.56 -0.79 0.95
-3.71 -0.79 0.92
-3.79 -0.79 0.91
-3.54 -0.74 0.96
-3.57 -0.73 0.95
-3.63 -0.72 0.94
-3.65 -0.71 0.94
-3.62 -0.69 0.94
-3.57 -0.67 0.95
-3.51 -0.65 0.96
-3.65 -0.65 0.94
-3.76 -0.64 0.91
-3.56 -0.61 0.95
-3.51 -0.59 0.96
-3.66 -0.59 0.93
-3.57 -0.57 0.95
-4.16 -0.60 0.83
-4.02 -0.58 0.86
-3.29 -0.50 1.01
-4.03 -0.54 0.86
-4.02 -0.53 0.86
-3.32 -0.46 1.00
-3.32 -0.44 1.00
-4.66 -0.53 0.74
-4.23 -0.48 0.82
-4.78 -0.50 0.71
-4.95 -0.49 0.68
-4.04 -0.42 0.86
-4.90 -0.45 0.69
-3.57 -0.36 0.95
-2.99 -0.31 1.06
-4.56 -0.38 0.75
-4.87 -0.38 0.69
-3.19 -0.28 1.03
-4.90 -0.35 0.69
-4.81 -0.32 0.71
-4.86 -0.31 0.70
-4.52 -0.28 0.76
-5.81 -0.22 0.97
-5.76 -0.20 0.98
-5.53 -0.18 1.02
-8.14 -0.24 0.51
-8.13 -0.22 0.51
-5.76 -0.14 0.98
-5.43 -0.12 1.04
-5.70 -0.11 0.98
-5.59 -0.10 1.01
-8.07 -0.12 0.52
-7.26 -0.09 0.68
-8.15 -0.08 0.50
-7.18 -0.05 0.69
-7.08 -0.04 0.71
-6.81 -0.02 0.77
-2.88 -0.01 1.04
-2.30 0.01 1.16
-5.38 0.07 0.52
-2.06 0.06 1.21
-5.58 0.13 0.48
-5.59 0.15 0.48
-6.09 0.18 0.38
-6.21 0.20 0.35
-5.76 0.33 0.44
-5.78 0.35 0.44
-5.90 0.28 0.89
-6.63 0.33 0.74
-3.70 0.20 1.34
-7.19 0.41 0.62
-7.92 0.47 0.47
-8.06 0.50 0.44
-7.98 0.52 0.46
-6.86 0.46 0.69
-6.70 0.47 0.72
-6.69 0.49 0.72
-7.76 0.58 0.50
-3.62 0.30 1.36
-7.84 0.64 0.48
-7.86 0.67 0.48
-7.47 0.65 0.56
-7.88 0.71 0.47
-7.62 0.70 0.53
-7.51 0.71 0.55
-7.26 0.71 0.60
-7.57 0.76 0.53
-7.72 0.79 0.50
-7.74 0.81 0.50
-7.37 0.79 0.57
-7.49 0.83 0.55
-7.53 0.85 0.54
-3.87 0.47 1.30
-7.87 0.96 0.47
-8.31 1.04 0.37
-8.14 1.04 0.41
-7.98 1.06 0.44
-7.70 1.06 0.49
-7.60 1.07 0.51
-7.53 1.08 0.53
-7.40 1.08 0.55
-7.93 1.17 0.44
-8.21 1.30 0.38
-8.07 1.32 0.41
-8.07 1.34 0.41
-3.16 0.58 1.43
-8.05 1.38 0.41
-8.25 1.43 0.37
-8.01 1.41 0.42
-8.08 1.45 0.40
-7.85 1.43 0.45
-7.93 1.46 0.43
-7.90 1.50 0.43
-8.23 1.62 0.36
-7.93 1.65 0.42
-7.65 1.67 0.47
-7.46 1.65 0.51
-7.26 1.65 0.55
-6.99 1.61 0.61
-3.69 1.06 1.30
-2.51 1.50 1.48
-0.36 -1.61 1.52
-1.40 -1.25 1.34
-1.44 -1.25 1.33
-1.63 -1.27 1.29
-1.73 -1.29 1.27
-1.52 -1.21 1.32
-1.56 -1.21 1.31
-1.46 -1.17 1.33
-1.47 -1.17 1.33
-1.91 -1.28 1.24
-1.63 -1.18 1.30
-1.58 -1.16 1.31
-1.79 -1.21 1.26
-1.90 -1.23 1.24
-1.56 -1.12 1.31
-1.86 -1.19 1.25
-1.98 -1.21 1.22
-1.64 -1.11 1.30
-1.98 -1.19 1.22
-1.79 -1.13 1.27
-1.67 -1.09 1.29
-1.68 -1.08 1.29
-1.67 -1.07 1.29
-1.54 -1.03 1.32
-1.77 -1.07 1.27
-1.43 -0.98 1.34
-1.83 -1.05 1.26
-1.13 -0.82 1.41
-1.46 -0.89 1.34
-4.53 -1.54 0.69
-4.60 -1.54 0.68
-4.57 -1.48 0.69
-4.79 -1.51 0.64
-4.66 -1.46 0.67
-5.06 -1.51 0.59
-4.72 -1.42 0.66
-1.99 -0.87 1.23
-4.86 -1.36 0.63
-4.80 -1.33 0.64
-5.10 -1.37 0.58
-3.87 -1.10 0.84
-4.30 -1.16 0.75
-4.14 -1.10 0.78
-1.12 -0.60 1.41
-4.43 -1.11 0.72
-4.39 -1.07 0.73
-4.02 -0.98 0.81
-3.54 -0.88 0.91
-3.30 -0.82 0.96
-3.33 -0.81 0.95
-3.84 -0.85 0.85
-3.58 -0.79 0.90
-3.66 -0.78 0.89
-3.52 -0.74 0.91
-3.45 -0.71 0.93
-3.47 -0.70 0.93
-3.37 -0.67 0.95
-3.67 -0.66 0.88
-3.15 -0.57 0.99
-3.30 -0.51 0.96
-2.82 -0.44 1.06
-2.74 -0.36 1.08
-2.86 -0.33 1.05
-2.80 -0.31 1.06
-2.42 -0.27 1.14
-3.01 -0.29 1.02
-3.01 -0.27 1.02
-2.50 -0.19 1.12
-4.95 -0.26 0.62
-2.40 -0.15 1.14
-2.37 -0.14 1.15
-2.34 -0.10 1.16
-5.28 -0.12 0.55
-2.36 -0.05 1.15
-2.41 -0.03 1.14
-6.71 -0.00 0.66
-6.59 0.02 0.68
-6.62 0.03 0.67
-6.62 0.05 0.68
-6.70 0.07 0.66
-6.61 0.08 0.68
-6.85 0.10 0.62
-6.75 0.12 0.64
-7.05 0.14 0.58
-7.05 0.16 0.58
-6.84 0.17 0.63
-7.03 0.19 0.58
-6.99 0.21 0.59
-6.81 0.22 0.63
-7.14 0.25 0.56
-7.26 0.27 0.53
-6.36 0.26 0.73
-6.54 0.28 0.69
-6.38 0.29 0.72
-6.26 0.30 0.74
-6.40 0.32 0.72
-6.48 0.34 0.70
-6.30 0.35 0.74
-6.39 0.37 0.71
-6.23 0.38 0.75
-7.89 0.49 0.39
-5.91 0.39 0.82
-7.05 0.50 0.57
-6.64 0.49 0.66
-7.65 0.57 0.44
-7.67 0.60 0.43
-7.77 0.62 0.41
-7.79 0.64 0.41
-7.80 0.66 0.40
-7.72 0.68 0.42
-7.49 0.68 0.47
-7.76 0.72 0.41
-7.34 0.70 0.50
-7.13 0.70 0.55
-7.13 0.72 0.55
-7.39 0.76 0.49
-7.58 0.80 0.45
-7.19 0.78 0.53
-7.33 0.81 0.50
-7.24 0.82 0.52
-7.24 0.84 0.52
-7.40 0.88 0.48
-5.54 0.70 0.88
-5.78 0.79 0.83
-5.56 0.77 0.88
-5.63 0.80 0.86
-7.53 1.06 0.45
-7.61 1.09 0.43
-7.77 1.14 0.39
-7.63 1.14 0.42
-7.75 1.17 0.39
-7.97 1.25 0.34
-7.66 1.22 0.41
-7.73 1.25 0.40
-7.68 1.26 0.40
-3.87 0.68 1.24
-7.43 1.26 0.46
-7.50 1.29 0.44
-7.46 1.31 0.45
-7.58 1.35 0.42
-7.44 1.34 0.45
-7.58 1.38 0.42
-7.55 1.40 0.42
-7.79 1.46 0.37
-7.33 1.40 0.47
-7.35 1.42 0.47
-7.35 1.44 0.47
-7.13 1.42 0.51
-4.25 0.89 1.15
-7.22 1.47 0.49
-4.02 0.87 1.19
-7.02 1.47 0.53
-7.06 1.50 0.52
-7.03 1.51 0.53
-7.18 1.56 0.49
-7.09 1.56 0.51
-6.95 1.55 0.54
-6.97 1.58 0.54
-7.04 1.61 0.52
-7.10 1.64 0.51
-6.96 1.63 0.53
-6.96 1.67 0.53
-6.78 1.66 0.57
-4.55 1.22 1.06
-4.56 1.23 1.06
-4.55 1.24 1.06
-4.57 1.26 1.05
-4.69 1.31 1.03
-4.79 1.37 1.00
-4.81 1.40 0.99
-5.23 1.53 0.90
-2.95 -1.54 0.95
-2.58 -1.39 1.04
-2.47 -1.34 1.06
-2.37 -1.30 1.09
-2.73 -1.37 1.01
-2.94 -1.41 0.96
-2.19 -1.21 1.13
-3.03 -1.41 0.94
-3.51 -1.51 0.84
-3.48 -1.49 0.84
-3.71 -1.53 0.79
-3.88 -1.54 0.76
-3.88 -1.52 0.76
-4.41 -1.63 0.64
-4.43 -1.60 0.64
-4.43 -1.58 0.64
-4.43 -1.57 0.64
-4.48 -1.54 0.63
-4.30 -1.49 0.67
-1.87 -0.95 1.20
-4.52 -1.48 0.62
-4.57 -1.47 0.61
-4.60 -1.46 0.61
-4.64 -1.44 0.60
-4.78 -1.43 0.57
-4.90 -1.41 0.54
-4.67 -1.35 0.59
-5.16 -1.42 0.49
-4.87 -1.33 0.55
-2.21 -0.85 1.13
-4.95 -1.31 0.53
-4.30 -1.17 0.68
-4.21 -1.12 0.70
-4.18 -1.08 0.70
-4.01 -1.04 0.74
-4.14 -1.04 0.71
-4.16 -1.01 0.71
-3.88 -0.95 0.77
-3.61 -0.90 0.83
-3.42 -0.84 0.87
-3.40 -0.83 0.87
-3.57 -0.83 0.84
-3.78 -0.83 0.79
-3.75 -0.81 0.80
-3.63 -0.78 0.83
-3.67 -0.76 0.82
-3.74 -0.75 0.80
-3.76 -0.74 0.80
-4.02 -0.74 0.74
-3.97 -0.71 0.75
-3.83 -0.68 0.78
-3.78 -0.66 0.79
-3.97 -0.65 0.75
-3.43 -0.58 0.87
-3.48 -0.57 0.86
-3.36 -0.55 0.88
-3.07 -0.51 0.95
-3.25 -0.51 0.91
-3.43 -0.50 0.87
-4.26 -0.53 0.69
-4.06 -0.48 0.73
-3.30 -0.42 0.90
-3.57 -0.42 0.84
-3.53 -0.39 0.85
-3.16 -0.35 0.93
-5.91 -0.36 0.83
-5.87 -0.34 0.84
-5.95 -0.33 0.83
-6.01 -0.32 0.81
-5.89 -0.30 0.84
-5.86 -0.28 0.84
-5.59 -0.26 0.90
-5.75 -0.25 0.87
-6.08 -0.25 0.80
-5.68 -0.22 0.88
-6.06 -0.21 0.80
-6.06 -0.20 0.80
-6.24 -0.19 0.76
-6.49 -0.15 0.71
-7.96 -0.16 0.39
-7.97 -0.14 0.39
-8.00 -0.12 0.38
-6.99 -0.07 0.60
-8.02 -0.06 0.38
-6.81 -0.04 0.64
-6.76 -0.02 0.65
-2.73 -0.01 0.97
-4.79 0.01 0.50
