# .PCD v0.7 - Point Cloud Data file format
VERSION 0.7
FIELDS x y z
SIZE 4 4 4
TYPE F F F
COUNT 1 1 1
WIDTH 2944
HEIGHT 1
VIEWPOINT 0 0 0 1 0 0 0
POINTS 2944
DATA ASCII
-7.91 -1.26 0.46
-7.88 -1.23 0.47
-4.63 -0.84 1.00
-8.31 -1.23 0.40
-8.29 -1.20 0.40
-8.21 -1.17 0.41
-8.27 -1.15 0.40
-7.95 -1.09 0.46
-8.01 -1.07 0.45
-8.08 -1.05 0.43
-8.13 -1.03 0.43
-8.12 -1.00 0.43
-8.02 -0.97 0.44
-8.25 -0.96 0.41
-8.18 -0.93 0.42
-8.31 -0.92 0.40
-8.20 -0.88 0.41
-8.19 -0.85 0.42
-8.14 -0.82 0.43
-4.51 -0.53 1.02
-8.04 -0.77 0.44
-8.14 -0.75 0.43
-7.89 -0.71 0.47
-6.78 -0.61 0.65
-6.55 -0.57 0.68
-6.77 -0.56 0.65
-6.83 -0.55 0.64
-6.61 -0.36 1.03
-6.59 -0.34 1.03
-6.91 -0.34 0.98
-9.27 -0.41 0.59
-9.39 -0.37 0.57
-9.43 -0.34 0.56
-4.80 -0.17 1.33
-9.33 -0.30 0.58
-9.77 -0.28 0.51
-6.57 -0.16 1.03
-6.86 -0.13 0.99
-7.10 -0.12 0.95
-6.78 -0.10 1.00
-6.87 -0.08 0.98
-6.81 -0.06 0.99
-6.94 -0.05 0.97
-6.79 -0.03 1.00
-6.42 -0.00 0.63
-6.46 0.02 0.62
-4.08 0.03 1.03
-5.42 0.04 1.18
-6.14 0.07 1.05
-6.27 0.08 1.03
-6.38 0.10 1.01
-6.30 0.11 1.02
-6.26 0.13 1.03
-6.21 0.14 1.04
-6.46 0.17 1.00
-6.47 0.18 0.99
-6.12 0.19 1.05
-5.82 0.20 1.11
-6.18 0.22 1.04
-6.12 0.24 1.05
-6.33 0.26 1.01
-5.85 0.26 1.10
-5.93 0.27 1.08
-6.01 0.29 1.07
-5.51 0.28 1.16
-5.44 0.29 1.17
-5.38 0.31 1.18
-6.50 0.38 0.98
-5.11 0.32 1.22
-6.34 0.40 1.01
-5.06 0.34 1.23
-5.75 0.40 1.11
-4.74 0.35 1.29
-4.52 0.34 1.32
-5.22 0.40 1.20
-6.28 0.50 1.02
-4.55 0.38 1.32
-5.29 0.45 1.19
-4.83 0.43 1.27
-4.38 0.40 1.35
-6.05 0.56 1.06
-5.53 0.53 1.15
-5.47 0.54 1.16
-5.21 0.52 1.20
-4.65 0.48 1.30
-3.78 0.41 1.45
-4.54 0.50 1.32
-4.61 0.52 1.30
-4.66 0.53 1.30
-4.78 0.56 1.27
-4.39 0.53 1.34
-4.02 0.50 1.41
-4.24 0.54 1.37
-4.40 0.57 1.34
-4.64 0.61 1.30
-4.83 0.64 1.26
-4.50 0.61 1.32
-3.92 0.55 1.42
-4.33 0.62 1.35
-3.99 0.58 1.41
-4.08 0.61 1.39
-4.22 0.64 1.36
-4.03 0.62 1.40
-4.44 0.69 1.33
-4.32 0.68 1.35
-4.05 0.66 1.39
-4.05 0.67 1.39
-3.96 0.67 1.41
-4.36 0.74 1.34
-3.93 0.68 1.41
-4.01 0.71 1.40
-4.26 0.76 1.35
-4.29 0.77 1.35
-4.90 0.89 1.24
-4.16 0.77 1.37
-5.07 0.94 1.21
-4.96 0.94 1.23
-4.98 0.95 1.22
-5.07 0.98 1.21
-5.01 0.98 1.22
-5.21 1.03 1.18
-5.37 1.08 1.15
-5.35 1.09 1.15
-5.29 1.09 1.16
-5.23 1.09 1.17
-5.16 1.09 1.19
-3.42 0.77 1.49
-5.28 1.15 1.16
-5.17 1.14 1.18
-5.55 1.23 1.11
-5.37 1.21 1.14
-5.28 1.20 1.16
-4.17 0.98 1.36
-3.27 0.80 1.52
-3.47 0.85 1.48
-3.40 0.85 1.49
-3.32 0.84 1.51
-3.23 0.83 1.52
-3.43 0.89 1.49
-3.40 0.89 1.49
-3.25 0.86 1.52
-3.29 0.88 1.51
-3.22 0.87 1.52
-3.24 0.89 1.52
-3.23 0.90 1.52
-3.26 0.91 1.51
-3.03 0.87 1.55
-3.26 0.93 1.51
-3.42 0.98 1.48
-3.17 0.93 1.52
-3.45 1.01 1.47
-3.21 0.96 1.52
-4.26 1.24 1.33
-3.55 1.07 1.46
-3.54 1.08 1.46
-3.90 1.18 1.39
-3.62 1.12 1.44
-4.04 1.25 1.36
-3.78 1.18 1.41
-3.58 1.14 1.44
-3.61 1.16 1.44
-3.53 1.15 1.45
-3.41 1.12 1.47
-3.26 1.09 1.50
-3.32 1.12 1.49
-3.29 1.12 1.49
-3.25 1.12 1.50
-3.21 1.11 1.51
-3.23 1.13 1.50
-3.21 1.13 1.51
-3.18 1.13 1.51
-3.28 1.17 1.49
-3.17 1.15 1.51
-3.09 1.13 1.52
-3.09 1.14 1.52
-3.05 1.14 1.53
-3.08 1.16 1.52
-3.09 1.17 1.52
-3.06 1.17 1.53
-3.01 1.17 1.53
-3.08 1.20 1.52
-3.08 1.21 1.52
-3.05 1.21 1.53
-3.02 1.21 1.53
-3.10 1.25 1.51
-3.13 1.27 1.51
-3.06 1.25 1.52
-3.14 1.29 1.51
-3.02 1.25 1.53
-3.03 1.27 1.52
-3.01 1.27 1.53
-2.96 1.26 1.53
-2.93 1.26 1.54
-2.88 1.25 1.55
-2.94 1.28 1.54
-2.85 1.26 1.55
-2.80 1.25 1.56
-2.87 1.29 1.55
-2.77 1.26 1.56
-2.76 1.27 1.57
-2.73 1.26 1.57
-2.73 1.27 1.57
-2.82 1.32 1.55
-2.74 1.29 1.57
-2.80 1.33 1.56
-2.65 1.28 1.58
-2.63 1.28 1.59
-2.58 1.27 1.59
-2.62 1.29 1.59
-2.55 1.27 1.60
-2.62 1.31 1.58
-2.49 1.26 1.61
-2.57 1.31 1.59
-2.54 1.30 1.60
-2.51 1.30 1.60
-2.35 1.24 1.63
-2.54 1.33 1.59
-2.36 1.26 1.63
-2.41 1.29 1.62
-2.21 1.21 1.66
-2.40 1.42 1.61
-2.39 1.52 1.60
-2.28 1.48 1.62
-1.72 1.68 1.68
-4.13 -1.66 1.01
-4.15 -1.61 1.01
-4.46 -1.62 0.96
-4.58 -1.61 0.94
-4.11 -1.41 1.02
-4.10 -1.36 1.02
-3.77 -1.27 1.08
-3.93 -1.26 1.06
-3.80 -1.22 1.08
-3.98 -1.24 1.05
-4.00 -1.22 1.04
-3.97 -1.20 1.05
-3.71 -1.14 1.09
-6.75 -1.66 0.57
-3.81 -1.06 1.08
-4.10 -1.09 1.03
-3.89 -1.05 1.06
-3.90 -1.03 1.06
-4.03 -1.04 1.04
-3.91 -1.00 1.06
-3.82 -0.97 1.08
-3.92 -0.97 1.06
-3.98 -0.96 1.05
-7.18 -1.41 0.50
-3.98 -0.93 1.05
-3.96 -0.91 1.06
-3.84 -0.88 1.07
-3.94 -0.88 1.06
-3.91 -0.86 1.06
-3.70 -0.82 1.10
-3.74 -0.81 1.09
-3.71 -0.79 1.10
-3.56 -0.76 1.12
-7.71 -1.24 0.41
-3.65 -0.74 1.11
-7.82 -1.20 0.39
-7.91 -1.18 0.38
-7.82 -1.15 0.39
-4.81 -0.80 0.91
-7.84 -1.10 0.39
-7.92 -1.08 0.38
-7.80 -1.05 0.40
-7.81 -1.02 0.40
-7.83 -1.00 0.39
-7.82 -0.97 0.39
-7.91 -0.96 0.38
-8.19 -0.96 0.33
-8.12 -0.92 0.34
-8.28 -0.91 0.32
-8.17 -0.88 0.34
-8.07 -0.82 0.35
-4.79 -0.55 0.91
-6.14 -0.59 0.68
-7.31 -0.64 0.48
-0.75 -0.21 1.60
-6.61 -0.55 0.60
-6.81 -0.54 0.57
-6.77 -0.52 0.57
-1.29 -0.21 1.51
-6.57 -0.46 0.61
-6.42 -0.43 0.63
-6.67 -0.42 0.59
-6.55 -0.40 0.61
-1.50 -0.17 1.47
-1.84 -0.17 1.42
-6.74 -0.34 0.58
-3.33 -0.20 1.16
-6.91 -0.30 0.55
-1.04 -0.11 1.55
-6.67 -0.25 0.59
-3.30 -0.14 1.17
-3.24 -0.13 1.18
-6.67 -0.18 0.59
-6.71 -0.16 0.58
-6.75 -0.14 0.57
-6.72 -0.12 0.58
-6.93 -0.09 0.54
-6.75 -0.07 0.57
-6.90 -0.05 0.55
-6.61 -0.03 0.60
-6.39 0.00 0.95
-6.26 0.02 0.98
-6.15 0.03 1.00
-6.15 0.05 1.00
-6.22 0.07 0.98
-6.31 0.08 0.97
-6.32 0.10 0.97
-6.42 0.12 0.95
-6.27 0.13 0.97
-5.99 0.14 1.02
-5.99 0.15 1.02
-6.11 0.17 1.00
-6.46 0.20 0.94
-6.28 0.21 0.97
-6.38 0.23 0.95
-6.32 0.24 0.96
-6.42 0.26 0.94
-5.99 0.26 1.02
-6.06 0.28 1.01
-5.77 0.28 1.06
-5.79 0.30 1.06
-5.82 0.31 1.05
-6.20 0.35 0.98
-6.48 0.38 0.93
-6.64 0.41 0.90
-6.61 0.42 0.91
-6.69 0.44 0.89
-6.95 0.48 0.84
-6.27 0.45 0.97
-6.99 0.51 0.83
-6.34 0.48 0.95
-6.60 0.52 0.90
-6.32 0.52 0.96
-6.41 0.54 0.94
-6.14 0.53 0.99
-6.01 0.54 1.01
-5.95 0.55 1.02
-5.68 0.54 1.07
-6.09 0.59 0.99
-6.42 0.64 0.93
-6.12 0.63 0.99
-5.97 0.63 1.01
-6.21 0.67 0.97
-5.19 0.58 1.16
-5.38 0.61 1.12
-5.11 0.60 1.17
-5.01 0.60 1.19
-5.10 0.62 1.17
-5.20 0.65 1.15
-5.33 0.68 1.13
-5.35 0.69 1.12
-5.32 0.70 1.13
-5.08 0.69 1.17
-5.13 0.71 1.16
-5.16 0.72 1.16
-5.04 0.72 1.18
-5.26 0.76 1.14
-5.11 0.76 1.16
-5.18 0.78 1.15
-5.07 0.78 1.17
-5.30 0.83 1.13
-5.15 0.82 1.15
-5.22 0.84 1.14
-5.29 0.87 1.13
-5.46 0.91 1.09
-5.49 0.92 1.09
-5.32 0.91 1.12
-5.73 0.99 1.04
-5.28 0.93 1.12
-5.48 0.98 1.09
-5.47 1.00 1.09
-5.34 0.99 1.11
-5.33 1.00 1.11
-5.37 1.02 1.10
-5.50 1.06 1.08
-5.51 1.08 1.08
-5.46 1.08 1.09
-5.55 1.11 1.07
-5.54 1.12 1.07
-5.48 1.13 1.08
-5.44 1.14 1.09
-5.42 1.15 1.09
-5.61 1.20 1.05
-5.54 1.20 1.07
-5.62 1.23 1.05
-5.68 1.26 1.04
-5.57 1.25 1.06
-5.67 1.29 1.04
-5.72 1.31 1.03
-5.47 1.27 1.07
-5.44 1.28 1.08
-5.40 1.29 1.09
-5.33 1.29 1.10
-5.29 1.29 1.10
-5.38 1.33 1.09
-5.40 1.35 1.08
-5.20 1.32 1.12
-5.18 1.33 1.12
-5.17 1.34 1.12
-5.26 1.37 1.11
-5.13 1.36 1.13
-5.28 1.41 1.10
-5.37 1.45 1.08
-5.30 1.44 1.09
-5.40 1.48 1.07
-5.35 1.49 1.08
-5.26 1.48 1.10
-5.21 1.48 1.11
-5.26 1.51 1.10
-5.25 1.52 1.10
-5.13 1.50 1.12
-5.03 1.49 1.14
-5.30 1.58 1.09
-4.96 1.50 1.15
-5.10 1.55 1.12
-5.09 1.56 1.12
-5.16 1.60 1.11
-5.30 1.65 1.08
-5.26 1.65 1.09
-3.91 1.30 1.34
-3.95 1.34 1.33
-3.59 1.25 1.40
-3.78 1.32 1.36
-3.33 1.19 1.45
-3.41 1.23 1.43
-3.27 1.19 1.46
-3.37 1.24 1.44
-3.41 1.26 1.43
-3.35 1.25 1.44
-3.38 1.27 1.43
-3.27 1.24 1.45
-3.30 1.26 1.45
-3.45 1.32 1.42
-3.72 1.43 1.37
-3.21 1.27 1.46
-3.51 1.38 1.40
-3.79 1.49 1.35
-3.60 1.43 1.38
-4.30 1.69 1.25
-3.32 1.35 1.44
-3.59 1.46 1.38
-4.10 1.66 1.28
-3.68 1.52 1.36
-3.99 1.64 1.30
-3.88 1.61 1.32
-3.10 1.35 1.47
-4.17 -1.66 0.95
-4.38 -1.67 0.91
-4.54 -1.69 0.88
-4.10 -1.57 0.96
-4.66 -1.68 0.86
-4.39 -1.59 0.91
-4.19 -1.53 0.95
-4.35 -1.54 0.92
-4.15 -1.48 0.96
-4.31 -1.50 0.93
-4.32 -1.49 0.93
-4.16 -1.44 0.96
-4.16 -1.42 0.96
-4.19 -1.41 0.95
-4.10 -1.37 0.97
-4.25 -1.39 0.94
-4.21 -1.36 0.95
-4.15 -1.34 0.96
-4.02 -1.29 0.98
-3.78 -1.23 1.03
-3.93 -1.24 1.00
-3.89 -1.22 1.01
-4.04 -1.23 0.98
-3.92 -1.19 1.00
-4.04 -1.20 0.98
-3.99 -1.17 0.99
-3.96 -1.15 1.00
-4.21 -1.18 0.95
-4.13 -1.15 0.97
-4.17 -1.14 0.96
-4.19 -1.13 0.96
-4.04 -1.09 0.98
-3.99 -1.06 0.99
-4.02 -1.05 0.99
-3.96 -1.03 1.00
-3.90 -1.00 1.01
-3.98 -1.00 1.00
-4.05 -0.99 0.98
-4.08 -0.98 0.98
-3.97 -0.95 1.00
-4.18 -0.96 0.96
-4.12 -0.94 0.97
-4.20 -0.93 0.96
-3.97 -0.89 1.00
-3.93 -0.86 1.00
-3.99 -0.86 0.99
-4.03 -0.85 0.99
-4.07 -0.84 0.98
-3.92 -0.80 1.01
-3.92 -0.79 1.01
-3.98 -0.78 1.00
-4.17 -0.78 0.96
-4.34 -0.79 0.93
-4.43 -0.78 0.92
-4.27 -0.74 0.94
-4.30 -0.73 0.94
-4.40 -0.72 0.92
-4.32 -0.70 0.94
-4.41 -0.69 0.92
-4.33 -0.67 0.93
-4.15 -0.63 0.97
-3.97 -0.60 1.00
-3.58 -0.55 1.07
-3.21 -0.50 1.14
-4.11 -0.57 0.97
-4.25 -0.55 0.95
-3.02 -0.44 1.17
-4.05 -0.50 0.98
-4.40 -0.51 0.92
-4.48 -0.50 0.91
-4.53 -0.48 0.90
-4.50 -0.46 0.90
-4.42 -0.44 0.92
-6.75 -0.56 0.50
-6.50 -0.53 0.54
-4.30 -0.38 0.94
-5.37 -0.42 0.75
-4.76 -0.37 0.86
-4.55 -0.35 0.89
-4.63 -0.33 0.88
-6.35 -0.39 0.57
-3.75 -0.26 1.04
-6.36 -0.35 0.57
-6.51 -0.33 0.54
-3.50 -0.21 1.08
-3.77 -0.20 1.03
-3.57 -0.18 1.07
-4.25 -0.18 0.95
-4.03 -0.16 0.98
-6.65 -0.20 0.52
-4.46 -0.14 0.91
-4.28 -0.12 0.94
-8.09 -0.12 0.65
-6.67 -0.08 0.90
-6.55 -0.06 0.93
-6.47 -0.05 0.94
-6.36 -0.03 0.96
-6.42 -0.01 0.95
-3.85 -0.00 0.96
-3.67 0.01 0.99
-1.90 0.02 1.33
-3.87 0.04 0.96
-4.00 0.06 0.93
-2.22 0.05 1.27
-1.90 0.06 1.33
-1.92 0.07 1.32
-1.93 0.08 1.32
-1.62 0.09 1.38
-1.98 0.11 1.31
-5.45 0.16 1.07
-5.30 0.18 1.10
-5.45 0.20 1.07
-5.68 0.22 1.03
-5.59 0.23 1.04
-5.56 0.24 1.05
-5.63 0.26 1.04
-5.63 0.29 1.04
-5.57 0.30 1.05
-5.69 0.32 1.02
-3.84 0.23 1.38
-5.07 0.31 1.14
-4.99 0.32 1.15
-4.91 0.33 1.17
-5.12 0.36 1.13
-5.05 0.38 1.14
-4.67 0.36 1.21
-5.48 0.44 1.06
-5.64 0.46 1.03
-5.92 0.50 0.97
-5.50 0.48 1.05
-5.52 0.50 1.05
-5.21 0.50 1.11
-4.97 0.49 1.15
-4.53 0.46 1.24
-4.40 0.46 1.26
-4.31 0.46 1.28
-4.17 0.46 1.30
-4.34 0.49 1.27
-4.47 0.53 1.25
-4.22 0.51 1.29
-4.20 0.52 1.30
-4.51 0.57 1.24
-4.52 0.58 1.23
-4.78 0.62 1.18
-4.49 0.60 1.24
-5.00 0.69 1.14
-4.60 0.65 1.22
-4.74 0.68 1.19
-4.84 0.71 1.17
-4.83 0.72 1.17
-4.92 0.74 1.15
-3.91 0.61 1.35
-4.19 0.68 1.29
-4.02 0.66 1.32
-4.49 0.74 1.23
-4.87 0.81 1.16
-4.75 0.81 1.18
-5.03 0.86 1.13
-4.72 0.83 1.19
-5.01 0.90 1.13
-5.12 0.93 1.11
-5.05 0.93 1.12
-5.26 0.98 1.08
-5.13 0.98 1.10
-5.27 1.01 1.08
-5.19 1.02 1.09
-5.18 1.04 1.09
-5.00 1.02 1.12
-5.00 1.03 1.12
-4.92 1.03 1.14
-4.93 1.05 1.14
-5.06 1.09 1.11
-5.17 1.12 1.09
-4.83 1.08 1.15
-3.02 0.72 1.51
-3.44 0.82 1.42
-3.24 0.78 1.46
-3.19 0.78 1.47
-3.38 0.83 1.43
-3.30 0.83 1.45
-3.49 0.89 1.41
-3.60 0.92 1.39
-3.45 0.90 1.42
-3.35 0.89 1.43
-3.45 0.92 1.41
-3.61 0.97 1.38
-3.39 0.92 1.42
-5.03 1.34 1.10
-3.43 0.96 1.41
-3.31 0.94 1.44
-3.48 0.99 1.40
-3.52 1.02 1.39
-3.81 1.10 1.34
-3.33 0.99 1.43
-3.40 1.03 1.41
-3.54 1.07 1.39
-3.54 1.08 1.39
-3.94 1.20 1.31
-3.66 1.14 1.36
-3.35 1.06 1.42
-3.52 1.12 1.39
-3.46 1.12 1.40
-3.27 1.08 1.43
-3.18 1.06 1.45
-3.18 1.07 1.45
-3.50 1.18 1.39
-3.40 1.16 1.41
-3.15 1.09 1.46
-3.09 1.09 1.47
-3.23 1.15 1.44
-3.20 1.15 1.44
-3.21 1.16 1.44
-3.35 1.21 1.41
-3.09 1.14 1.46
-3.07 1.15 1.46
-3.11 1.18 1.46
-3.24 1.23 1.43
-3.09 1.19 1.46
-3.16 1.22 1.44
-3.13 1.22 1.45
-3.10 1.22 1.45
-3.06 1.22 1.46
-3.08 1.24 1.46
-3.09 1.26 1.45
-3.02 1.24 1.47
-2.99 1.24 1.47
-3.00 1.26 1.47
-3.12 1.31 1.44
-3.08 1.31 1.45
-3.18 1.36 1.43
-2.99 1.30 1.47
-3.07 1.34 1.45
-2.98 1.32 1.47
-3.09 1.37 1.44
-3.06 1.37 1.45
-2.95 1.34 1.47
-2.98 1.36 1.46
-2.85 1.32 1.49
-2.82 1.32 1.49
-2.94 1.38 1.47
-2.83 1.34 1.49
-2.71 1.31 1.51
-2.81 1.36 1.49
-2.74 1.34 1.51
-2.75 1.36 1.50
-2.90 1.43 1.47
-2.59 1.31 1.53
-2.75 1.39 1.50
-2.74 1.39 1.50
-2.65 1.37 1.52
-2.68 1.39 1.51
-2.55 1.36 1.54
-2.43 1.32 1.56
-2.49 1.35 1.55
-2.62 1.42 1.52
-2.76 1.49 1.49
-2.45 1.37 1.55
-2.44 1.38 1.55
-2.48 1.57 1.52
-2.20 1.43 1.59
-2.47 1.58 1.52
-2.25 1.48 1.57
-2.17 1.47 1.59
-2.33 1.56 1.55
-2.31 1.57 1.55
-2.37 1.62 1.54
-2.27 1.59 1.56
-2.39 1.66 1.53
-2.36 1.66 1.53
-2.39 1.68 1.53
-2.02 1.56 1.60
-2.13 1.64 1.57
-3.85 -1.69 0.95
-3.60 -1.60 1.00
-4.24 -1.60 0.88
-3.94 -1.45 0.94
-4.21 -1.46 0.89
-3.72 -1.17 0.99
-3.95 -1.12 0.94
-4.06 -1.12 0.92
-3.97 -1.09 0.94
-0.97 -0.59 1.51
-3.96 -1.06 0.94
-3.97 -1.04 0.94
-1.79 -0.69 1.35
-7.29 -1.52 0.31
-4.16 -1.02 0.91
-7.21 -1.46 0.33
-4.12 -0.98 0.91
-3.91 -0.94 0.95
-3.94 -0.93 0.95
-7.31 -1.38 0.31
-4.18 -0.93 0.90
-3.97 -0.88 0.94
-3.81 -0.85 0.97
-3.90 -0.84 0.96
-4.12 -0.86 0.91
-4.01 -0.83 0.93
-3.99 -0.81 0.94
-4.17 -0.81 0.91
-4.13 -0.79 0.91
-3.99 -0.76 0.94
-4.02 -0.75 0.93
-4.32 -0.77 0.88
-3.87 -0.70 0.96
-4.33 -0.72 0.88
-3.59 -0.63 1.02
-3.71 -0.62 0.99
-0.78 -0.25 1.54
-7.23 -0.68 0.33
-0.51 -0.21 1.59
-0.64 -0.21 1.57
-0.44 -0.19 1.61
-0.95 -0.21 1.51
-0.71 -0.18 1.55
-0.95 -0.17 1.51
-4.56 -0.33 0.83
-3.37 -0.26 1.05
-3.21 -0.24 1.09
-0.74 -0.13 1.55
-3.40 -0.22 1.05
-3.26 -0.20 1.08
-6.65 -0.29 0.44
-3.54 -0.18 1.02
-3.96 -0.18 0.94
-6.68 -0.23 0.43
-4.34 -0.15 0.87
-6.62 -0.18 0.44
-4.24 -0.12 0.89
-3.29 -0.09 1.07
-2.04 -0.06 1.30
-2.48 -0.05 1.22
-2.34 -0.04 1.24
-3.74 -0.03 0.98
-0.34 -0.01 1.62
-6.50 0.00 0.81
-6.33 0.03 0.84
-6.38 0.07 0.83
-6.18 0.10 0.87
-6.14 0.13 0.88
-6.59 0.17 0.79
-6.41 0.20 0.83
-5.83 0.21 0.94
-6.52 0.25 0.80
-6.33 0.26 0.84
-5.41 0.25 1.02
-5.41 0.28 1.02
-5.41 0.31 1.02
-5.35 0.32 1.03
-5.42 0.34 1.02
-5.50 0.37 1.00
-5.49 0.40 1.00
-5.65 0.43 0.97
-5.91 0.47 0.92
-5.78 0.47 0.94
-5.72 0.50 0.95
-5.62 0.52 0.97
-5.41 0.53 1.01
-5.11 0.52 1.07
-5.11 0.53 1.07
-4.88 0.53 1.12
-4.71 0.54 1.15
-4.85 0.58 1.12
-4.89 0.60 1.11
-4.75 0.60 1.14
-5.03 0.65 1.08
-4.97 0.67 1.10
-5.15 0.72 1.06
-5.03 0.73 1.08
-5.13 0.77 1.06
-5.16 0.81 1.05
-5.04 0.82 1.07
-5.08 0.83 1.07
-4.98 0.83 1.08
-5.07 0.87 1.07
-5.27 0.93 1.02
-5.40 0.98 1.00
-5.35 0.99 1.01
-5.49 1.03 0.98
-5.54 1.07 0.96
-5.39 1.07 0.99
-5.33 1.09 1.00
-5.17 1.07 1.04
-5.22 1.09 1.02
-5.01 1.08 1.07
-5.36 1.18 0.99
-5.35 1.21 0.99
-5.40 1.23 0.98
-5.16 1.19 1.03
-5.23 1.24 1.01
-5.27 1.28 1.01
-5.19 1.29 1.02
-5.12 1.29 1.03
-5.18 1.31 1.02
-5.14 1.33 1.03
-5.03 1.33 1.05
-5.12 1.39 1.03
-5.00 1.37 1.05
-5.05 1.40 1.04
-5.01 1.41 1.05
-5.07 1.46 1.03
-5.10 1.49 1.02
-5.17 1.53 1.01
-5.16 1.54 1.01
-5.03 1.53 1.03
-5.17 1.60 1.00
-5.04 1.59 1.03
-4.89 1.56 1.06
-4.94 1.59 1.05
-4.53 1.50 1.13
-4.43 1.50 1.15
-4.54 1.56 1.12
-4.54 1.57 1.12
-4.73 1.64 1.08
-3.85 1.39 1.27
-3.80 1.40 1.27
-4.04 1.50 1.22
-4.10 1.53 1.21
-4.42 1.65 1.14
-4.07 1.56 1.21
-3.24 1.30 1.38
-3.30 1.34 1.37
-3.22 1.32 1.39
-3.29 1.36 1.37
-3.92 1.61 1.23
-2.96 1.51 1.42
-4.17 -1.66 0.83
-4.09 -1.62 0.84
-4.05 -1.60 0.85
-4.04 -1.58 0.85
-3.93 -1.53 0.88
-4.21 -1.58 0.82
-4.18 -1.56 0.83
-4.14 -1.53 0.84
-4.20 -1.53 0.82
-4.04 -1.48 0.86
-4.20 -1.50 0.82
-4.00 -1.44 0.87
-4.07 -1.44 0.85
-4.01 -1.41 0.86
-3.93 -1.37 0.88
-3.97 -1.37 0.87
-3.98 -1.35 0.87
-3.92 -1.32 0.88
-4.12 -1.35 0.84
-3.95 -1.30 0.88
-4.11 -1.31 0.85
-4.05 -1.29 0.86
-4.11 -1.28 0.85
-3.98 -1.24 0.87
-4.11 -1.25 0.85
-4.00 -1.21 0.87
-4.20 -1.23 0.83
-4.15 -1.21 0.84
-3.88 -1.14 0.89
-4.16 -1.18 0.84
-4.19 -1.16 0.83
-4.18 -1.15 0.84
-4.15 -1.12 0.84
-4.15 -1.11 0.84
-4.02 -1.07 0.87
-4.09 -1.06 0.86
-4.00 -1.04 0.87
-4.14 -1.04 0.85
-4.18 -1.03 0.84
-4.06 -1.00 0.86
-4.13 -0.99 0.85
-4.06 -0.96 0.86
-4.08 -0.95 0.86
-4.14 -0.94 0.85
-4.27 -0.94 0.82
-4.28 -0.93 0.82
-4.26 -0.91 0.82
-4.31 -0.90 0.81
-4.30 -0.88 0.82
-4.30 -0.87 0.82
-4.39 -0.86 0.80
-4.35 -0.84 0.81
-4.34 -0.82 0.81
-4.30 -0.80 0.82
-4.39 -0.79 0.80
-4.29 -0.77 0.82
-4.20 -0.74 0.84
-4.13 -0.71 0.85
-4.27 -0.71 0.82
-4.02 -0.67 0.87
-4.43 -0.70 0.79
-3.80 -0.62 0.91
-4.02 -0.62 0.87
-3.80 -0.59 0.91
-4.04 -0.59 0.87
-4.08 -0.58 0.86
-4.35 -0.59 0.81
-4.43 -0.58 0.79
-4.65 -0.58 0.75
-4.12 -0.52 0.85
-4.12 -0.50 0.85
-4.41 -0.51 0.80
-4.36 -0.49 0.80
-4.39 -0.47 0.80
-4.79 -0.48 0.72
-4.87 -0.47 0.70
-4.74 -0.44 0.73
-4.74 -0.43 0.73
-4.68 -0.41 0.74
-4.82 -0.40 0.71
-4.93 -0.38 0.69
-4.90 -0.36 0.70
-4.79 -0.34 0.72
-4.59 -0.32 0.76
-4.40 -0.29 0.80
-4.11 -0.26 0.85
-6.67 -0.23 0.78
-6.67 -0.20 0.78
-6.59 -0.16 0.80
-6.73 -0.15 0.77
-6.60 -0.13 0.79
-6.65 -0.10 0.79
-6.56 -0.06 0.80
-6.40 -0.03 0.83
-6.46 -0.01 0.82
-2.34 -0.00 1.16
-2.16 0.01 1.20
-3.69 0.03 0.88
-1.83 0.03 1.26
-1.79 0.04 1.27
-3.92 0.07 0.83
-1.97 0.06 1.23
-2.11 0.07 1.21
-1.82 0.08 1.26
-1.70 0.09 1.29
-1.70 0.10 1.29
-1.77 0.11 1.27
-1.92 0.13 1.24
-1.85 0.14 1.26
-1.63 0.14 1.30
-1.63 0.15 1.30
-3.78 0.24 0.86
-3.98 0.26 0.82
-4.30 0.29 0.75
-4.18 0.30 0.78
-5.18 0.27 1.03
-5.02 0.27 1.06
-5.14 0.29 1.03
-5.22 0.31 1.02
-5.09 0.31 1.04
-5.18 0.33 1.03
-5.12 0.34 1.04
-5.33 0.37 0.99
-5.52 0.40 0.95
-5.43 0.40 0.97
-5.68 0.44 0.92
-5.63 0.45 0.93
-5.85 0.48 0.88
-5.61 0.47 0.93
-5.63 0.49 0.93
-5.31 0.48 0.99
-5.15 0.48 1.03
-4.65 0.45 1.13
-4.78 0.47 1.10
-4.79 0.48 1.10
-4.49 0.47 1.16
-4.51 0.48 1.16
-4.56 0.50 1.15
-4.25 0.48 1.21
-4.20 0.48 1.22
-4.57 0.54 1.14
-4.46 0.53 1.17
-4.30 0.53 1.20
-4.44 0.56 1.17
-4.33 0.56 1.19
-4.45 0.58 1.16
-4.49 0.60 1.16
-4.53 0.61 1.15
-4.41 0.61 1.17
-4.51 0.64 1.15
-4.66 0.67 1.12
-4.59 0.67 1.13
-4.57 0.68 1.14
-4.73 0.71 1.10
-4.73 0.73 1.10
-4.98 0.77 1.05
-4.97 0.79 1.05
-4.77 0.77 1.09
-4.69 0.77 1.11
-4.83 0.81 1.08
-4.58 0.78 1.13
-4.45 0.77 1.15
-4.67 0.82 1.11
-5.00 0.88 1.04
-5.09 0.91 1.02
-5.33 0.97 0.97
-5.15 0.95 1.01
-5.28 0.99 0.98
-5.03 0.96 1.03
-5.27 1.01 0.98
-4.95 0.97 1.04
-5.33 1.05 0.96
-4.65 0.94 1.11
-4.62 0.95 1.11
-4.33 0.90 1.17
-4.45 0.94 1.15
-3.99 0.86 1.24
-4.16 0.91 1.21
-4.21 0.93 1.19
-3.50 0.80 1.34
-3.59 0.83 1.33
-3.56 0.83 1.33
-3.39 0.80 1.37
-3.36 0.81 1.37
-3.31 0.81 1.38
-3.46 0.85 1.35
-3.30 0.82 1.38
-3.22 0.81 1.40
-3.29 0.84 1.38
-3.29 0.85 1.38
-3.35 0.87 1.37
-3.48 0.91 1.34
-3.37 0.90 1.36
-3.33 0.90 1.37
-3.39 0.92 1.36
-3.53 0.97 1.33
-3.30 0.92 1.38
-3.45 0.97 1.34
-3.32 0.94 1.37
-3.26 0.94 1.38
-3.45 1.00 1.34
-3.61 1.05 1.31
-3.29 0.98 1.37
-3.38 1.01 1.35
-3.14 0.95 1.41
-3.16 0.97 1.40
-3.26 1.01 1.38
-3.69 1.13 1.28
-3.47 1.08 1.33
-3.13 1.00 1.40
-3.23 1.04 1.38
-3.28 1.06 1.37
-3.25 1.06 1.38
-3.06 1.02 1.42
-3.43 1.13 1.33
-3.06 1.04 1.41
-3.19 1.08 1.38
-2.88 1.00 1.45
-3.09 1.07 1.40
-3.26 1.13 1.37
-3.01 1.07 1.42
-2.99 1.07 1.43
-3.23 1.15 1.37
-3.03 1.10 1.42
-3.10 1.13 1.40
-3.14 1.15 1.39
-3.11 1.16 1.39
-2.56 1.39 1.47
-2.49 1.36 1.49
-2.68 1.46 1.44
-2.52 1.39 1.48
-2.43 1.36 1.50
-2.39 1.35 1.51
-2.38 1.36 1.51
-2.57 1.47 1.46
-2.54 1.46 1.47
-2.47 1.43 1.49
-2.52 1.54 1.46
-2.43 1.50 1.49
-2.15 1.38 1.55
-2.22 1.47 1.53
-2.43 1.59 1.47
-2.33 1.55 1.50
-2.28 1.53 1.51
-2.37 1.60 1.48
-2.35 1.60 1.49
-2.35 1.61 1.49
-2.36 1.62 1.48
-2.25 1.58 1.51
-2.31 1.63 1.49
-2.31 1.67 1.49
-2.29 1.67 1.49
-2.23 1.64 1.50
-2.28 1.68 1.49
-2.29 1.69 1.49
-2.13 1.62 1.52
-2.08 1.60 1.53
-2.09 1.61 1.53
-2.06 1.67 1.53
-1.91 1.61 1.56
-3.99 -1.49 0.82
-4.10 -1.32 0.80
-4.28 -1.17 0.76
-4.03 -1.11 0.82
-4.02 -1.10 0.82
-1.14 -0.61 1.41
-1.70 -0.69 1.30
-3.93 -1.02 0.84
-4.18 -1.04 0.79
-1.44 -0.61 1.35
-4.02 -0.97 0.82
-4.04 -0.96 0.82
-4.25 -0.97 0.77
-4.32 -0.96 0.76
-4.36 -0.95 0.75
-4.36 -0.94 0.75
-4.25 -0.91 0.77
-4.43 -0.91 0.74
-4.37 -0.89 0.75
-4.28 -0.86 0.77
-4.29 -0.84 0.76
-4.35 -0.84 0.75
-0.49 -0.37 1.55
-3.84 -0.68 0.86
-2.86 -0.55 1.06
-0.56 -0.26 1.53
-0.54 -0.25 1.54
-0.37 -0.23 1.57
-4.21 -0.51 0.78
-4.37 -0.50 0.75
-0.36 -0.20 1.57
-4.60 -0.47 0.70
-4.07 -0.34 0.81
-0.96 -0.17 1.45
-4.03 -0.29 0.82
-1.42 -0.17 1.35
-4.11 -0.26 0.80
-1.09 -0.14 1.42
-3.98 -0.23 0.83
-3.70 -0.20 0.88
-3.88 -0.19 0.85
-3.67 -0.17 0.89
-2.24 -0.09 1.18
-2.06 -0.07 1.22
-3.68 -0.08 0.89
-2.21 -0.05 1.19
-2.43 -0.04 1.14
-3.81 -0.04 0.86
-3.84 -0.02 0.85
-6.28 0.00 0.74
-6.28 0.02 0.74
-6.34 0.03 0.72
-6.33 0.05 0.73
-6.26 0.06 0.74
-6.23 0.08 0.75
-6.21 0.10 0.75
-6.11 0.11 0.77
-6.10 0.13 0.77
-5.91 0.14 0.81
-5.96 0.15 0.80
-6.03 0.17 0.79
-5.77 0.18 0.84
-6.08 0.20 0.77
-6.11 0.22 0.77
-5.92 0.23 0.81
-5.65 0.23 0.87
-5.34 0.23 0.93
-5.35 0.25 0.93
-5.52 0.27 0.89
-5.28 0.27 0.95
-5.24 0.28 0.95
-5.36 0.30 0.93
-5.20 0.31 0.96
-5.25 0.33 0.95
-5.27 0.34 0.95
-5.73 0.38 0.84
-5.63 0.39 0.87
-5.50 0.40 0.90
-5.58 0.42 0.88
-5.54 0.43 0.89
-5.46 0.44 0.90
-5.38 0.44 0.92
-5.51 0.47 0.89
-5.41 0.47 0.91
-5.46 0.49 0.90
-5.37 0.50 0.92
-5.35 0.51 0.92
-5.25 0.52 0.94
-5.15 0.52 0.97
-4.86 0.51 1.03
-4.95 0.53 1.01
-4.81 0.53 1.04
-4.90 0.55 1.02
-4.80 0.55 1.04
-4.79 0.56 1.04
-4.99 0.60 1.00
-5.04 0.62 0.98
-4.93 0.62 1.01
-4.93 0.63 1.01
-4.87 0.63 1.02
-4.96 0.66 1.00
-4.90 0.66 1.01
-4.94 0.68 1.00
-4.89 0.69 1.01
-4.91 0.70 1.01
-4.94 0.72 1.00
-5.01 0.74 0.98
-5.04 0.76 0.98
-5.14 0.79 0.95
-5.07 0.79 0.97
-5.08 0.81 0.97
-5.10 0.82 0.96
-5.12 0.84 0.96
-5.13 0.86 0.95
-5.13 0.87 0.95
-5.21 0.90 0.93
-5.29 0.92 0.92
-5.38 0.95 0.89
-5.36 0.96 0.90
-5.37 0.98 0.90
-5.34 0.99 0.90
-5.38 1.01 0.89
-5.32 1.01 0.90
-5.22 1.01 0.93
-5.21 1.02 0.93
-5.36 1.06 0.89
-5.54 1.11 0.85
-5.52 1.12 0.86
-5.53 1.14 0.85
-5.57 1.16 0.84
-5.13 1.09 0.94
-5.24 1.13 0.92
-5.15 1.12 0.93
-5.46 1.20 0.86
-5.29 1.18 0.90
-4.64 1.06 1.04
-4.25 0.99 1.13
-4.50 1.06 1.07
-4.83 1.14 1.00
-4.65 1.11 1.04
-4.72 1.14 1.02
-4.57 1.12 1.06
-4.59 1.14 1.05
-4.78 1.19 1.01
-4.85 1.22 0.99
-4.80 1.23 1.00
-4.74 1.23 1.01
-4.88 1.27 0.98
-4.92 1.30 0.97
-4.95 1.32 0.96
-4.85 1.31 0.98
-5.02 1.36 0.94
-4.84 1.33 0.98
-4.78 1.33 1.00
-4.90 1.37 0.97
-4.94 1.40 0.96
-4.71 1.35 1.01
-4.85 1.40 0.98
-4.54 1.33 1.05
-4.69 1.44 1.01
-4.61 1.47 1.02
-2.75 1.53 1.38
-2.75 1.54 1.38
-2.43 1.55 1.44
-3.99 -1.67 0.74
-4.01 -1.64 0.74
-3.88 -1.59 0.77
-4.07 -1.62 0.72
-4.07 -1.60 0.72
-4.29 -1.64 0.68
-4.12 -1.58 0.71
-4.16 -1.57 0.71
-3.81 -1.48 0.78
-4.12 -1.53 0.71
-3.92 -1.47 0.76
-3.91 -1.45 0.76
-4.05 -1.47 0.73
-4.15 -1.47 0.71
-3.80 -1.38 0.79
-4.04 -1.42 0.74
-4.20 -1.43 0.70
-4.06 -1.39 0.73
-4.06 -1.37 0.73
-4.13 -1.37 0.72
-3.88 -1.30 0.77
-4.13 -1.34 0.72
-4.10 -1.31 0.73
-4.11 -1.30 0.72
-3.96 -1.25 0.76
-4.14 -1.27 0.72
-3.99 -1.23 0.75
-4.25 -1.26 0.70
-4.33 -1.26 0.68
-4.02 -1.18 0.75
-4.46 -1.25 0.65
-4.14 -1.17 0.72
-4.15 -1.16 0.72
-4.29 -1.17 0.69
-4.14 -1.12 0.72
-4.19 -1.12 0.71
-4.24 -1.11 0.70
-4.03 -1.06 0.74
-4.22 -1.07 0.71
-4.17 -1.05 0.72
-4.38 -1.06 0.67
-4.33 -1.04 0.68
-4.39 -1.03 0.67
-4.25 -0.99 0.70
-4.35 -0.99 0.68
-4.19 -0.95 0.71
-4.33 -0.95 0.68
-4.34 -0.94 0.68
-4.40 -0.93 0.67
-4.35 -0.91 0.68
-4.22 -0.87 0.71
-4.36 -0.87 0.68
-4.36 -0.86 0.68
-4.56 -0.86 0.64
-4.37 -0.83 0.68
-4.44 -0.82 0.66
-4.28 -0.78 0.69
-4.41 -0.78 0.67
-4.52 -0.77 0.64
-4.36 -0.74 0.68
-4.40 -0.73 0.67
-4.42 -0.71 0.67
-4.33 -0.69 0.68
-4.52 -0.69 0.64
-3.79 -0.60 0.80
-4.14 -0.62 0.73
-3.22 -0.52 0.92
-3.18 -0.51 0.93
-3.62 -0.53 0.84
-3.42 -0.50 0.88
-3.38 -0.48 0.89
-4.54 -0.55 0.64
-4.58 -0.54 0.63
-4.68 -0.53 0.61
-4.76 -0.52 0.59
-4.64 -0.49 0.62
-4.40 -0.46 0.67
-4.40 -0.44 0.67
-4.63 -0.44 0.62
-4.61 -0.42 0.62
-5.40 -0.31 0.93
-6.68 -0.37 0.65
-6.72 -0.35 0.65
-6.90 -0.34 0.61
-6.94 -0.33 0.60
-6.90 -0.31 0.61
-6.89 -0.29 0.61
-6.98 -0.28 0.59
-7.05 -0.26 0.57
-6.90 -0.24 0.61
-6.74 -0.22 0.64
-6.75 -0.20 0.64
-6.67 -0.18 0.65
-6.74 -0.17 0.64
-6.64 -0.15 0.66
-6.56 -0.13 0.68
-6.37 -0.11 0.72
-6.30 -0.09 0.73
-6.22 -0.08 0.75
-6.29 -0.06 0.74
-6.26 -0.05 0.74
-6.24 -0.03 0.75
-6.22 -0.01 0.75
-3.76 -0.01 0.74
-3.84 0.01 0.72
-3.83 0.02 0.73
-6.17 0.05 0.70
-6.12 0.06 0.71
-6.06 0.08 0.72
-6.11 0.09 0.71
-5.76 0.10 0.79
-2.77 0.06 1.47
-6.18 0.14 0.69
-5.78 0.15 0.79
-5.50 0.16 0.85
-5.55 0.17 0.84
-5.32 0.18 0.89
-5.25 0.19 0.90
-5.34 0.21 0.88
-5.31 0.22 0.89
-5.24 0.23 0.90
-4.95 0.23 0.97
-5.00 0.24 0.96
-5.04 0.26 0.95
-5.26 0.28 0.90
-5.04 0.29 0.95
-5.06 0.30 0.94
-5.06 0.31 0.94
-4.97 0.32 0.96
-4.90 0.33 0.98
-4.78 0.33 1.00
-4.88 0.35 0.98
-4.96 0.37 0.96
-5.23 0.40 0.90
-5.26 0.42 0.89
-5.03 0.41 0.95
-5.00 0.43 0.95
-5.16 0.45 0.91
-5.13 0.46 0.92
-5.06 0.47 0.94
-4.96 0.47 0.96
-4.57 0.45 1.05
-4.44 0.45 1.08
-4.46 0.47 1.07
-4.56 0.49 1.05
-4.44 0.49 1.07
-4.12 0.47 1.15
-4.37 0.50 1.09
-4.54 0.53 1.05
-4.64 0.56 1.03
-4.61 0.56 1.03
-4.61 0.58 1.03
-4.62 0.59 1.03
-4.70 0.61 1.01
-4.75 0.63 1.00
-4.70 0.64 1.01
-4.76 0.66 1.00
-4.72 0.66 1.00
-4.82 0.69 0.98
-4.85 0.71 0.97
-4.91 0.73 0.96
-4.89 0.74 0.96
-4.80 0.74 0.98
-4.74 0.74 1.00
-4.90 0.78 0.96
-4.93 0.80 0.95
-5.03 0.82 0.93
-4.86 0.81 0.96
-4.87 0.83 0.96
-4.84 0.83 0.97
-5.12 0.89 0.90
-5.02 0.89 0.92
-5.09 0.92 0.91
-4.37 0.81 1.07
-4.69 0.87 1.00
-4.34 0.83 1.08
-4.31 0.83 1.09
-5.16 1.00 0.89
-5.27 1.03 0.86
-4.64 0.93 1.01
-4.09 0.84 1.13
-4.21 0.87 1.10
-4.24 0.89 1.10
-4.09 0.87 1.13
-4.05 0.88 1.14
-3.93 0.86 1.17
-3.91 0.87 1.17
-3.91 0.88 1.17
-2.50 1.38 1.42
-2.54 1.41 1.41
-2.63 1.46 1.38
-2.65 1.48 1.38
-2.59 1.46 1.39
-2.65 1.50 1.38
-2.63 1.50 1.38
-2.60 1.50 1.38
-2.53 1.47 1.40
-2.67 1.55 1.36
-2.43 1.44 1.43
-2.42 1.45 1.43
-2.24 1.38 1.47
-2.28 1.40 1.46
-2.46 1.50 1.41
-2.52 1.56 1.39
-2.25 1.43 1.46
-2.28 1.48 1.45
-2.19 1.43 1.47
-2.04 1.36 1.51
-2.37 1.58 1.42
-2.25 1.56 1.44
-2.30 1.62 1.43
-2.11 1.61 1.46
-1.94 1.51 1.51
-1.84 1.64 1.51
-3.89 -1.29 0.71
-4.18 -1.33 0.64
-4.06 -1.28 0.67
-4.24 -1.22 0.63
-3.79 -1.13 0.73
-0.84 -0.60 1.40
-4.11 -1.15 0.66
-0.57 -0.54 1.46
-1.48 -0.68 1.26
-4.19 -1.11 0.65
-3.84 -1.04 0.73
-3.96 -1.04 0.70
-4.17 -1.06 0.65
-4.12 -1.04 0.66
-3.98 -1.00 0.69
-4.12 -1.00 0.66
-4.33 -1.02 0.62
-4.25 -0.99 0.64
-4.28 -0.98 0.63
-4.12 -0.94 0.67
-4.07 -0.92 0.68
-4.18 -0.91 0.65
-0.46 -0.41 1.49
-4.08 -0.87 0.68
-4.15 -0.86 0.66
-0.71 -0.42 1.43
-3.84 -0.79 0.73
-0.25 -0.33 1.54
-2.92 -0.56 0.94
-3.04 -0.56 0.91
-3.15 -0.56 0.88
-3.18 -0.55 0.88
-3.15 -0.53 0.89
-3.03 -0.50 0.91
-3.20 -0.51 0.87
-3.00 -0.47 0.92
-3.27 -0.48 0.86
-0.62 -0.26 1.45
-3.19 -0.45 0.88
-2.83 -0.41 0.96
-4.04 -0.48 0.68
-3.40 -0.42 0.83
-4.59 -0.49 0.56
-4.62 -0.46 0.55
-4.39 -0.42 0.61
-3.38 -0.35 0.83
-2.87 -0.31 0.95
-1.64 -0.23 1.22
-1.51 -0.21 1.25
-4.01 -0.32 0.69
-3.92 -0.30 0.71
-3.88 -0.29 0.72
-3.89 -0.27 0.72
-1.18 -0.15 1.32
-3.77 -0.23 0.74
-3.66 -0.22 0.77
-3.64 -0.20 0.77
-3.62 -0.18 0.78
-3.67 -0.17 0.76
-3.63 -0.16 0.77
-3.76 -0.14 0.74
-3.60 -0.12 0.78
-3.71 -0.11 0.76
-3.85 -0.10 0.72
-3.91 -0.08 0.71
-3.72 -0.07 0.75
-3.71 -0.05 0.75
-3.68 -0.02 0.76
-6.17 0.00 0.64
-6.11 0.03 0.65
-6.07 0.05 0.66
-6.19 0.08 0.63
-6.05 0.09 0.66
-5.95 0.11 0.69
-5.77 0.12 0.73
-5.75 0.15 0.73
-5.48 0.15 0.80
-5.37 0.18 0.82
-5.15 0.19 0.87
-5.14 0.20 0.88
-4.97 0.21 0.91
-4.86 0.23 0.94
-4.96 0.24 0.91
-4.97 0.27 0.91
-5.09 0.29 0.88
-4.99 0.30 0.91
-5.11 0.32 0.88
-5.14 0.34 0.87
-5.24 0.36 0.84
-5.38 0.40 0.81
-5.31 0.41 0.83
-5.61 0.44 0.76
-5.64 0.46 0.75
-5.43 0.47 0.80
-5.42 0.49 0.80
-5.42 0.51 0.80
-5.33 0.52 0.82
-5.16 0.52 0.86
-5.16 0.53 0.86
-5.05 0.55 0.88
-5.22 0.58 0.84
-5.27 0.61 0.83
-5.25 0.62 0.83
-4.95 0.60 0.90
-5.08 0.63 0.87
-4.91 0.64 0.91
-5.04 0.67 0.88
-5.02 0.69 0.88
-5.05 0.71 0.87
-5.07 0.72 0.87
-5.01 0.73 0.88
-5.03 0.76 0.88
-4.97 0.76 0.89
-4.87 0.77 0.91
-5.54 0.89 0.75
-5.21 0.85 0.83
-5.36 0.89 0.79
-5.25 0.90 0.82
-5.36 0.93 0.79
-5.38 0.96 0.78
-5.30 0.96 0.80
-5.43 1.00 0.77
-5.54 1.03 0.74
-5.33 1.03 0.79
-5.32 1.04 0.79
-5.42 1.09 0.77
-5.43 1.12 0.76
-4.02 -1.26 0.62
-4.45 -1.31 0.52
-4.26 -1.24 0.56
-4.24 -1.22 0.57
-4.62 -1.27 0.48
-4.47 -1.23 0.51
-4.56 -1.23 0.49
-4.44 -1.19 0.52
-4.23 -1.14 0.57
-4.20 -1.12 0.58
-4.35 -1.12 0.54
-4.45 -1.12 0.52
-4.34 -1.09 0.55
-4.17 -1.05 0.59
-4.43 -1.07 0.53
-4.36 -1.04 0.54
-4.32 -1.02 0.55
-4.31 -1.00 0.56
-4.23 -0.97 0.57
-4.26 -0.96 0.57
-4.21 -0.94 0.58
-4.16 -0.91 0.59
-4.14 -0.90 0.59
-4.19 -0.89 0.58
-4.08 -0.86 0.61
-4.55 -0.90 0.50
-4.26 -0.84 0.57
-4.32 -0.84 0.55
-4.10 -0.79 0.61
-4.16 -0.78 0.59
-4.16 -0.77 0.59
-4.10 -0.75 0.61
-4.52 -0.76 0.51
-4.56 -0.74 0.50
-4.38 -0.71 0.54
-4.07 -0.66 0.61
-4.30 -0.67 0.56
-3.73 -0.60 0.69
-3.56 -0.57 0.73
-3.58 -0.55 0.73
-3.42 -0.53 0.77
-4.00 -0.56 0.63
-3.58 -0.51 0.73
-3.16 -0.46 0.83
-3.85 -0.50 0.67
-4.45 -0.53 0.52
-4.80 -0.54 0.44
-4.82 -0.52 0.44
-4.90 -0.51 0.42
-4.70 -0.48 0.47
-4.41 -0.44 0.53
-4.53 -0.43 0.51
-4.81 -0.43 0.44
-4.53 -0.40 0.50
-4.30 -0.37 0.56
-4.31 -0.35 0.56
-4.52 -0.35 0.51
-4.22 -0.32 0.58
-4.16 -0.30 0.59
-4.13 -0.28 0.60
-4.04 -0.26 0.62
-4.04 -0.25 0.62
-3.92 -0.23 0.65
-3.84 -0.21 0.66
-3.84 -0.19 0.66
-4.00 -0.18 0.63
-4.03 -0.17 0.62
-3.92 -0.15 0.65
-4.05 -0.13 0.61
-6.22 -0.09 0.63
-6.27 -0.08 0.61
-2.65 1.48 1.31
-3.02 1.68 1.20
-2.70 1.54 1.29
-2.62 1.51 1.31
-2.58 1.50 1.32
-2.59 1.51 1.32
-2.41 1.45 1.37
-2.34 1.45 1.38
-2.14 1.53 1.41
-2.07 1.54 1.42
-2.15 1.60 1.40
-1.99 1.54 1.44
-2.05 1.59 1.42
-1.90 1.68 1.44
-2.67 1.48 1.24
-2.91 1.60 1.17
-3.02 1.67 1.13
-2.56 1.46 1.27
-2.65 1.51 1.24
-2.50 1.45 1.28
-2.49 1.45 1.29
-2.43 1.43 1.30
-2.64 1.54 1.24
-2.50 1.48 1.28
-2.44 1.47 1.29
-2.45 1.58 1.27
-2.19 1.46 1.35
-2.33 1.59 1.30
-2.30 1.58 1.31
-2.24 1.56 1.32
-2.44 1.68 1.26
-2.35 1.64 1.29
-2.35 1.65 1.29
-2.28 1.64 1.30
-2.19 1.60 1.33
-2.71 1.49 1.18
-2.65 1.47 1.20
-2.64 1.48 1.20
-2.62 1.49 1.20
-2.75 1.55 1.16
-2.62 1.51 1.20
-2.63 1.53 1.19
-2.69 1.57 1.18
-2.81 1.63 1.14
-2.65 1.57 1.18
-2.25 1.38 1.31
-2.64 1.58 1.18
-2.22 1.39 1.31
-2.34 1.45 1.28
-2.21 1.40 1.31
-2.22 1.41 1.31
-2.12 1.37 1.34
-2.16 1.40 1.33
-2.19 1.42 1.31
-2.36 1.52 1.26
-2.35 1.52 1.26
-2.31 1.51 1.27
-2.18 1.45 1.31
-2.32 1.54 1.27
-2.35 1.56 1.26
-2.38 1.59 1.24
-2.35 1.58 1.25
-2.31 1.57 1.26
-2.40 1.62 1.23
-2.35 1.61 1.25
-2.33 1.60 1.25
-2.27 1.58 1.27
-2.42 1.67 1.22
-2.37 1.66 1.24
-2.09 1.52 1.32
-2.80 1.54 1.11
-2.95 1.62 1.06
-2.41 1.52 1.21
-2.38 1.53 1.22
-2.41 1.55 1.21
-2.70 1.38 1.09
-2.67 1.39 1.09
-2.64 1.40 1.10
-2.53 1.36 1.13
-2.68 1.44 1.08
-2.65 1.44 1.09
-2.45 1.37 1.16
-2.41 1.37 1.17
-2.46 1.40 1.15
-2.63 1.50 1.08
-2.49 1.44 1.13
-2.29 1.36 1.20
-2.38 1.41 1.17
-2.38 1.42 1.17
-2.43 1.46 1.15
-2.43 1.47 1.14
-2.30 1.42 1.19
-2.33 1.45 1.18
-2.23 1.42 1.20
-2.23 1.43 1.20
-2.31 1.49 1.17
-2.24 1.46 1.19
-1.98 1.36 1.28
-1.99 0.69 0.34
-1.78 0.62 0.28
-7.17 0.99 2.12
-7.05 1.49 2.12
-7.42 1.60 2.11
-7.11 1.58 2.12
-7.01 1.60 2.12
-7.11 1.66 2.12
-7.00 1.65 2.12
-3.64 1.22 2.14
-7.27 1.00 2.10
-6.86 1.58 2.09
-7.12 1.69 2.09
-3.46 1.15 2.13
-3.70 1.53 2.13
-7.20 0.81 2.07
-7.19 0.83 2.07
-7.48 0.88 2.07
-7.48 0.90 2.07
-7.44 0.91 2.07
-7.32 0.92 2.07
-7.39 0.95 2.07
-7.48 0.98 2.07
-7.22 0.96 2.07
-7.14 0.97 2.07
-7.20 1.00 2.07
-7.28 1.03 2.07
-7.21 1.04 2.07
-7.28 1.06 2.07
-7.29 1.08 2.07
-7.19 1.09 2.07
-6.82 1.20 2.08
-6.85 1.29 2.08
-6.72 1.30 2.08
-7.03 1.41 2.07
-6.80 1.39 2.07
-6.96 1.46 2.07
-6.81 1.45 2.07
-6.78 1.46 2.07
-6.70 1.46 2.08
-6.77 1.49 2.07
-6.96 1.55 2.07
-6.89 1.55 2.07
-6.83 1.56 2.07
-7.04 1.62 2.07
-7.01 1.64 2.07
-6.88 1.63 2.07
-6.88 1.64 2.07
-6.87 1.66 2.07
-6.69 1.64 2.07
-6.78 1.68 2.07
-6.77 1.69 2.07
-3.81 1.16 2.12
-3.48 1.09 2.12
-3.69 1.16 2.12
-3.58 1.15 2.12
-3.95 1.26 2.11
-3.76 1.22 2.12
-3.68 1.21 2.12
-3.60 1.20 2.12
-3.47 1.17 2.12
-3.50 1.19 2.12
-3.46 1.19 2.12
-3.50 1.23 2.12
-3.34 1.19 2.12
-3.49 1.25 2.12
-3.50 1.26 2.12
-3.49 1.27 2.12
-3.51 1.29 2.12
-3.42 1.27 2.12
-3.77 1.45 2.11
-3.62 1.41 2.12
-3.80 1.49 2.11
-4.07 1.59 2.11
-4.02 1.59 2.11
-3.91 1.56 2.11
-3.69 1.49 2.11
-3.86 1.57 2.11
-3.69 1.52 2.11
-3.71 1.54 2.11
-3.84 1.60 2.11
-3.75 1.58 2.11
-3.71 1.57 2.11
-3.75 1.60 2.11
-3.64 1.57 2.11
-3.49 1.55 2.12
-3.36 1.54 2.12
-3.26 1.51 2.12
-3.23 1.51 2.12
-3.46 1.67 2.11
-3.43 1.67 2.11
-3.46 1.69 2.11
-3.33 1.65 2.12
-3.27 1.64 2.12
-3.32 1.67 2.12
-3.18 1.62 2.12
-3.25 1.66 2.12
-3.08 1.60 2.12
-2.96 1.56 2.12
-3.04 1.60 2.12
-2.84 1.52 2.12
-3.00 1.61 2.12
-3.04 1.65 2.12
-7.29 0.60 2.05
-7.02 1.56 2.05
-3.49 1.16 2.11
-3.55 1.19 2.11
-3.64 1.22 2.11
-3.53 1.20 2.11
-3.35 1.17 2.11
-3.42 1.33 2.11
-3.64 1.44 2.10
-3.59 1.44 2.10
-3.64 1.47 2.10
-3.65 1.51 2.10
-7.18 0.84 2.03
-6.89 1.62 2.03
-7.27 1.00 2.00
-6.96 1.34 2.01
-6.94 1.41 2.01
-7.04 1.45 2.00
-6.99 1.46 2.01
-7.15 1.56 2.00
-7.02 1.56 2.00
-7.01 1.59 2.00
-6.82 1.57 2.01
-7.28 0.69 1.99
-7.26 0.80 1.99
-7.29 0.82 1.98
-7.59 0.89 1.98
-7.29 0.88 1.98
-7.29 0.89 1.98
-7.18 0.90 1.99
-7.33 0.97 1.98
-7.47 1.03 1.98
-7.04 1.32 1.99
-7.30 1.39 1.98
-7.18 1.39 1.98
-7.13 1.40 1.98
-7.07 1.40 1.98
-7.09 1.44 1.98
-7.02 1.45 1.98
-7.10 1.48 1.98
-7.20 1.52 1.98
-6.96 1.53 1.98
-6.99 1.55 1.98
-6.87 1.60 1.99
-6.60 1.67 1.99
-7.75 -0.46 1.95
-7.47 0.42 1.92
-7.17 0.95 1.97
-7.32 1.01 1.96
-7.16 1.08 1.96
-7.07 1.36 1.96
-6.99 1.36 1.97
-6.98 1.38 1.97
-7.09 1.42 1.96
-7.00 1.42 1.96
-6.96 1.43 1.97
-6.92 1.44 1.97
-6.97 1.51 1.96
-6.88 1.51 1.97
-6.97 1.54 1.96
-3.65 1.14 2.06
-3.56 1.23 2.06
-3.72 1.45 2.05
-7.41 0.57 1.94
-7.47 0.59 1.93
-7.39 0.63 1.94
-7.29 0.95 1.93
-7.14 0.95 1.94
-7.14 0.97 1.94
-3.72 0.78 2.05
-7.16 1.44 1.93
-7.04 1.43 1.94
-6.91 1.43 1.94
-6.93 1.45 1.94
-6.96 1.49 1.94
-3.59 0.83 2.05
-3.96 0.96 2.04
-3.65 0.91 2.05
-3.88 0.99 2.04
-3.54 0.92 2.05
-3.89 1.01 2.04
-3.75 0.99 2.04
-3.75 1.00 2.04
-3.77 1.01 2.04
-4.56 1.23 2.01
-4.05 1.12 2.03
-3.87 1.08 2.04
-3.82 1.08 2.04
-3.92 1.12 2.03
-3.70 1.10 2.04
-3.80 1.14 2.04
-3.55 1.09 2.05
-3.63 1.12 2.04
-3.70 1.15 2.04
-3.54 1.12 2.05
-3.46 1.11 2.05
-3.93 1.25 2.03
-3.79 1.22 2.04
-3.80 1.23 2.04
-3.74 1.23 2.04
-3.79 1.25 2.04
-3.59 1.20 2.04
-3.53 1.20 2.04
-3.69 1.26 2.04
-3.68 1.27 2.04
-3.57 1.24 2.04
-3.96 1.37 2.03
-3.91 1.37 2.03
-3.63 1.29 2.04
-3.69 1.32 2.04
-3.73 1.35 2.04
-3.69 1.35 2.04
-3.70 1.36 2.04
-3.86 1.43 2.03
-3.58 1.34 2.04
-3.75 1.41 2.03
-3.79 1.44 2.03
-3.89 1.48 2.03
-3.83 1.47 2.03
-3.87 1.50 2.03
-3.86 1.51 2.03
-3.73 1.47 2.03
-3.65 1.46 2.04
-3.92 1.58 2.03
-4.10 1.65 2.02
-3.95 1.61 2.02
-3.73 1.54 2.03
-3.93 1.66 2.02
-3.31 1.53 2.04
-3.63 1.67 2.03
-3.34 1.60 2.04
-3.33 1.62 2.04
-3.20 1.66 2.04
-3.09 1.64 2.05
-2.91 1.62 2.05
-7.52 -0.08 1.94
-7.49 -0.06 1.94
-7.61 -0.03 1.93
-7.28 0.89 1.91
-7.04 1.37 1.91
-3.55 1.03 2.03
-3.64 1.09 2.03
-3.63 1.11 2.03
-3.56 1.11 2.03
-3.50 1.11 2.03
-3.68 1.17 2.03
-3.39 1.10 2.04
-3.51 1.17 2.03
-3.55 1.19 2.03
-3.38 1.15 2.04
-3.61 1.23 2.03
-3.49 1.20 2.03
-3.67 1.28 2.03
-3.34 1.27 2.04
-3.59 1.38 2.03
-3.72 1.50 2.02
-3.32 1.60 2.03
-7.46 0.59 1.88
-7.87 0.72 1.86
-7.24 0.81 1.89
-7.22 0.83 1.89
-7.50 0.90 1.88
-7.65 0.95 1.87
-7.30 0.93 1.88
-7.35 0.96 1.88
-7.55 1.02 1.87
-7.17 1.05 1.89
-7.30 1.20 1.88
-7.08 1.36 1.89
-7.06 1.38 1.89
-6.99 1.48 1.89
-6.96 1.49 1.89
-7.06 1.53 1.88
-6.93 1.52 1.89
-7.33 0.82 1.85
-7.70 0.94 1.84
-7.57 0.98 1.84
-7.26 1.02 1.85
-7.12 1.52 1.85
-3.84 0.88 2.00
-3.67 0.86 2.00
-3.63 0.86 2.00
-3.52 0.93 2.01
-3.65 0.97 2.00
-3.48 0.96 2.01
-3.95 1.10 1.99
-3.73 1.07 2.00
-3.79 1.10 1.99
-3.53 1.04 2.00
-3.57 1.06 2.00
-3.67 1.10 2.00
-3.63 1.11 2.00
-3.68 1.16 2.00
-3.63 1.15 2.00
-3.58 1.15 2.00
-3.53 1.15 2.00
-3.62 1.19 2.00
-3.61 1.20 2.00
-3.70 1.24 1.99
-3.54 1.20 2.00
-3.73 1.27 1.99
-3.57 1.23 2.00
-3.80 1.31 1.99
-3.68 1.29 1.99
-3.73 1.33 1.99
-3.63 1.31 2.00
-3.60 1.31 2.00
-3.58 1.35 2.00
-3.69 1.44 1.99
-3.44 1.40 2.00
-3.69 1.49 1.99
-3.95 1.67 1.97
-3.54 1.55 1.99
-3.55 1.59 1.99
-3.40 1.54 2.00
-3.29 1.53 2.00
-3.44 1.60 2.00
-3.21 1.53 2.01
-3.28 1.59 2.00
-3.37 1.65 2.00
-3.32 1.64 2.00
-3.37 1.69 2.00
-3.22 1.68 2.00
-3.13 1.69 2.00
-2.95 1.67 2.01
-7.69 0.61 1.81
-7.83 0.66 1.80
-7.27 0.72 1.83
-7.70 0.80 1.81
-7.47 0.82 1.82
-7.51 0.84 1.81
-7.53 0.86 1.81
-7.56 0.96 1.81
-7.39 0.96 1.82
-7.06 1.49 1.83
-7.01 1.50 1.83
-3.82 0.89 1.98
-4.32 1.17 1.95
-3.72 1.10 1.98
-3.86 1.18 1.97
-3.95 1.24 1.97
-3.90 1.24 1.97
-3.93 1.26 1.97
-3.96 1.29 1.96
-4.16 1.39 1.95
-3.94 1.34 1.96
-3.96 1.42 1.96
-3.57 1.33 1.98
-3.81 1.43 1.97
-3.90 1.47 1.96
-3.68 1.48 1.97
-3.77 1.60 1.96
-7.86 -0.11 1.81
-3.83 0.78 1.96
-3.59 0.82 1.97
-3.53 0.82 1.98
-3.52 0.83 1.98
-3.59 0.85 1.97
-3.59 0.86 1.97
-3.54 0.86 1.98
-3.62 0.89 1.97
-3.50 0.87 1.98
-3.40 0.87 1.98
-3.40 0.89 1.98
-3.56 0.96 1.97
-3.53 0.97 1.97
-3.64 1.01 1.97
-3.58 1.01 1.97
-3.71 1.06 1.96
-3.46 1.00 1.98
-3.60 1.05 1.97
-3.53 1.04 1.97
-3.50 1.04 1.97
-3.56 1.07 1.97
-3.71 1.12 1.96
-3.63 1.11 1.97
-3.57 1.11 1.97
-3.65 1.15 1.96
-3.61 1.15 1.97
-3.38 1.09 1.98
-3.42 1.11 1.98
-3.48 1.14 1.97
-3.57 1.18 1.97
-3.82 1.26 1.95
-3.61 1.21 1.96
-3.54 1.20 1.97
-3.57 1.22 1.97
-3.76 1.29 1.96
-3.55 1.24 1.97
-3.74 1.31 1.96
-3.46 1.23 1.97
-3.54 1.26 1.97
-3.56 1.28 1.97
-3.64 1.32 1.96
-3.59 1.31 1.96
-3.59 1.32 1.96
-3.43 1.28 1.97
-3.55 1.33 1.97
-3.61 1.36 1.96
-3.55 1.35 1.96
-3.37 1.34 1.97
-3.34 1.34 1.97
-3.33 1.35 1.97
-3.41 1.42 1.97
-3.29 1.38 1.98
-3.48 1.46 1.96
-3.57 1.51 1.96
-3.63 1.55 1.96
-3.37 1.46 1.97
-3.18 1.40 1.98
-3.40 1.50 1.97
-3.17 1.43 1.98
-3.20 1.45 1.98
-3.52 1.60 1.96
-3.19 1.49 1.98
-3.10 1.47 1.98
-3.31 1.57 1.97
-3.26 1.58 1.97
-3.28 1.60 1.97
-3.18 1.60 1.97
-3.27 1.65 1.97
-3.06 1.59 1.98
-2.94 1.55 1.99
-3.02 1.60 1.98
-3.18 1.68 1.97
-2.93 1.57 1.99
-3.11 1.67 1.97
-2.88 1.57 1.99
-2.91 1.62 1.99
-2.94 1.67 1.98
-2.98 1.69 1.98
-7.36 0.47 1.76
-7.37 0.49 1.76
-7.62 0.53 1.75
-7.72 0.55 1.74
-7.96 0.59 1.73
-7.94 0.63 1.73
-7.50 0.61 1.75
-7.31 0.64 1.76
-4.04 0.78 1.93
-4.01 0.89 1.93
-3.79 0.88 1.94
-3.75 0.88 1.94
-3.75 0.89 1.94
-3.84 0.92 1.94
-3.89 0.94 1.94
-3.63 0.90 1.95
-3.72 0.93 1.95
-3.59 0.91 1.95
-3.84 0.97 1.94
-3.97 1.02 1.93
-3.66 0.96 1.95
-4.07 1.06 1.92
-3.92 1.05 1.93
-3.74 1.02 1.94
-4.32 1.17 1.91
-4.00 1.10 1.93
-3.94 1.10 1.93
-4.05 1.14 1.92
-3.94 1.12 1.93
-3.89 1.12 1.93
-3.87 1.13 1.93
-3.91 1.15 1.93
-4.10 1.22 1.92
-3.83 1.17 1.93
-3.64 1.13 1.94
-3.68 1.16 1.94
-3.65 1.16 1.94
-3.73 1.19 1.94
-3.86 1.24 1.93
-3.96 1.28 1.92
-3.85 1.26 1.93
-3.90 1.28 1.93
-4.05 1.34 1.92
-4.09 1.36 1.92
-3.91 1.32 1.93
-3.75 1.28 1.94
-3.82 1.32 1.93
-3.70 1.29 1.94
-3.87 1.36 1.93
-3.82 1.35 1.93
-3.67 1.32 1.94
-3.80 1.37 1.93
-3.81 1.38 1.93
-3.69 1.36 1.94
-3.67 1.36 1.94
-3.73 1.39 1.93
-3.63 1.37 1.94
-3.48 1.33 1.95
-3.61 1.39 1.94
-3.97 1.53 1.92
-3.84 1.50 1.93
-3.73 1.47 1.93
-3.73 1.50 1.93
-3.87 1.56 1.92
-4.06 1.64 1.91
-3.50 1.45 1.94
-3.75 1.55 1.93
-3.62 1.56 1.93
-3.93 1.69 1.92
-3.11 1.49 1.96
-3.24 1.69 1.95
-3.03 1.61 1.96
-3.11 1.65 1.96
-3.01 1.63 1.96
-3.12 1.69 1.95
-3.03 1.66 1.96
-3.01 1.67 1.96
-2.77 1.68 1.97
-7.54 -0.33 1.76
-7.83 -0.26 1.74
-8.00 -0.25 1.73
-7.67 -0.03 1.75
-4.17 0.81 1.91
-4.35 0.90 1.89
-3.81 0.85 1.93
-3.75 0.87 1.93
-3.88 0.90 1.92
-3.70 0.89 1.93
-3.61 0.88 1.94
-3.58 0.91 1.94
-3.63 0.93 1.93
-3.68 0.97 1.93
-3.73 0.99 1.93
-3.62 0.97 1.93
-3.62 0.99 1.93
-3.48 0.97 1.94
-3.73 1.05 1.92
-3.65 1.04 1.93
-3.69 1.06 1.93
-3.87 1.12 1.92
-3.83 1.12 1.92
-3.76 1.12 1.92
-3.66 1.10 1.93
-3.91 1.18 1.91
-3.75 1.16 1.92
-3.65 1.14 1.93
-3.78 1.19 1.92
-3.56 1.15 1.93
-3.54 1.15 1.93
-3.64 1.19 1.93
-3.72 1.24 1.92
-3.56 1.20 1.93
-3.68 1.25 1.92
-3.58 1.23 1.93
-3.61 1.25 1.93
-3.63 1.26 1.93
-3.63 1.27 1.92
-3.47 1.25 1.93
-3.32 1.22 1.94
-3.43 1.32 1.93
-3.69 1.42 1.92
-3.49 1.36 1.93
-3.77 1.47 1.91
-3.87 1.56 1.90
-3.44 1.42 1.93
-3.28 1.37 1.94
-3.42 1.45 1.93
-3.30 1.42 1.94
-3.48 1.53 1.92
-3.60 1.65 1.91
-3.16 1.48 1.94
-3.11 1.48 1.95
-3.07 1.49 1.95
-3.06 1.52 1.95
-2.95 1.56 1.95
-2.96 1.58 1.95
-2.84 1.53 1.96
-2.78 1.51 1.96
-2.93 1.59 1.95
-2.98 1.63 1.95
-2.97 1.65 1.95
-2.97 1.67 1.95
-2.95 1.67 1.95
-2.80 1.66 1.96
-2.77 1.67 1.96
-7.98 -0.10 1.59
-7.64 0.05 1.68
-7.73 0.38 1.67
-7.91 0.46 1.66
-7.58 0.58 1.68
-7.44 0.59 1.69
-7.72 0.67 1.67
-3.75 1.03 1.90
-3.99 1.15 1.89
-4.04 1.24 1.88
-4.15 1.29 1.87
-4.54 1.45 1.85
-4.08 1.51 1.87
-3.64 1.69 1.89
-7.54 -0.53 1.57
-7.76 -0.49 1.56
-8.11 -0.48 1.54
-7.76 -0.44 1.56
-7.77 -0.42 1.56
-7.91 -0.37 1.55
-7.73 -0.34 1.56
-7.98 0.55 1.61
-7.98 0.59 1.61
-7.42 0.74 1.64
-7.40 0.75 1.65
-7.31 0.95 1.65
-4.07 0.77 1.87
-3.92 0.78 1.88
-3.60 0.75 1.90
-3.65 0.84 1.89
-3.89 0.91 1.88
-3.77 0.93 1.88
-4.01 1.00 1.87
-3.62 0.92 1.89
-3.74 0.96 1.88
-3.62 0.94 1.89
-3.74 0.98 1.88
-3.54 0.94 1.90
-3.61 0.97 1.89
-3.67 0.99 1.89
-3.59 0.98 1.89
-3.77 1.04 1.88
-3.76 1.05 1.88
-4.02 1.12 1.86
-3.86 1.09 1.87
-4.13 1.18 1.85
-3.71 1.08 1.88
-4.40 1.27 1.83
-4.01 1.18 1.86
-3.80 1.13 1.88
-3.79 1.14 1.88
-3.83 1.17 1.87
-4.00 1.22 1.86
-3.74 1.16 1.88
-3.86 1.21 1.87
-3.92 1.23 1.87
-3.98 1.26 1.86
-3.62 1.17 1.89
-3.84 1.25 1.87
-3.71 1.22 1.88
-3.79 1.26 1.87
-4.04 1.34 1.85
-3.93 1.32 1.86
-3.82 1.30 1.87
-3.65 1.26 1.88
-3.61 1.26 1.88
-3.64 1.28 1.88
-3.66 1.29 1.88
-3.62 1.29 1.88
-3.57 1.30 1.89
-3.34 1.23 1.90
-3.57 1.33 1.88
-3.72 1.39 1.87
-3.91 1.49 1.86
-3.87 1.49 1.86
-3.70 1.44 1.87
-4.11 1.61 1.84
-3.62 1.47 1.88
-3.58 1.48 1.88
-3.48 1.45 1.89
-3.05 1.30 1.92
-2.85 1.24 1.93
-3.01 1.32 1.92
-2.91 1.31 1.93
-2.96 1.35 1.92
-2.94 1.35 1.92
-2.97 1.42 1.92
-3.13 1.49 1.91
-3.19 1.53 1.90
-3.03 1.48 1.91
-2.91 1.48 1.92
-3.00 1.55 1.91
-2.89 1.51 1.92
-2.98 1.56 1.91
-2.98 1.57 1.91
-2.81 1.51 1.92
-2.78 1.50 1.93
-2.88 1.57 1.92
-2.80 1.55 1.92
-3.00 1.65 1.91
-2.80 1.57 1.92
-2.84 1.60 1.92
-2.93 1.65 1.91
-2.91 1.65 1.91
-2.92 1.67 1.91
-2.86 1.65 1.92
-2.73 1.68 1.92
-8.08 -0.61 1.48
-8.02 -0.40 1.49
-8.01 -0.38 1.49
-7.96 -0.15 1.49
-8.11 -0.10 1.48
-7.99 -0.07 1.49
-7.82 0.34 1.58
-7.48 0.36 1.61
-7.96 0.47 1.57
-7.92 0.48 1.57
-7.88 0.50 1.57
-7.90 0.52 1.57
-7.99 0.57 1.57
-7.33 0.54 1.61
-7.50 0.67 1.60
-7.60 0.70 1.59
-7.28 0.80 1.61
-4.21 1.51 1.81
-4.03 1.46 1.83
-4.04 1.48 1.82
-4.38 1.61 1.80
-4.06 1.52 1.82
-4.31 1.64 1.80
-2.99 1.51 1.89
-2.86 1.50 1.90
-7.66 -0.81 1.46
-8.05 -0.40 1.43
-7.69 -0.24 1.60
-7.47 -0.16 1.61
-7.59 0.52 1.56
-4.21 0.75 1.81
-4.22 0.80 1.81
-3.79 0.74 1.84
-4.13 0.81 1.82
-3.60 0.77 1.86
-3.97 0.93 1.83
-3.58 0.86 1.86
-3.63 0.90 1.85
-3.80 0.95 1.84
-3.39 0.87 1.87
-3.70 0.95 1.85
-3.24 0.85 1.88
-4.13 1.07 1.81
-3.57 0.95 1.85
-3.57 0.96 1.85
-3.66 0.99 1.85
-3.68 1.00 1.84
-3.60 0.99 1.85
-4.13 1.14 1.81
-3.55 1.00 1.85
-3.78 1.07 1.84
-4.22 1.19 1.80
-4.15 1.19 1.80
-4.21 1.25 1.80
-3.88 1.18 1.82
-4.21 1.28 1.80
-4.11 1.26 1.80
-3.73 1.17 1.84
-3.70 1.17 1.84
-3.68 1.18 1.84
-3.69 1.19 1.84
-3.75 1.22 1.83
-3.89 1.27 1.82
-3.63 1.21 1.84
-3.76 1.25 1.83
-3.54 1.20 1.85
-3.36 1.16 1.86
-3.40 1.18 1.86
-3.67 1.27 1.84
-3.70 1.29 1.83
-3.64 1.29 1.84
-3.94 1.39 1.81
-3.75 1.34 1.83
-3.79 1.36 1.82
-3.56 1.31 1.84
-3.70 1.37 1.83
-3.62 1.37 1.84
-3.69 1.40 1.83
-3.99 1.51 1.81
-3.68 1.43 1.83
-3.37 1.34 1.86
-3.95 1.55 1.81
-4.03 1.61 1.80
-2.91 1.22 1.89
-2.99 1.31 1.88
-2.86 1.28 1.89
-2.91 1.32 1.89
-2.90 1.34 1.89
-2.87 1.36 1.89
-2.83 1.40 1.89
-2.79 1.41 1.89
-2.87 1.46 1.89
-2.82 1.45 1.89
-2.90 1.49 1.88
-2.94 1.52 1.88
-2.83 1.49 1.89
-2.81 1.49 1.89
-2.78 1.50 1.89
-2.77 1.50 1.89
-2.75 1.57 1.89
-2.84 1.63 1.88
-2.78 1.63 1.88
-2.74 1.62 1.89
-2.84 1.68 1.88
-2.81 1.69 1.88
-2.77 1.68 1.88
-8.25 -0.88 1.36
-7.85 -0.79 1.39
-7.87 -0.27 1.39
-7.50 -0.19 1.42
-7.99 -0.17 1.38
-7.74 0.32 1.50
-7.59 0.43 1.51
-7.67 0.47 1.50
-7.65 0.49 1.50
-7.54 0.50 1.51
-7.58 0.52 1.51
-7.58 0.56 1.51
-7.72 0.65 1.49
-3.61 0.92 1.83
-4.17 1.26 1.77
-4.11 1.27 1.78
-3.88 1.24 1.79
-3.79 1.27 1.80
-3.84 1.36 1.79
-3.94 1.42 1.78
-3.81 1.39 1.79
-3.72 1.38 1.80
-2.87 1.28 1.87
-3.13 1.44 1.84
-3.35 1.54 1.82
-3.13 1.46 1.84
-3.12 1.47 1.84
-2.94 1.41 1.86
-3.11 1.49 1.84
-3.08 1.50 1.84
-3.05 1.52 1.85
-3.07 1.57 1.84
-3.14 1.61 1.84
-3.08 1.59 1.84
-2.94 1.55 1.85
-3.00 1.58 1.85
-3.06 1.62 1.84
-3.03 1.62 1.84
-2.87 1.57 1.86
-2.86 1.60 1.86
-2.86 1.61 1.86
-2.85 1.62 1.86
-2.85 1.63 1.86
-7.69 -0.69 1.34
-7.62 -0.39 1.52
-7.57 -0.27 1.52
-7.82 -0.26 1.50
-7.71 0.28 1.46
-7.80 0.30 1.45
-7.66 0.31 1.46
-7.34 0.56 1.49
-7.65 0.66 1.46
-3.52 0.90 1.81
-3.77 1.10 1.79
-3.84 1.15 1.78
-3.87 1.19 1.77
-3.77 1.17 1.78
-3.63 1.16 1.79
-3.61 1.16 1.80
-3.84 1.24 1.77
-3.71 1.21 1.79
-3.50 1.16 1.81
-3.49 1.17 1.81
-3.36 1.14 1.82
-3.45 1.18 1.81
-3.62 1.24 1.79
-3.78 1.30 1.78
-3.72 1.29 1.78
-3.77 1.32 1.78
-3.68 1.30 1.79
-3.64 1.30 1.79
-3.53 1.28 1.80
-3.28 1.22 1.82
-3.72 1.37 1.78
-3.82 1.41 1.77
-3.51 1.32 1.80
-3.25 1.27 1.82
-3.53 1.45 1.79
-2.89 1.28 1.85
-2.89 1.33 1.85
-3.08 1.43 1.83
-2.95 1.39 1.84
-2.90 1.38 1.85
-3.01 1.43 1.83
-2.97 1.43 1.84
-2.83 1.48 1.85
-2.96 1.57 1.83
-2.89 1.56 1.84
-2.85 1.56 1.84
-2.87 1.69 1.83
-7.72 -0.61 1.29
-8.11 -0.61 1.25
-7.94 -0.53 1.27
-7.59 0.20 1.42
-7.47 0.21 1.43
-7.38 0.32 1.44
-7.38 0.40 1.44
-7.86 0.52 1.39
-7.75 0.57 1.40
-7.93 0.62 1.38
-7.53 0.61 1.42
-7.95 0.68 1.38
-3.84 1.36 1.74
-3.22 1.45 1.79
-3.30 1.50 1.78
-3.40 1.57 1.77
-3.02 1.52 1.81
-3.01 1.58 1.80
-2.97 1.66 1.80
-8.17 -0.92 1.18
-7.90 -0.62 1.21
-7.86 -0.60 1.21
-7.91 -0.58 1.21
-8.15 -0.56 1.18
-8.14 -0.54 1.18
-7.41 0.25 1.39
-7.86 0.58 1.34
-7.94 0.62 1.33
-3.53 0.70 1.77
-3.41 0.82 1.78
-3.60 0.87 1.76
-3.78 1.06 1.73
-3.96 1.19 1.71
-3.96 1.20 1.71
-3.79 1.16 1.73
-3.70 1.15 1.74
-3.56 1.12 1.75
-3.59 1.14 1.75
-3.72 1.19 1.73
-3.83 1.23 1.72
-3.46 1.13 1.76
-3.69 1.21 1.74
-3.76 1.26 1.73
-3.62 1.22 1.74
-3.83 1.30 1.72
-3.91 1.33 1.71
-3.45 1.21 1.76
-3.83 1.33 1.72
-3.79 1.33 1.72
-3.99 1.41 1.70
-3.61 1.30 1.74
-3.53 1.28 1.75
-3.33 1.23 1.77
-3.19 1.20 1.78
-3.04 1.16 1.80
-3.37 1.27 1.76
-3.10 1.20 1.79
-3.21 1.24 1.78
-3.16 1.23 1.79
-3.56 1.38 1.74
-3.26 1.29 1.77
-2.95 1.19 1.81
-3.05 1.24 1.80
-3.07 1.25 1.79
-3.12 1.28 1.79
-3.03 1.26 1.80
-2.99 1.25 1.80
-2.96 1.25 1.80
-2.86 1.23 1.81
-3.16 1.34 1.78
-2.89 1.25 1.81
-2.87 1.27 1.81
-3.56 1.56 1.73
-3.17 1.42 1.77
-3.14 1.42 1.78
-3.13 1.43 1.78
-3.19 1.46 1.77
-3.35 1.53 1.75
-3.52 1.61 1.73
-3.14 1.47 1.78
-3.07 1.45 1.78
-3.14 1.49 1.77
-3.07 1.48 1.78
-3.06 1.48 1.78
-2.95 1.44 1.79
-2.90 1.43 1.80
-2.89 1.45 1.80
-2.88 1.46 1.80
-2.82 1.45 1.80
-2.89 1.50 1.80
-2.88 1.50 1.80
-2.87 1.51 1.80
-2.79 1.48 1.81
-2.80 1.52 1.80
-2.84 1.55 1.80
-2.79 1.53 1.80
-2.78 1.55 1.80
-2.78 1.56 1.80
-7.86 0.60 1.29
-7.78 0.61 1.30
-7.77 0.63 1.30
-7.72 0.65 1.30
-7.93 0.72 1.28
-7.58 0.71 1.31
-4.06 1.22 1.67
-4.09 1.36 1.66
-3.59 1.31 1.71
-3.78 1.40 1.69
-3.36 1.28 1.74
-3.12 1.21 1.76
-3.27 1.28 1.75
-2.90 1.48 1.77
-2.88 1.52 1.77
-2.86 1.51 1.77
-2.98 1.64 1.75
-7.87 0.60 1.23
-3.75 0.77 1.69
-3.61 0.91 1.70
-3.32 0.86 1.74
-3.36 0.88 1.73
-3.85 1.00 1.67
-3.39 0.90 1.73
-3.72 1.00 1.69
-3.41 0.94 1.72
-3.39 0.95 1.72
-3.44 0.97 1.72
-3.50 1.00 1.71
-3.58 1.03 1.70
-3.63 1.05 1.69
-3.84 1.12 1.67
-3.42 1.02 1.72
-3.22 0.98 1.74
-3.20 0.98 1.74
-3.37 1.04 1.72
-3.21 1.00 1.74
-3.37 1.07 1.72
-3.35 1.07 1.72
-3.41 1.10 1.72
-3.25 1.06 1.74
-3.17 1.05 1.74
-3.21 1.07 1.74
-3.11 1.06 1.75
-3.15 1.08 1.74
-3.19 1.11 1.74
-3.13 1.10 1.75
-3.10 1.10 1.75
-3.16 1.12 1.74
-3.24 1.16 1.73
-3.09 1.14 1.75
-3.10 1.15 1.75
-2.98 1.14 1.76
-3.01 1.16 1.76
-2.94 1.15 1.76
-2.96 1.18 1.76
-2.90 1.19 1.77
-2.86 1.22 1.77
-2.87 1.23 1.77
-2.87 1.25 1.77
-2.91 1.28 1.76
-3.00 1.32 1.75
-2.85 1.29 1.76
-2.89 1.32 1.76
-3.00 1.37 1.75
-3.30 1.50 1.71
-3.20 1.47 1.72
-2.95 1.38 1.75
-2.86 1.35 1.76
-2.96 1.40 1.75
-2.88 1.41 1.76
-2.80 1.41 1.76
-3.87 0.73 1.65
-3.52 0.86 1.68
-3.49 0.88 1.69
-3.86 0.98 1.64
-3.75 0.96 1.65
-3.70 0.97 1.66
-3.63 0.97 1.67
-3.39 0.92 1.70
-3.49 0.96 1.68
-3.55 0.98 1.67
-3.53 0.99 1.68
-3.49 0.99 1.68
-3.46 0.99 1.68
-3.81 1.09 1.64
-3.80 1.10 1.64
-3.69 1.08 1.65
-3.48 1.05 1.68
-3.52 1.07 1.67
-3.50 1.07 1.68
-3.54 1.09 1.67
-3.54 1.10 1.67
-3.54 1.11 1.67
-3.26 1.05 1.70
-3.42 1.10 1.68
-3.19 1.05 1.71
-3.19 1.06 1.71
-3.18 1.07 1.71
-3.25 1.10 1.70
-3.31 1.13 1.69
-3.17 1.11 1.71
-3.31 1.16 1.69
-3.56 1.25 1.66
-3.34 1.19 1.69
-3.27 1.18 1.70
-3.45 1.24 1.67
-3.29 1.21 1.69
-3.28 1.21 1.69
-3.33 1.24 1.69
-3.29 1.24 1.69
-3.11 1.19 1.71
-3.10 1.20 1.71
-3.01 1.17 1.73
-3.13 1.22 1.71
-3.05 1.22 1.72
-3.10 1.27 1.71
-3.02 1.24 1.72
-2.96 1.23 1.73
-3.04 1.29 1.72
-2.96 1.27 1.73
-2.95 1.28 1.73
-3.11 1.35 1.71
-2.93 1.29 1.73
-3.16 1.39 1.70
-3.18 1.40 1.69
-3.06 1.37 1.71
-3.08 1.39 1.71
-3.28 1.47 1.68
-3.82 1.69 1.61
-3.78 1.69 1.61
-3.60 1.63 1.63
-2.99 1.40 1.72
-3.46 1.60 1.65
-3.37 1.57 1.66
-3.04 1.45 1.71
-3.08 1.48 1.70
-2.98 1.45 1.71
-2.87 1.42 1.73
-2.85 1.43 1.73
-2.84 1.43 1.73
-2.80 1.42 1.73
-3.28 1.64 1.67
-2.79 1.46 1.73
-2.80 1.49 1.73
-7.39 0.23 1.19
-7.42 0.27 1.18
-7.53 0.57 1.16
-7.49 0.59 1.17
-3.83 1.02 1.61
-3.77 1.03 1.62
-3.87 1.07 1.61
-3.63 1.08 1.63
-3.71 1.11 1.62
