# .PCD v0.7 - Point Cloud Data file format
VERSION 0.7
FIELDS x y z
SIZE 4 4 4
TYPE F F F
COUNT 1 1 1
WIDTH 2902
HEIGHT 1
VIEWPOINT 0 0 0 1 0 0 0
POINTS 2902
DATA ASCII
-6.34 1.67 1.80
-14.58 -0.24 1.21
-14.93 -0.20 1.19
-14.83 0.02 1.25
-14.73 0.06 1.25
-15.11 0.09 1.23
-14.95 -0.09 1.24
-14.95 -0.05 1.24
-14.93 -0.02 1.24
-14.88 -0.20 1.02
-14.78 -0.12 1.02
-14.60 -0.08 1.04
-15.08 0.06 1.07
-15.24 0.09 1.06
-15.44 0.13 1.04
-15.34 0.17 1.05
-15.56 0.29 1.03
-6.08 1.62 1.69
-5.62 1.54 1.72
-6.03 1.69 1.69
-15.10 -0.27 1.07
-15.09 -0.20 1.07
-14.58 -0.16 1.11
-14.88 -0.13 1.09
-14.98 -0.09 1.08
-14.80 -0.05 1.09
-14.95 -0.02 1.08
-5.58 1.66 1.69
-4.05 1.48 1.80
-15.17 0.02 0.90
-15.09 0.06 0.90
-14.84 0.09 0.92
-14.42 0.26 0.96
-14.95 0.31 0.91
-5.54 1.50 1.66
-6.13 1.66 1.61
-5.76 1.59 1.64
-5.55 1.57 1.66
-4.60 1.35 1.74
-5.85 1.69 1.63
-5.56 1.68 1.65
-4.27 1.59 1.75
-11.52 -0.44 1.20
-15.00 -0.13 0.91
-14.85 -0.09 0.92
-14.99 -0.05 0.91
-14.92 -0.02 0.92
-14.84 0.13 0.84
-4.01 1.40 1.76
-3.66 1.31 1.79
-4.17 1.49 1.74
-3.88 1.41 1.77
-13.93 -0.12 0.73
-14.52 0.02 0.78
-14.65 0.09 0.77
-5.90 1.67 1.55
-14.68 -0.13 0.77
-14.86 -0.09 0.75
-14.72 -0.05 0.76
-5.67 1.67 1.53
-5.31 1.63 1.57
-3.90 1.47 1.71
-4.25 1.64 1.67
-8.59 1.55 1.19
-8.36 1.53 1.22
-5.40 1.30 1.53
-6.20 1.51 1.44
-5.90 1.46 1.47
-6.22 1.56 1.44
-4.69 1.33 1.60
-5.43 1.56 1.52
-5.38 1.57 1.52
-5.73 1.69 1.48
-5.59 1.67 1.50
-5.42 1.64 1.52
-5.41 1.68 1.52
-4.20 1.64 1.64
-10.96 -0.31 0.98
-10.79 -0.28 0.99
-10.86 -0.26 0.98
-14.00 -0.12 0.65
-13.94 -0.09 0.66
-3.38 1.17 1.69
-3.20 1.19 1.71
-3.73 1.09 1.62
-3.68 1.10 1.63
-3.75 1.14 1.62
-3.70 1.14 1.62
-3.72 1.16 1.62
-3.54 1.18 1.64
-3.20 1.13 1.68
-4.84 1.64 1.46
-3.37 1.23 1.66
-3.80 1.51 1.59
-3.84 1.55 1.59
-4.00 1.64 1.56
-3.93 1.65 1.57
-3.79 1.65 1.59
-6.55 -1.24 1.03
-6.11 -1.14 1.08
-6.34 -1.07 1.05
-6.74 -1.00 1.00
-4.54 1.15 1.48
-5.32 1.35 1.37
-4.91 1.27 1.43
-4.93 1.30 1.43
-5.25 1.44 1.38
-3.98 1.13 1.56
-4.17 1.19 1.53
-3.90 1.14 1.57
-4.24 1.25 1.52
-4.87 1.43 1.43
-4.76 1.41 1.44
-5.04 1.50 1.40
-5.05 1.52 1.40
-4.40 1.35 1.49
-4.61 1.42 1.46
-4.76 1.48 1.44
-3.90 1.27 1.56
-4.68 1.52 1.45
-3.98 1.62 1.53
-3.78 1.68 1.55
-6.72 -1.38 0.94
-6.37 -1.31 0.98
-6.38 -1.24 0.98
-6.32 -1.22 0.99
-6.53 -1.22 0.96
-6.51 -1.17 0.96
-6.25 -1.12 1.00
-6.26 -1.10 1.00
-6.41 -1.08 0.98
-6.34 -1.05 0.99
-6.34 -1.02 0.99
-6.29 -1.00 0.99
-6.30 -0.98 0.99
-6.66 -0.86 0.95
-7.81 -0.65 0.79
-7.85 -0.57 0.78
-3.73 1.12 1.56
-3.69 1.12 1.56
-4.18 1.26 1.49
-4.08 1.25 1.51
-3.89 1.21 1.53
-3.56 1.13 1.58
-3.66 1.17 1.57
-3.58 1.15 1.58
-3.62 1.18 1.57
-3.53 1.16 1.58
-3.31 1.12 1.61
-4.03 1.34 1.51
-4.27 1.61 1.46
-3.49 1.64 1.56
-6.41 -1.68 0.91
-6.42 -1.66 0.91
-6.51 -1.66 0.90
-6.76 -1.66 0.86
-6.87 -1.63 0.85
-7.20 -1.64 0.80
-7.22 -1.59 0.80
-6.83 -1.51 0.85
-6.84 -1.49 0.85
-6.82 -1.44 0.85
-6.66 -1.39 0.88
-6.77 -1.39 0.86
-6.53 -1.33 0.90
-6.47 -1.30 0.91
-6.50 -1.28 0.90
-6.78 -1.30 0.86
-6.59 -1.23 0.89
-6.15 -1.15 0.95
-6.48 -1.17 0.90
-6.34 -1.13 0.92
-6.15 -1.08 0.95
-5.94 -1.04 0.98
-6.18 -1.05 0.95
-6.32 -1.02 0.93
-6.19 -0.98 0.95
-6.30 -0.98 0.93
-6.31 -0.96 0.93
-7.56 -0.80 0.75
-8.36 -0.81 0.64
-8.09 -0.76 0.68
-7.93 -0.73 0.70
-7.83 -0.52 0.71
-9.55 -0.47 0.47
-5.20 1.28 1.31
-5.15 1.29 1.31
-5.00 1.31 1.33
-5.06 1.37 1.32
-4.96 1.36 1.33
-4.28 1.21 1.44
-4.40 1.27 1.42
-4.79 1.42 1.36
-4.79 1.48 1.35
-3.80 1.22 1.51
-5.13 1.61 1.30
-4.23 1.40 1.44
-4.80 1.63 1.34
-4.80 1.65 1.34
-4.66 1.69 1.36
-5.98 -1.67 0.90
-5.92 -1.63 0.91
-6.32 -1.69 0.85
-6.36 -1.68 0.84
-6.24 -1.63 0.86
-6.29 -1.62 0.86
-6.31 -1.60 0.85
-6.55 -1.62 0.82
-7.06 -1.69 0.74
-6.60 -1.59 0.81
-6.84 -1.58 0.77
-6.58 -1.50 0.81
-6.81 -1.51 0.78
-6.87 -1.50 0.77
-6.66 -1.42 0.80
-6.44 -1.36 0.84
-6.50 -1.35 0.83
-6.31 -1.30 0.86
-6.32 -1.28 0.85
-6.48 -1.28 0.83
-6.58 -1.27 0.82
-6.63 -1.26 0.81
-6.35 -1.20 0.85
-6.31 -1.15 0.86
-6.24 -1.12 0.87
-6.21 -1.10 0.87
-6.17 -1.07 0.88
-6.36 -1.07 0.85
-6.25 -1.04 0.87
-6.40 -1.03 0.84
-6.47 -1.00 0.83
-6.46 -0.98 0.83
-6.49 -0.96 0.83
-6.46 -0.93 0.83
-6.56 -0.92 0.82
-6.33 -0.88 0.85
-6.55 -0.88 0.82
-7.85 -0.82 0.63
-8.18 -0.82 0.58
-7.96 -0.76 0.61
-9.48 1.19 0.62
-9.95 1.42 0.54
-9.40 1.47 0.62
-3.55 1.09 1.52
-3.66 1.16 1.50
-3.54 1.16 1.52
-3.67 1.23 1.50
-3.28 1.14 1.56
-3.66 1.29 1.49
-3.40 1.26 1.53
-3.48 1.32 1.52
-3.10 1.38 1.57
-6.17 -1.61 0.81
-6.97 -1.58 0.69
-7.15 -1.56 0.66
-6.61 -1.41 0.75
-6.73 -1.36 0.73
-6.82 -1.35 0.71
-6.57 -1.29 0.76
-6.77 -1.30 0.72
-6.56 -1.25 0.76
-6.43 -1.21 0.78
-6.82 -1.19 0.72
-6.82 -1.17 0.72
-6.92 -1.16 0.70
-6.91 -1.13 0.70
-6.52 -1.07 0.76
-6.47 -1.02 0.77
-6.51 -0.98 0.77
-7.33 -1.04 0.64
-7.23 -0.94 0.65
-7.29 -0.92 0.64
-7.81 -0.92 0.56
-7.78 -0.89 0.57
-7.92 -0.88 0.55
-7.95 -0.83 0.54
-7.66 -0.78 0.59
-7.51 -0.56 0.61
-8.14 -0.51 0.51
-8.57 -0.51 0.44
-10.34 0.19 0.42
-9.67 0.25 0.52
-9.47 1.26 0.53
-9.52 1.29 0.52
-9.54 1.47 0.51
-9.78 1.53 0.47
-3.84 0.99 1.44
-3.79 0.99 1.45
-3.77 1.02 1.45
-3.81 1.04 1.45
-3.64 1.01 1.48
-3.89 1.08 1.43
-4.28 1.19 1.37
-3.99 1.13 1.41
-4.00 1.14 1.41
-4.22 1.22 1.37
-4.12 1.22 1.39
-4.05 1.21 1.40
-5.51 1.61 1.15
-4.04 1.25 1.40
-3.84 1.20 1.43
-4.01 1.26 1.40
-4.70 1.49 1.28
-3.76 1.32 1.44
-4.27 1.55 1.34
-4.08 1.53 1.37
-4.36 1.63 1.32
-4.00 1.55 1.39
-3.92 1.56 1.40
-4.12 1.69 1.36
-4.01 1.68 1.37
-3.96 1.68 1.38
-3.80 1.63 1.41
-3.82 1.67 1.40
-3.63 1.62 1.43
-6.09 -1.65 0.75
-6.10 -1.63 0.75
-6.20 -1.63 0.73
-6.04 -1.58 0.76
-6.50 -1.59 0.68
-6.48 -1.57 0.69
-6.73 -1.59 0.64
-6.88 -1.59 0.62
-7.05 -1.60 0.59
-7.09 -1.58 0.59
-7.20 -1.58 0.57
-7.10 -1.53 0.59
-7.15 -1.52 0.58
-7.07 -1.48 0.59
-6.89 -1.43 0.62
-6.85 -1.40 0.63
-6.81 -1.38 0.64
-7.00 -1.38 0.60
-6.97 -1.35 0.61
-7.10 -1.35 0.59
-6.73 -1.27 0.65
-6.64 -1.24 0.66
-6.77 -1.23 0.64
-6.83 -1.22 0.63
-6.88 -1.20 0.62
-6.42 -1.12 0.70
-6.56 -1.12 0.68
-6.43 -1.08 0.70
-6.58 -1.08 0.67
-6.72 -1.07 0.65
-5.92 -0.96 0.78
-6.56 -1.01 0.68
-6.45 -0.98 0.70
-6.52 -0.96 0.69
-7.32 -1.02 0.55
-6.84 -0.95 0.63
-7.56 -1.00 0.52
-6.22 -0.85 0.73
-5.91 -0.80 0.78
-7.71 -0.94 0.49
-7.85 -0.90 0.47
-7.72 -0.87 0.49
-7.68 -0.84 0.50
-7.69 -0.81 0.49
-7.64 -0.79 0.50
-7.44 -0.75 0.53
-7.33 -0.69 0.55
-10.88 -0.39 0.33
-10.53 -0.23 0.39
-10.58 -0.04 0.38
-9.31 1.43 0.47
-6.46 1.03 0.97
-9.54 1.51 0.43
-9.70 1.56 0.40
-9.33 1.53 0.47
-9.39 1.56 0.45
-9.19 1.58 0.49
-9.30 1.62 0.47
-8.90 1.57 0.54
-9.06 1.62 0.51
-3.68 0.96 1.44
-3.53 0.94 1.47
-3.64 0.98 1.44
-3.69 1.00 1.44
-3.62 1.00 1.45
-3.52 0.98 1.47
-3.67 1.03 1.44
-3.68 1.04 1.44
-3.74 1.07 1.42
-3.72 1.08 1.43
-3.84 1.12 1.40
-3.75 1.11 1.42
-3.77 1.12 1.42
-3.67 1.11 1.43
-3.77 1.14 1.41
-3.67 1.13 1.43
-4.30 1.31 1.32
-4.28 1.32 1.32
-4.58 1.42 1.26
-4.27 1.36 1.32
-4.05 1.31 1.36
-3.94 1.29 1.38
-4.17 1.37 1.33
-4.02 1.34 1.36
-4.10 1.38 1.34
-4.12 1.39 1.34
-3.61 1.26 1.43
-4.41 1.59 1.28
-3.92 1.44 1.37
-3.63 1.39 1.42
-3.98 1.53 1.35
-3.78 1.48 1.39
-3.88 1.52 1.37
-3.37 1.38 1.46
-3.58 1.47 1.42
-4.02 1.63 1.34
-3.76 1.55 1.39
-3.74 1.57 1.39
-3.60 1.53 1.41
-3.61 1.54 1.41
-3.56 1.54 1.42
-3.46 1.51 1.44
-3.52 1.55 1.42
-3.47 1.55 1.43
-3.34 1.52 1.46
-3.14 1.46 1.49
-3.56 1.65 1.41
-3.59 1.69 1.40
-3.44 1.65 1.43
-5.74 -1.66 0.74
-5.84 -1.64 0.72
-5.96 -1.62 0.70
-5.99 -1.58 0.70
-5.99 -1.56 0.70
-6.00 -1.55 0.70
-6.21 -1.54 0.66
-6.33 -1.52 0.64
-6.00 -1.44 0.70
-5.92 -1.41 0.71
-6.57 -1.43 0.60
-6.39 -1.38 0.63
-6.47 -1.34 0.62
-6.58 -1.34 0.60
-6.54 -1.31 0.61
-6.55 -1.29 0.61
-6.81 -1.28 0.56
-6.70 -1.25 0.58
-6.28 -1.15 0.65
-6.11 -1.10 0.68
-6.07 -1.08 0.69
-5.96 -1.04 0.71
-6.09 -1.04 0.69
-6.16 -1.03 0.67
-6.03 -0.99 0.70
-5.86 -0.93 0.73
-5.87 -0.91 0.73
-6.01 -0.91 0.70
-5.58 -0.84 0.78
-5.70 -0.83 0.76
-6.19 -0.86 0.67
-5.77 -0.80 0.74
-6.93 -0.89 0.54
-6.52 -0.83 0.61
-7.70 -0.91 0.41
-7.62 -0.88 0.42
-7.12 -0.81 0.51
-7.50 -0.82 0.45
-7.36 -0.79 0.47
-6.66 0.96 0.88
-6.63 0.97 0.89
-6.43 0.96 0.92
-6.26 0.95 0.95
-6.21 0.96 0.96
-6.24 0.98 0.95
-6.60 1.05 0.89
-6.50 1.05 0.91
-6.44 1.06 0.92
-6.40 1.07 0.92
-6.31 1.07 0.94
-9.34 1.58 0.38
-6.32 1.11 0.93
-6.50 1.16 0.90
-9.28 1.64 0.39
-5.46 1.01 1.09
-5.44 1.02 1.09
-9.00 1.66 0.44
-5.35 1.04 1.11
-5.24 1.03 1.13
-5.49 1.09 1.08
-5.08 1.03 1.16
-5.12 1.05 1.15
-4.90 1.02 1.19
-5.19 1.09 1.13
-5.05 1.08 1.16
-4.94 1.07 1.18
-5.10 1.12 1.15
-5.19 1.15 1.13
-4.77 1.08 1.21
-4.73 1.08 1.21
-4.87 1.13 1.19
-4.99 1.16 1.17
-4.78 1.13 1.20
-5.02 1.20 1.16
-4.90 1.19 1.18
-5.14 1.25 1.13
-4.78 1.19 1.20
-5.04 1.26 1.15
-5.33 1.34 1.10
-5.35 1.36 1.09
-5.30 1.36 1.10
-5.14 1.34 1.13
-5.15 1.35 1.13
-5.45 1.44 1.07
-4.68 1.27 1.21
-5.21 1.41 1.11
-5.73 1.56 1.02
-4.93 1.37 1.16
-4.18 1.19 1.30
-4.78 1.36 1.19
-5.24 1.49 1.10
-5.02 1.45 1.14
-5.37 1.59 1.07
-5.36 1.63 1.07
-5.02 1.55 1.14
-5.39 1.67 1.07
-4.68 1.50 1.20
-5.11 1.63 1.12
-5.02 1.62 1.13
-4.74 1.56 1.18
-4.96 1.65 1.14
-4.84 1.63 1.16
-4.91 1.66 1.15
-4.88 1.68 1.15
-4.81 1.67 1.16
-4.70 1.67 1.18
-4.73 1.69 1.18
-4.57 1.65 1.21
-3.85 1.58 1.33
-3.99 1.68 1.30
-5.71 -1.66 0.68
-5.88 -1.67 0.65
-5.69 -1.61 0.68
-5.91 -1.64 0.64
-5.88 -1.59 0.65
-5.81 -1.55 0.66
-5.96 -1.56 0.63
-6.04 -1.55 0.62
-6.02 -1.53 0.62
-5.88 -1.48 0.65
-5.94 -1.47 0.64
-6.35 -1.50 0.56
-5.96 -1.42 0.63
-6.16 -1.43 0.60
-6.34 -1.37 0.57
-6.32 -1.35 0.57
-6.28 -1.32 0.58
-6.37 -1.31 0.56
-6.50 -1.31 0.54
-6.78 -1.33 0.49
-6.60 -1.28 0.52
-6.88 -1.29 0.47
-6.70 -1.25 0.50
-6.69 -1.22 0.51
-5.97 -1.11 0.64
-6.19 -1.12 0.60
-5.94 -1.06 0.64
-6.11 -1.06 0.61
-5.85 -1.01 0.66
-6.20 -1.03 0.60
-5.90 -0.96 0.65
-5.86 -0.93 0.66
-5.87 -0.89 0.66
-5.88 -0.87 0.65
-5.55 -0.82 0.71
-5.60 -0.81 0.71
-5.92 -0.82 0.65
-5.84 -0.77 0.66
-5.57 -0.73 0.71
-7.02 -0.81 0.45
-7.43 -0.82 0.37
-6.80 0.96 0.79
-6.67 0.96 0.82
-6.54 0.96 0.84
-6.37 0.95 0.88
-6.35 0.96 0.88
-6.66 1.02 0.82
-6.88 1.07 0.77
-6.93 1.10 0.76
-6.89 1.11 0.77
-9.25 1.58 0.31
-9.19 1.69 0.32
-4.11 0.92 1.29
-3.92 0.90 1.33
-4.17 0.98 1.28
-3.83 0.92 1.34
-3.69 0.90 1.37
-3.82 0.93 1.35
-3.59 0.90 1.39
-3.55 0.90 1.40
-3.78 0.96 1.35
-3.65 0.94 1.38
-3.51 0.92 1.40
-3.86 1.01 1.33
-3.64 0.97 1.38
-3.74 1.00 1.36
-3.62 0.99 1.38
-3.79 1.04 1.34
-3.87 1.07 1.33
-3.82 1.07 1.34
-4.02 1.13 1.30
-3.93 1.11 1.31
-4.06 1.16 1.29
-4.30 1.23 1.24
-4.27 1.24 1.25
-4.12 1.21 1.27
-3.96 1.18 1.30
-3.93 1.18 1.31
-3.84 1.17 1.33
-4.00 1.23 1.29
-3.92 1.23 1.31
-4.21 1.32 1.25
-3.85 1.23 1.32
-3.62 1.18 1.37
-4.34 1.42 1.22
-4.14 1.37 1.26
-4.03 1.36 1.28
-4.00 1.37 1.28
-3.68 1.28 1.35
-3.81 1.33 1.32
-4.40 1.53 1.20
-3.84 1.37 1.31
-3.74 1.36 1.33
-3.94 1.43 1.29
-3.81 1.40 1.31
-3.84 1.44 1.31
-3.75 1.43 1.32
-3.47 1.37 1.38
-3.73 1.48 1.32
-3.32 1.35 1.40
-3.74 1.52 1.32
-3.40 1.41 1.38
-3.57 1.48 1.35
-3.45 1.45 1.37
-3.58 1.51 1.35
-3.67 1.55 1.33
-3.71 1.58 1.32
-3.50 1.51 1.36
-3.44 1.50 1.37
-3.39 1.49 1.38
-3.57 1.57 1.34
-3.67 1.62 1.32
-3.45 1.55 1.36
-3.36 1.53 1.38
-3.35 1.53 1.38
-3.61 1.65 1.33
-3.48 1.60 1.35
-3.42 1.60 1.37
-3.32 1.63 1.38
-3.30 1.64 1.38
-3.25 1.68 1.39
-5.40 -1.69 0.66
-5.73 -1.64 0.60
-5.70 -1.55 0.61
-5.93 -1.55 0.56
-5.74 -1.50 0.60
-6.30 -1.58 0.50
-6.22 -1.54 0.51
-6.07 -1.50 0.54
-6.24 -1.50 0.51
-6.18 -1.47 0.52
-5.87 -1.38 0.58
-6.29 -1.40 0.50
-6.41 -1.40 0.48
-5.88 -1.30 0.58
-6.19 -1.33 0.52
-6.35 -1.33 0.49
-6.03 -1.26 0.55
-6.59 -1.32 0.45
-6.61 -1.30 0.44
-6.29 -1.23 0.50
-6.61 -1.26 0.44
-6.71 -1.25 0.42
-6.61 -1.21 0.44
-6.76 -1.21 0.41
-6.75 -1.19 0.42
-6.27 -1.10 0.51
-6.83 -1.15 0.40
-6.16 -1.05 0.53
-6.05 -1.01 0.55
-6.21 -0.99 0.52
-6.20 -0.97 0.52
-5.89 -0.91 0.58
-6.05 -0.91 0.55
-5.83 -0.87 0.59
-5.80 -0.84 0.60
-5.88 -0.83 0.58
-5.73 -0.80 0.61
-6.05 -0.81 0.55
-5.77 -0.76 0.60
-5.93 -0.76 0.57
-5.63 -0.71 0.63
-5.37 -0.67 0.68
-5.62 -0.67 0.63
-5.73 -0.66 0.61
-5.83 -0.65 0.59
-6.58 0.86 0.77
-6.59 0.89 0.77
-6.22 0.86 0.84
-6.70 0.94 0.75
-6.43 0.92 0.80
-6.22 0.91 0.84
-6.28 0.94 0.83
-6.29 0.96 0.83
-6.39 0.99 0.81
-6.65 1.04 0.75
-6.83 1.09 0.71
-6.78 1.10 0.72
-6.81 1.12 0.72
-6.82 1.14 0.72
-6.87 1.16 0.70
-6.84 1.18 0.71
-6.32 1.11 0.81
-5.43 0.98 0.99
-5.24 0.96 1.03
-5.33 0.99 1.01
-5.46 1.03 0.98
-5.26 1.01 1.02
-5.45 1.06 0.98
-5.39 1.06 1.00
-5.47 1.09 0.98
-5.45 1.10 0.98
-5.19 1.07 1.03
-5.33 1.11 1.00
-5.34 1.12 1.00
-5.23 1.12 1.02
-5.11 1.11 1.05
-5.37 1.17 0.99
-5.21 1.15 1.03
-5.24 1.17 1.02
-4.85 1.11 1.10
-4.50 1.05 1.17
-4.59 1.08 1.15
-4.36 1.04 1.19
-4.70 1.13 1.12
-4.61 1.12 1.14
-4.50 1.11 1.16
-4.76 1.18 1.11
-4.58 1.16 1.14
-4.63 1.18 1.13
-4.18 1.09 1.22
-4.74 1.23 1.11
-4.71 1.24 1.11
-4.48 1.20 1.16
-4.70 1.26 1.11
-4.21 1.15 1.21
-5.10 1.39 1.03
-5.66 1.54 0.91
-4.51 1.27 1.15
-4.65 1.32 1.12
-4.55 1.30 1.14
-4.85 1.39 1.08
-5.25 1.51 0.99
-4.97 1.45 1.05
-5.09 1.50 1.03
-5.01 1.52 1.04
-5.22 1.61 0.99
-3.95 1.64 1.23
-3.81 1.64 1.25
-3.61 1.64 1.29
-5.10 -1.69 0.64
-5.07 -1.66 0.65
-5.19 -1.67 0.63
-5.04 -1.62 0.66
-5.19 -1.63 0.63
-5.01 -1.56 0.67
-5.40 -1.62 0.59
-5.27 -1.55 0.62
-5.89 -1.65 0.49
-5.48 -1.51 0.57
-5.49 -1.50 0.57
-5.42 -1.47 0.59
-5.62 -1.48 0.55
-5.42 -1.41 0.59
-5.66 -1.43 0.54
-5.63 -1.40 0.55
-6.29 -1.49 0.42
-6.23 -1.44 0.43
-6.45 -1.46 0.39
-6.06 -1.37 0.46
-5.98 -1.34 0.48
-5.84 -1.30 0.51
-5.91 -1.29 0.49
-5.90 -1.27 0.50
-5.75 -1.22 0.53
-5.88 -1.22 0.50
-6.01 -1.22 0.48
-5.96 -1.19 0.49
-6.23 -1.21 0.43
-6.22 -1.19 0.43
-6.00 -1.14 0.48
-5.85 -1.09 0.51
-6.25 -1.13 0.43
-6.48 -1.13 0.38
-6.32 -1.09 0.42
-6.26 -1.06 0.43
-6.29 -1.05 0.42
-5.89 -0.98 0.50
-5.82 -0.95 0.52
-5.63 -0.91 0.55
-5.65 -0.89 0.55
-5.61 -0.87 0.56
-5.65 -0.85 0.55
-5.71 -0.84 0.54
-5.62 -0.81 0.56
-5.59 -0.79 0.56
-5.49 -0.76 0.58
-5.53 -0.74 0.57
-5.64 -0.73 0.55
-5.62 -0.65 0.56
-5.57 -0.61 0.57
-7.77 -0.07 0.56
-7.90 -0.06 0.54
-6.58 0.81 0.72
-6.73 0.84 0.69
-6.81 0.87 0.67
-6.43 0.84 0.75
-6.36 0.85 0.76
-6.42 0.87 0.75
-6.13 0.88 0.81
-6.30 0.92 0.77
-6.24 0.93 0.79
-6.24 0.95 0.79
-6.78 1.04 0.67
-6.71 1.08 0.68
-6.89 1.13 0.64
-6.98 1.16 0.63
-6.90 1.16 0.64
-6.96 1.19 0.63
-7.02 1.22 0.61
-5.42 1.05 0.95
-3.65 0.83 1.31
-3.62 0.84 1.32
-3.88 0.91 1.26
-3.57 0.86 1.33
-3.90 0.94 1.26
-3.51 0.87 1.34
-3.47 0.87 1.35
-3.74 0.94 1.29
-3.91 0.99 1.25
-3.90 0.99 1.25
-3.59 0.93 1.32
-3.72 0.98 1.29
-3.78 1.00 1.27
-3.71 0.99 1.29
-3.58 0.97 1.32
-3.74 1.02 1.28
-3.60 1.00 1.31
-3.81 1.06 1.27
-3.78 1.07 1.27
-3.49 1.01 1.33
-4.10 1.18 1.20
-3.45 1.04 1.34
-3.49 1.06 1.33
-3.46 1.07 1.33
-3.81 1.17 1.26
-2.01 1.32 1.58
-5.23 -1.69 0.56
-5.12 -1.65 0.58
-5.20 -1.57 0.57
-5.30 -1.57 0.55
-5.36 -1.54 0.54
-5.35 -1.52 0.54
-5.37 -1.51 0.53
-5.32 -1.48 0.55
-5.49 -1.45 0.51
-5.27 -1.40 0.56
-5.38 -1.39 0.54
-5.91 -1.32 0.43
-5.87 -1.30 0.44
-5.94 -1.29 0.42
-5.94 -1.25 0.42
-6.26 -1.27 0.36
-5.95 -1.21 0.42
-6.10 -1.12 0.39
-5.89 -1.02 0.43
-6.24 -0.99 0.36
-5.75 -0.92 0.47
-5.62 -0.88 0.49
-5.45 -0.85 0.53
-5.57 -0.84 0.50
-5.81 -0.85 0.45
-5.76 -0.82 0.46
-5.80 -0.81 0.45
-5.49 -0.76 0.52
-5.87 -0.77 0.44
-5.80 -0.74 0.46
-5.84 -0.73 0.45
-5.64 -0.69 0.49
-5.79 -0.68 0.46
-5.68 -0.66 0.48
-5.44 -0.62 0.53
-5.29 -0.59 0.56
-5.56 -0.55 0.50
-5.72 -0.54 0.47
-5.40 -0.41 0.54
-5.61 -0.24 0.49
-6.20 -0.24 0.37
-6.17 -0.22 0.38
-6.27 -0.07 0.35
-6.21 0.75 0.73
-6.35 0.78 0.70
-6.22 0.78 0.73
-6.34 0.81 0.70
-6.19 0.81 0.73
-6.19 0.83 0.73
-5.98 0.82 0.77
-6.19 0.86 0.73
-6.46 0.91 0.67
-6.81 0.98 0.59
-7.00 1.02 0.55
-6.89 1.02 0.57
-6.88 1.04 0.57
-6.05 0.94 0.75
-5.92 0.93 0.78
-6.01 0.96 0.76
-5.86 0.96 0.79
-6.13 1.01 0.74
-6.11 1.03 0.74
-5.84 1.00 0.80
-5.83 1.01 0.80
-5.71 1.01 0.82
-5.74 1.03 0.82
-5.83 1.06 0.80
-5.71 1.06 0.82
-6.61 1.23 0.62
-5.83 1.11 0.79
-5.74 1.11 0.81
-5.61 1.10 0.84
-5.85 1.16 0.79
-5.54 1.12 0.85
-5.41 1.11 0.88
-5.41 1.12 0.88
-5.43 1.14 0.87
-5.42 1.15 0.87
-5.31 1.16 0.90
-5.30 1.17 0.90
-5.32 1.19 0.89
-5.41 1.24 0.87
-5.12 1.19 0.94
-5.30 1.25 0.89
-4.91 1.19 0.98
-4.71 1.16 1.02
-5.54 1.36 0.84
-5.34 1.34 0.88
-5.16 1.32 0.92
-5.50 1.41 0.84
-5.72 1.49 0.79
-5.45 1.44 0.85
-5.87 1.56 0.76
-5.75 1.56 0.78
-5.56 1.53 0.82
-5.65 1.57 0.80
-4.60 1.33 1.03
-4.94 1.43 0.96
-5.19 1.51 0.90
-4.56 1.42 1.04
-5.18 -1.52 0.49
-5.07 -1.46 0.52
-5.43 -1.39 0.44
-5.44 -1.37 0.44
-5.53 -1.37 0.42
-5.33 -1.32 0.46
-5.65 -1.29 0.40
-4.92 -1.16 0.55
-5.48 -1.22 0.43
-5.70 -1.24 0.39
-5.74 -1.22 0.38
-5.73 -1.20 0.38
-5.70 -1.18 0.39
-5.71 -0.92 0.39
-5.65 -0.79 0.40
-5.63 -0.77 0.41
-5.66 -0.76 0.40
-5.64 -0.73 0.40
-5.77 -0.73 0.37
-5.67 -0.70 0.40
-5.48 -0.66 0.44
-5.28 -0.61 0.48
-5.16 -0.56 0.51
-5.20 -0.55 0.50
-5.19 -0.53 0.50
-5.09 -0.50 0.52
-5.07 -0.48 0.53
-5.18 -0.47 0.50
-8.02 -0.42 0.37
-7.87 -0.37 0.40
-7.19 -0.30 0.55
-6.24 0.65 0.66
-6.17 0.68 0.68
-6.25 0.70 0.66
-6.33 0.73 0.64
-6.18 0.73 0.68
-5.91 0.71 0.74
-6.07 0.75 0.70
-5.91 0.75 0.73
-6.41 0.82 0.62
-6.52 0.85 0.59
-6.11 0.82 0.69
-6.81 0.92 0.53
-6.66 0.92 0.56
-6.79 0.95 0.53
-5.56 0.81 0.81
-6.61 0.96 0.57
-6.53 0.97 0.59
-6.24 0.95 0.65
-5.80 0.90 0.75
-5.81 0.92 0.75
-5.42 0.87 0.84
-5.43 0.89 0.83
-5.53 0.92 0.81
-5.50 0.93 0.82
-5.48 0.94 0.82
-5.55 0.97 0.80
-5.61 0.99 0.79
-5.46 0.98 0.82
-5.58 1.02 0.79
-5.60 1.03 0.79
-5.67 1.06 0.77
-5.48 1.04 0.81
-5.32 1.03 0.85
-5.33 1.05 0.85
-5.36 1.07 0.84
-4.51 0.92 1.03
-4.46 0.93 1.04
-4.35 0.92 1.07
-5.58 1.16 0.79
-4.12 0.90 1.12
-5.69 1.22 0.76
-5.60 1.21 0.78
-5.21 -1.41 0.41
-5.42 -0.71 0.37
-5.39 -0.60 0.38
-5.28 -0.55 0.41
-5.07 -0.50 0.45
-4.86 -0.42 0.50
-6.70 0.49 0.50
-7.01 0.53 0.42
-6.76 0.53 0.48
-6.79 0.55 0.48
-6.47 0.54 0.55
-6.50 0.56 0.54
-6.53 0.58 0.54
-6.43 0.59 0.56
-6.37 0.60 0.57
-6.40 0.62 0.56
-6.55 0.65 0.53
-6.46 0.66 0.55
-6.43 0.67 0.55
-6.43 0.69 0.55
-6.37 0.70 0.57
-6.44 0.72 0.55
-6.39 0.74 0.56
-6.40 0.75 0.56
-6.44 0.77 0.55
-6.28 0.77 0.59
-6.57 0.82 0.52
-6.69 0.85 0.49
-6.79 0.88 0.46
-6.87 0.91 0.44
-7.08 0.95 0.39
-6.89 0.95 0.44
-7.06 0.99 0.40
-7.02 1.00 0.40
-6.09 0.91 0.62
-7.01 1.05 0.40
-5.89 0.91 0.67
-5.65 0.89 0.72
-5.66 0.91 0.72
-5.58 0.91 0.74
-5.41 0.90 0.78
-5.56 0.94 0.74
-5.65 0.97 0.72
-5.58 0.97 0.74
-5.56 0.98 0.74
-5.39 0.97 0.78
-5.56 1.01 0.74
-5.58 1.03 0.73
-5.71 1.07 0.70
-5.67 1.08 0.71
-5.75 1.11 0.69
-5.80 1.13 0.68
-5.71 1.13 0.70
-5.51 1.11 0.75
-5.64 1.15 0.71
-5.67 1.17 0.71
-5.67 1.20 0.70
-4.89 -1.33 0.41
-5.00 -1.33 0.39
-4.03 -1.07 0.62
-3.63 -0.99 0.72
-4.09 -1.00 0.61
-3.79 -0.94 0.68
-3.97 -0.92 0.64
-5.03 -0.44 0.39
-4.86 -0.42 0.43
-4.91 -0.40 0.42
-4.98 -0.39 0.40
-4.72 -0.34 0.46
-4.83 -0.33 0.44
-4.94 -0.21 0.41
-4.82 -0.18 0.44
-4.97 -0.15 0.40
-2.80 1.67 1.13
-2.62 0.77 0.67
-2.24 0.82 0.43
-2.21 0.67 0.41
-2.81 0.46 0.27
-1.58 0.78 0.33
-2.64 0.28 0.21
-1.93 0.64 0.30
-2.02 0.72 0.26
-1.54 0.77 0.31
-1.99 0.58 0.26
-1.87 0.65 0.28
-1.69 0.75 0.21
-15.60 0.07 2.46
-15.53 0.52 2.26
-15.17 0.47 2.18
-15.38 0.52 2.18
-15.18 0.17 2.09
-15.25 0.36 2.08
-15.31 0.40 2.08
-15.50 0.37 1.99
-15.38 0.40 1.99
-15.47 0.44 1.99
-15.44 0.48 1.99
-3.61 0.15 2.13
-15.97 0.77 1.98
-7.66 1.32 2.07
-1.29 -1.48 2.15
-2.88 -1.37 2.13
-15.47 0.55 1.94
-15.37 0.29 1.90
-15.36 0.51 1.85
-15.06 0.28 1.81
-15.33 0.36 1.81
-15.24 0.40 1.81
-15.56 0.44 1.80
-15.51 0.48 1.80
-15.55 0.52 1.80
-15.73 1.10 1.79
-6.83 1.63 1.97
-10.69 0.04 1.85
-10.39 0.17 1.86
-15.22 0.43 1.71
-15.35 0.47 1.71
-15.85 0.53 1.69
-15.70 0.60 1.70
-11.26 0.55 1.83
-6.88 1.50 1.95
-6.75 1.60 1.95
-6.82 1.64 1.95
-6.21 1.65 1.96
-10.53 0.17 1.78
-10.67 0.20 1.78
-15.48 0.40 1.60
-15.42 0.47 1.60
-15.69 0.56 1.59
-11.12 0.43 1.76
-15.07 0.65 1.61
-15.45 0.78 1.60
-14.95 -0.12 1.62
-15.29 0.35 1.46
-15.93 0.57 1.52
-15.78 0.64 1.53
-15.39 0.74 1.54
-15.17 0.76 1.55
-14.97 0.79 1.56
-14.73 -0.24 1.49
-14.76 -0.20 1.48
-14.90 -0.12 1.48
-15.02 0.02 1.50
-15.18 0.06 1.49
-15.13 0.10 1.49
-15.20 0.17 1.49
-15.14 0.21 1.49
-10.37 0.17 1.70
-15.38 0.40 1.48
-15.21 0.43 1.49
-10.52 0.33 1.70
-15.65 0.52 1.47
-10.52 0.38 1.70
-10.58 0.41 1.69
-10.78 0.47 1.68
-10.65 0.49 1.69
-14.79 0.75 1.50
-10.82 0.58 1.68
-14.73 0.85 1.50
-15.02 0.90 1.49
-14.90 1.01 1.50
-14.75 1.14 1.50
-6.08 0.63 1.89
-6.31 1.69 1.86
-2.16 -1.07 1.98
-14.99 -0.16 1.50
-14.72 -0.12 1.51
-14.92 -0.09 1.51
-15.01 -0.01 1.50
-14.82 0.55 1.34
-14.92 0.02 1.37
-15.18 0.10 1.36
-15.48 0.17 1.34
-15.31 0.21 1.35
-14.95 0.42 1.37
-15.67 0.48 1.33
-15.08 0.54 1.36
-15.21 0.58 1.35
-15.62 0.63 1.33
-15.03 0.65 1.36
-14.86 0.67 1.37
-4.04 0.22 1.94
-4.23 0.24 1.93
-4.42 0.27 1.92
-4.08 0.27 1.94
-14.49 0.91 1.39
-10.67 0.73 1.59
-4.52 0.34 1.92
-8.37 1.39 1.70
-6.25 1.59 1.81
-6.27 1.63 1.80
-2.04 -1.53 1.94
-2.14 -1.53 1.94
-2.67 -1.21 1.91
-2.78 -0.98 1.90
-1.92 -0.42 1.95
-14.70 -0.16 1.39
-14.92 -0.12 1.38
-14.81 -0.09 1.38
-14.83 -0.05 1.38
-14.83 -0.01 1.38
-15.23 0.54 1.29
-3.81 0.16 1.94
-15.19 0.61 1.29
-15.03 0.64 1.30
-2.72 -0.94 1.89
-15.16 0.54 1.22
-14.76 0.56 1.25
-15.07 0.61 1.23
-14.83 0.78 1.24
-14.39 0.90 1.27
-8.28 0.78 1.64
-8.50 1.36 1.62
-6.34 1.61 1.74
-3.15 1.24 1.94
-3.47 1.35 1.91
-14.58 0.91 1.17
-7.86 0.62 1.62
-6.21 1.39 1.72
-3.63 1.29 1.88
-2.70 -0.95 1.84
-10.24 0.14 1.42
-10.44 0.22 1.40
-7.24 0.19 1.63
-14.96 0.42 1.08
-5.24 0.17 1.77
-15.02 0.57 1.07
-4.48 0.22 1.83
-14.77 0.70 1.09
-4.15 0.24 1.85
-5.01 0.31 1.79
-4.79 0.32 1.80
-7.99 0.53 1.57
-7.96 0.55 1.57
-7.96 0.57 1.57
-8.19 0.63 1.56
-8.15 0.65 1.56
-8.19 0.69 1.56
-8.18 0.71 1.56
-5.63 0.57 1.74
-7.92 0.81 1.57
-6.76 0.78 1.66
-8.05 1.25 1.56
-7.91 1.25 1.57
-8.23 1.36 1.54
-8.12 1.39 1.55
-7.49 1.33 1.59
-8.32 1.59 1.53
-6.26 1.42 1.68
-1.84 -1.46 1.87
-2.03 -1.51 1.85
-2.30 -1.57 1.83
-2.34 -1.55 1.83
-2.68 -1.56 1.81
-2.21 -1.08 1.84
-3.32 -0.75 1.76
-2.94 -0.57 1.79
-4.83 -0.15 1.81
-4.96 -0.15 1.80
-3.75 0.20 1.86
-3.97 0.25 1.84
-4.17 0.27 1.83
-10.59 0.09 1.27
-3.96 0.10 1.82
-4.02 0.11 1.81
-4.18 0.14 1.80
-4.39 0.16 1.78
-10.71 0.38 1.26
-4.47 0.18 1.78
-4.27 0.19 1.79
-4.39 0.20 1.78
-4.24 0.21 1.79
-4.59 0.23 1.77
-4.49 0.24 1.77
-4.33 0.25 1.79
-4.25 0.25 1.79
-4.61 0.28 1.76
-4.13 0.27 1.80
-4.21 0.28 1.80
-4.61 0.32 1.76
-4.84 0.35 1.74
-5.19 0.38 1.71
-5.54 0.42 1.68
-4.28 0.36 1.79
-4.61 0.47 1.76
-7.54 0.85 1.51
-7.82 0.92 1.49
-6.06 0.82 1.63
-7.83 1.30 1.48
-3.82 0.85 1.81
-5.57 1.20 1.66
-4.20 0.98 1.78
-3.97 0.95 1.80
-4.05 1.01 1.79
-1.63 -1.49 1.83
-1.83 -1.55 1.81
-1.93 -1.58 1.81
-1.57 -1.43 1.84
-1.92 -1.50 1.81
-2.29 -1.61 1.78
-2.27 -1.54 1.78
-2.27 -1.53 1.78
-2.17 -1.49 1.79
-2.14 -1.42 1.79
-2.42 -1.47 1.77
-2.27 -1.41 1.78
-2.49 -1.46 1.76
-2.33 -1.38 1.78
-2.52 -1.41 1.76
-2.23 -1.32 1.78
-2.66 -1.41 1.75
-2.11 -1.23 1.80
-2.34 -1.27 1.78
-2.36 -1.26 1.78
-2.41 -1.24 1.77
-2.47 -1.24 1.77
-3.05 -1.33 1.72
-2.54 -1.17 1.76
-2.99 -1.21 1.72
-3.05 -1.21 1.72
-2.82 -1.10 1.74
-2.71 -1.07 1.75
-3.02 -1.12 1.72
-2.80 -1.05 1.74
-2.54 -0.98 1.76
-3.36 -1.13 1.69
-3.64 -1.12 1.67
-2.89 -0.97 1.73
-2.31 -0.70 1.78
-4.08 -0.80 1.63
-4.12 -0.72 1.63
-6.79 -0.65 1.41
-4.06 -0.12 1.81
-3.75 0.06 1.82
-4.34 0.18 1.76
-4.24 0.21 1.77
-4.16 0.24 1.78
-10.89 0.60 1.18
-4.20 0.26 1.77
-4.20 0.27 1.77
-4.24 0.28 1.77
-4.26 0.30 1.77
-4.37 0.31 1.76
-4.33 0.33 1.76
-4.13 0.40 1.78
-7.28 0.75 1.50
-7.82 0.92 1.44
-3.85 0.85 1.79
-3.89 0.90 1.78
-3.91 0.92 1.78
-1.84 -1.41 1.79
-1.80 -1.19 1.80
-2.12 -1.27 1.77
-6.97 0.03 1.49
-7.04 0.06 1.48
-10.66 0.12 1.14
-10.48 0.14 1.16
-4.34 0.07 1.73
-4.58 0.09 1.71
-7.31 0.16 1.46
-7.09 0.17 1.48
-7.42 0.27 1.44
-5.17 0.21 1.65
-7.36 0.31 1.45
-4.73 0.22 1.70
-7.41 0.34 1.44
-4.07 0.21 1.76
-4.47 0.24 1.72
-11.02 0.58 1.10
-4.63 0.27 1.70
-4.95 0.30 1.67
-4.32 0.28 1.73
-10.96 0.69 1.11
-4.94 0.34 1.67
-4.72 0.34 1.70
-11.22 0.79 1.08
-4.70 0.36 1.70
-5.29 0.42 1.64
-4.57 0.41 1.71
-4.46 0.41 1.72
-4.60 0.44 1.70
-4.57 0.45 1.71
-7.83 0.78 1.40
-4.18 0.45 1.74
-7.12 0.75 1.46
-7.18 0.77 1.46
-12.16 1.31 0.98
-7.39 0.83 1.44
-7.87 0.92 1.39
-7.60 0.91 1.42
-7.46 0.99 1.43
-7.32 0.99 1.44
-4.82 0.97 1.67
-3.95 0.82 1.75
-5.53 1.13 1.60
-4.51 1.19 1.69
-1.98 -1.58 1.75
-2.01 -1.58 1.75
-2.10 -1.58 1.74
-1.95 -1.52 1.75
-2.03 -1.52 1.75
-2.09 -1.53 1.74
-2.21 -1.56 1.73
-2.24 -1.56 1.73
-2.26 -1.54 1.72
-1.93 -1.39 1.76
-2.77 -1.63 1.68
-2.12 -1.35 1.74
-2.05 -1.31 1.75
-2.28 -1.36 1.72
-2.28 -1.34 1.72
-2.39 -1.24 1.72
-2.23 -1.07 1.73
-2.13 -1.02 1.74
-2.21 -0.94 1.73
-2.87 -0.65 1.67
-3.63 -0.70 1.60
-2.79 -0.50 1.68
-3.31 -0.51 1.63
-2.98 -0.45 1.66
-2.82 -0.41 1.68
-7.19 -0.01 1.47
-7.00 -0.00 1.22
-7.05 0.02 1.22
-6.94 0.05 1.23
-6.95 0.07 1.23
-3.03 0.05 1.62
-6.92 0.11 1.23
-6.86 0.13 1.24
-7.04 0.16 1.22
-6.84 0.18 1.24
-6.93 0.20 1.23
-7.43 0.21 1.40
-7.66 0.24 1.37
-7.52 0.27 1.39
-7.34 0.29 1.41
-7.36 0.30 1.40
-11.15 0.48 1.02
-7.46 0.35 1.39
-7.35 0.36 1.40
-3.95 0.21 1.74
-4.01 0.23 1.74
-4.15 0.25 1.72
-4.47 0.27 1.69
-4.33 0.28 1.70
-3.94 0.27 1.74
-4.26 0.30 1.71
-11.07 0.75 1.03
-4.79 0.35 1.66
-11.16 0.81 1.02
-4.37 0.35 1.70
-4.24 0.35 1.71
-4.32 0.37 1.70
-4.19 0.38 1.72
-4.45 0.41 1.69
-4.35 0.42 1.70
-4.03 0.40 1.73
-4.18 0.42 1.72
-4.01 0.42 1.73
-7.15 0.73 1.42
-7.26 0.78 1.40
-7.34 0.81 1.40
-7.43 0.83 1.39
-7.12 0.82 1.42
-7.21 0.85 1.41
-7.24 0.87 1.40
-7.11 0.87 1.42
-6.91 0.87 1.44
-7.33 0.94 1.39
-7.26 0.95 1.40
-7.48 0.99 1.38
-7.31 0.99 1.39
-7.15 0.99 1.41
-8.11 1.26 1.31
-8.19 1.31 1.30
-8.33 1.35 1.28
-8.11 1.36 1.31
-3.65 0.71 1.76
-3.86 0.77 1.74
-3.88 0.79 1.74
-3.87 0.80 1.74
-3.78 0.80 1.75
-4.31 0.94 1.69
-3.83 0.86 1.74
-4.82 1.08 1.64
-4.08 0.94 1.71
-3.62 0.86 1.76
-4.06 0.97 1.71
-3.92 0.97 1.73
-3.80 0.95 1.74
-4.04 1.04 1.71
-1.64 -1.48 1.76
-1.72 -1.49 1.75
-1.84 -1.51 1.74
-1.81 -1.47 1.74
-2.28 -1.60 1.69
-2.34 -1.60 1.69
-1.42 -1.29 1.78
-2.00 -1.46 1.72
-1.84 -1.29 1.74
-1.71 -1.23 1.75
-1.98 -1.29 1.73
-1.97 -1.25 1.73
-2.21 -1.28 1.70
-1.85 -1.16 1.74
-2.20 -1.23 1.71
-1.83 -1.10 1.74
-2.18 -1.16 1.71
-2.46 -1.17 1.68
-2.06 -1.05 1.72
-1.59 -0.91 1.77
-2.10 -0.93 1.72
-3.10 -1.07 1.62
-2.56 -0.91 1.67
-2.94 -0.96 1.63
-5.93 -0.85 1.34
-6.06 -0.62 1.32
-6.16 -0.56 1.31
-5.25 -0.17 1.40
-4.88 -0.14 1.44
-6.87 -0.14 1.24
-6.66 -0.11 1.26
-6.83 -0.09 1.24
-6.91 -0.07 1.23
-6.93 -0.05 1.23
-6.97 -0.02 1.23
-7.49 0.01 1.34
-7.32 0.03 1.36
-7.27 0.05 1.36
-4.24 0.04 1.69
-4.76 0.06 1.63
-7.35 0.10 1.36
-4.48 0.08 1.66
-4.34 0.09 1.68
-4.52 0.10 1.66
-7.26 0.17 1.36
-7.31 0.19 1.36
-4.10 0.12 1.70
-7.14 0.22 1.38
-7.34 0.25 1.35
-7.48 0.27 1.34
-7.47 0.29 1.34
-4.25 0.18 1.68
-7.38 0.32 1.35
-4.03 0.20 1.71
-4.02 0.21 1.71
-3.96 0.21 1.71
-4.52 0.25 1.65
-4.72 0.28 1.63
-4.16 0.26 1.69
-7.41 0.46 1.34
-7.43 0.48 1.34
-4.41 0.31 1.66
-7.47 0.52 1.33
-4.84 0.36 1.62
-5.01 0.38 1.60
-4.44 0.35 1.66
-4.38 0.36 1.66
-4.91 0.41 1.61
-4.91 0.43 1.61
-4.28 0.40 1.67
-5.16 0.49 1.58
-4.48 0.44 1.65
-4.47 0.45 1.65
-4.79 0.49 1.62
-6.96 0.71 1.39
-6.97 0.73 1.38
-7.08 0.76 1.37
-7.12 0.78 1.37
-7.20 0.81 1.36
-7.10 0.82 1.37
-6.92 0.82 1.39
-7.04 0.85 1.37
-7.11 0.87 1.37
-7.19 0.90 1.36
-6.94 0.89 1.38
-7.14 0.93 1.36
-7.32 0.97 1.34
-7.12 0.97 1.36
-7.03 0.97 1.37
-6.78 0.96 1.40
-7.57 1.12 1.31
-7.34 1.11 1.34
-7.98 1.26 1.26
-5.64 0.94 1.52
-4.43 0.86 1.65
-4.53 0.89 1.64
-3.67 0.78 1.73
-4.44 0.97 1.64
-5.23 1.15 1.55
-5.17 1.16 1.56
-5.41 1.23 1.53
-3.84 0.91 1.71
-4.13 0.99 1.67
-4.22 1.02 1.66
-3.86 0.95 1.70
-4.48 1.15 1.63
-3.94 1.07 1.69
-4.12 1.14 1.67
-1.93 -1.67 1.69
-2.33 -1.67 1.65
-2.39 -1.67 1.64
-2.46 -1.66 1.64
-2.36 -1.61 1.65
-2.31 -1.58 1.65
-2.31 -1.56 1.65
-2.57 -1.63 1.63
-2.32 -1.54 1.65
-2.56 -1.58 1.63
-2.49 -1.55 1.64
-2.35 -1.49 1.65
-2.60 -1.56 1.63
-2.12 -1.39 1.68
-2.24 -1.41 1.66
-1.80 -1.26 1.71
-2.62 -1.42 1.62
-2.17 -1.26 1.67
-2.87 -1.40 1.60
-2.25 -1.21 1.67
-2.43 -1.23 1.65
-2.98 -1.36 1.59
-3.39 -1.41 1.54
-3.23 -1.33 1.56
-3.08 -1.27 1.58
-2.80 -1.13 1.61
-2.80 -1.07 1.61
-2.94 -0.77 1.60
-2.79 -0.70 1.61
-2.79 -0.67 1.61
-3.83 -0.75 1.50
-2.84 -0.61 1.61
-2.86 -0.60 1.60
-5.97 -0.92 1.27
-2.72 -0.56 1.62
-2.98 -0.57 1.59
-2.90 -0.55 1.60
-3.04 -0.55 1.58
-2.66 -0.50 1.62
-3.30 -0.55 1.56
-3.07 -0.50 1.58
-3.04 -0.46 1.58
-5.55 -0.64 1.32
-5.63 -0.63 1.31
-5.78 -0.56 1.29
-2.97 -0.35 1.59
-2.84 -0.30 1.60
-3.01 -0.26 1.59
-7.94 -0.29 1.30
-8.10 -0.25 1.28
-10.59 -0.22 1.01
-10.58 -0.20 1.01
-6.54 -0.09 1.44
-10.69 -0.12 1.00
-4.35 -0.02 1.67
-7.10 0.02 1.09
-7.32 0.41 1.30
-3.60 0.30 1.72
-0.82 -0.64 1.80
-7.32 0.08 1.25
-7.15 0.13 1.27
-7.21 0.17 1.27
-7.22 0.23 1.26
-7.34 0.29 1.25
-7.84 0.36 1.19
-7.96 0.41 1.17
-7.89 0.46 1.18
-8.08 0.52 1.16
-7.67 0.51 1.20
-7.82 0.54 1.19
-8.15 0.60 1.15
-3.82 0.37 1.67
-3.50 0.38 1.70
-12.21 1.28 0.65
-3.55 0.42 1.70
-12.21 1.34 0.65
-6.56 0.81 1.33
-6.74 0.92 1.31
-7.31 1.07 1.23
-3.53 0.95 1.68
-3.65 0.99 1.66
-3.68 1.01 1.66
-3.57 0.99 1.67
-3.75 1.05 1.65
-1.40 -0.54 1.71
-7.31 0.10 1.20
-7.44 0.12 1.19
-7.47 0.16 1.18
-7.30 0.19 1.20
-7.54 0.22 1.17
-7.39 0.23 1.19
-7.51 0.25 1.18
-7.42 0.27 1.19
-7.34 0.28 1.20
-7.90 0.32 1.13
-7.65 0.33 1.16
-7.85 0.36 1.13
-7.56 0.37 1.17
-7.65 0.39 1.16
-7.81 0.42 1.14
-7.82 0.44 1.13
-7.86 0.46 1.13
-8.00 0.49 1.11
-8.19 0.52 1.09
-8.03 0.53 1.11
-8.06 0.55 1.10
-7.71 0.55 1.15
-6.69 0.52 1.27
-6.63 0.53 1.28
-6.49 0.53 1.30
-6.43 0.55 1.31
-6.34 0.55 1.32
-6.43 0.58 1.31
-6.40 0.59 1.31
-6.49 0.62 1.30
-6.45 0.63 1.30
-6.54 0.66 1.29
-6.32 0.65 1.32
-6.50 0.68 1.30
-6.53 0.70 1.29
-6.81 0.75 1.25
-6.81 0.77 1.25
-6.84 0.79 1.25
-3.68 0.46 1.65
-6.95 0.84 1.23
-6.47 0.80 1.30
-6.67 0.84 1.27
-6.74 0.86 1.26
-6.71 0.88 1.26
-6.74 0.90 1.26
-6.65 0.91 1.27
-6.80 0.94 1.25
-6.73 0.95 1.26
-6.86 0.98 1.24
-6.83 1.00 1.24
-6.86 1.02 1.24
-6.82 1.03 1.24
-3.70 0.74 1.64
-3.37 0.75 1.68
-3.63 0.82 1.65
-3.65 0.97 1.64
-3.84 1.03 1.61
-3.79 1.03 1.62
-3.43 1.02 1.66
-3.49 1.06 1.65
-1.67 -1.26 1.64
-1.69 -1.22 1.64
-1.73 -0.85 1.64
-2.81 -0.94 1.50
-5.92 -1.06 1.11
-5.95 -1.04 1.10
-5.93 -1.00 1.11
-6.08 -0.99 1.09
-6.26 -0.97 1.06
-6.58 -0.92 1.02
-6.24 -0.86 1.07
-6.03 -0.82 1.09
-5.50 -0.70 1.16
-5.50 -0.68 1.16
-5.16 -0.63 1.20
-5.36 -0.63 1.18
-5.40 -0.57 1.17
-4.93 -0.34 1.23
-5.01 -0.31 1.22
-4.97 -0.25 1.22
-2.75 -0.14 1.51
-6.61 -0.07 1.02
-7.40 0.04 1.14
-3.99 0.05 1.59
-7.20 0.10 1.16
-7.26 0.12 1.15
-7.18 0.13 1.16
-4.22 0.09 1.56
-4.35 0.11 1.54
-7.52 0.20 1.12
-7.37 0.21 1.14
-4.40 0.14 1.54
-4.38 0.15 1.54
-7.69 0.28 1.09
-7.69 0.30 1.09
-4.32 0.19 1.55
-7.86 0.34 1.07
-7.91 0.36 1.06
-7.70 0.37 1.09
-7.58 0.39 1.11
-7.60 0.41 1.10
-7.57 0.43 1.11
-7.89 0.46 1.06
-7.76 0.47 1.08
-7.64 0.49 1.10
-7.85 0.52 1.07
-7.64 0.53 1.10
-7.54 0.54 1.11
-7.15 0.53 1.16
-6.66 0.51 1.23
-6.56 0.52 1.24
-6.41 0.53 1.26
-6.43 0.55 1.26
-6.30 0.55 1.27
-6.33 0.57 1.27
-6.63 0.61 1.23
-6.83 0.65 1.20
-6.47 0.63 1.25
-6.56 0.66 1.24
-6.41 0.66 1.26
-6.38 0.67 1.26
-6.52 0.70 1.24
-6.54 0.72 1.24
-6.68 0.75 1.22
-6.49 0.75 1.24
-6.78 0.80 1.20
-6.83 0.82 1.20
-6.48 0.80 1.24
-6.14 0.78 1.29
-6.55 0.84 1.23
-6.53 0.86 1.23
-6.61 0.88 1.22
-6.59 0.90 1.23
-6.62 0.92 1.22
-6.72 0.95 1.21
-6.67 0.96 1.21
-6.80 0.99 1.19
-6.78 1.01 1.20
-6.81 1.03 1.19
-6.80 1.05 1.19
-6.82 1.07 1.19
-3.86 0.76 1.59
-3.69 0.80 1.61
-3.69 0.91 1.60
-4.15 1.02 1.54
-4.11 1.03 1.54
-4.33 1.09 1.51
-3.69 1.04 1.60
-1.83 -1.22 1.59
-1.98 -1.18 1.57
-1.97 -0.99 1.57
-2.06 -0.91 1.56
-3.13 -0.62 1.42
-6.23 -0.93 1.00
-6.07 -0.87 1.02
-5.99 -0.84 1.03
-6.52 -0.87 0.96
-6.48 -0.82 0.97
-6.60 -0.81 0.95
-6.73 -0.80 0.94
-5.70 -0.67 1.07
-6.10 -0.69 1.02
-5.31 -0.61 1.13
-5.54 -0.60 1.10
-5.35 -0.57 1.12
-5.30 -0.55 1.13
-5.39 -0.54 1.11
-2.81 -0.22 1.46
-2.86 -0.21 1.45
-2.64 -0.19 1.48
-4.98 -0.26 1.17
-8.02 -0.31 0.76
-2.28 -0.10 1.53
-7.92 -0.11 1.07
-7.87 -0.07 1.07
-3.00 -0.00 1.39
-2.99 0.01 1.39
-3.06 0.02 1.38
-3.02 0.04 1.39
-3.05 0.05 1.38
-3.31 0.07 1.35
-3.15 0.08 1.37
-3.22 0.09 1.36
-3.08 0.11 1.38
-3.38 0.13 1.34
-3.27 0.14 1.35
-7.44 0.21 1.07
-7.43 0.23 1.07
-7.51 0.25 1.06
-7.46 0.27 1.07
-7.84 0.30 1.01
-7.81 0.32 1.02
-8.02 0.35 0.99
-7.90 0.36 1.01
-7.81 0.38 1.02
-7.59 0.39 1.05
-7.87 0.42 1.01
-7.78 0.44 1.02
-8.19 0.48 0.96
-7.65 0.47 1.04
-8.03 0.51 0.98
-7.72 0.51 1.03
-7.45 0.51 1.07
-7.31 0.52 1.09
-7.49 0.55 1.06
-7.72 0.59 1.03
-6.77 0.54 1.16
-6.64 0.54 1.18
-6.91 0.58 1.14
-6.70 0.58 1.17
-6.60 0.59 1.18
-6.44 0.59 1.21
-6.59 0.62 1.18
-6.51 0.63 1.19
-6.51 0.65 1.19
-6.72 0.69 1.16
-6.57 0.69 1.19
-6.83 0.73 1.15
-7.14 0.78 1.10
-6.92 0.78 1.13
-6.60 0.76 1.18
-6.86 0.81 1.14
-6.62 0.80 1.17
-6.45 0.79 1.20
-6.50 0.82 1.19
-6.41 0.82 1.20
-6.49 0.85 1.19
-6.48 0.87 1.19
-6.69 0.91 1.16
-6.63 0.92 1.17
-6.57 0.93 1.18
-6.64 0.95 1.17
-6.69 0.98 1.16
-6.67 0.99 1.16
-6.74 1.02 1.15
-6.77 1.04 1.15
-6.78 1.06 1.14
-6.72 1.09 1.15
-3.69 0.74 1.58
-3.59 0.91 1.59
-3.73 0.96 1.57
-3.93 1.02 1.54
-3.80 1.00 1.56
-3.55 1.02 1.59
-1.50 -1.15 1.60
-1.48 -0.79 1.61
-5.96 -0.88 0.98
-6.25 -0.84 0.94
-5.44 -0.52 1.05
-5.41 -0.50 1.06
-5.52 -0.48 1.04
-5.45 -0.46 1.05
-5.23 -0.43 1.08
-5.04 -0.40 1.11
-2.77 -0.26 1.43
-7.50 -0.46 0.76
-7.56 -0.44 0.75
-4.98 -0.31 1.12
-5.18 -0.28 1.09
-2.98 -0.19 1.40
-5.23 -0.19 1.08
-5.51 -0.18 1.04
-5.29 -0.15 1.07
-2.80 -0.05 1.42
-3.01 -0.04 1.39
-2.91 -0.03 1.40
-2.96 -0.02 1.40
-7.27 0.01 1.04
-7.09 0.04 1.06
-7.18 0.08 1.05
-7.66 0.10 0.98
-7.75 0.12 0.97
-7.77 0.16 0.96
-7.75 0.20 0.96
-7.61 0.24 0.98
-7.67 0.26 0.97
-8.01 0.29 0.92
-7.85 0.32 0.95
-7.81 0.36 0.95
-7.59 0.39 0.98
-7.65 0.41 0.98
-7.35 0.41 1.02
-5.43 0.34 1.30
-7.55 0.50 0.99
-7.24 0.52 1.03
-6.88 0.51 1.09
-6.86 0.53 1.09
-7.18 0.59 1.04
-6.95 0.60 1.07
-6.53 0.60 1.14
-6.59 0.63 1.13
-6.69 0.65 1.11
-6.68 0.68 1.11
-6.58 0.71 1.13
-6.53 0.74 1.13
-6.47 0.75 1.14
-6.55 0.77 1.13
-6.70 0.82 1.11
-6.64 0.85 1.11
-6.46 0.86 1.14
-6.40 0.87 1.15
-6.23 0.87 1.17
-6.50 0.94 1.13
-6.59 0.98 1.12
-6.79 1.05 1.08
-6.67 1.05 1.10
-6.65 1.06 1.10
-6.80 1.12 1.08
-1.67 -1.66 1.53
-1.54 -1.60 1.55
-1.48 -1.56 1.56
-1.88 -1.64 1.50
-1.67 -1.52 1.53
-2.04 -1.23 1.49
-2.38 -1.31 1.44
-2.20 -1.25 1.46
-2.26 -1.25 1.45
-2.42 -1.28 1.43
-2.36 -1.25 1.44
-2.20 -1.20 1.46
-2.74 -1.32 1.38
-2.74 -1.31 1.38
-2.27 -1.18 1.45
-2.44 -1.15 1.43
-2.76 -1.21 1.38
-1.82 -0.69 1.53
-2.11 -0.62 1.48
-2.86 -0.62 1.37
-5.83 -0.79 0.93
-6.29 -0.81 0.86
-6.15 -0.77 0.88
-5.74 -0.72 0.94
-5.90 -0.71 0.92
-2.53 -0.42 1.42
-2.64 -0.39 1.40
-5.89 -0.59 0.92
-5.81 -0.56 0.93
-5.89 -0.55 0.92
-5.90 -0.53 0.92
-5.43 -0.48 0.99
-2.96 -0.32 1.36
-3.00 -0.31 1.35
-2.80 -0.29 1.38
-2.92 -0.28 1.36
-3.26 -0.28 1.31
-4.95 -0.34 1.06
-3.07 -0.25 1.34
-3.21 -0.24 1.32
-3.49 -0.24 1.27
-7.57 -0.26 1.00
-7.41 -0.22 1.02
-7.30 -0.19 1.04
-7.51 -0.18 1.01
-7.14 -0.14 1.06
-7.34 -0.05 1.03
-2.93 -0.00 1.32
-2.86 0.02 1.33
-3.10 0.04 1.29
-3.00 0.06 1.31
-3.05 0.08 1.30
-3.20 0.09 1.28
-7.65 0.22 0.58
-3.15 0.15 1.28
-5.43 0.23 0.93
-3.33 0.18 1.25
-3.19 0.19 1.27
-5.51 0.29 0.91
-3.02 0.21 1.30
-3.06 0.23 1.29
-7.67 0.54 0.91
-7.81 0.59 0.89
-3.69 0.32 1.54
-3.59 0.32 1.55
-3.38 0.31 1.58
-6.77 0.64 1.05
-6.68 0.65 1.06
-6.74 0.69 1.05
-6.63 0.69 1.07
-6.59 0.71 1.08
-6.60 0.73 1.08
-6.58 0.74 1.08
-6.71 0.77 1.06
-6.59 0.78 1.08
-6.57 0.81 1.08
-6.57 0.82 1.08
-6.32 0.83 1.12
-6.70 1.03 1.05
-0.99 -1.17 1.62
-0.68 -1.04 1.67
-0.86 -1.04 1.64
-1.57 -1.12 1.53
-1.54 -1.08 1.54
-1.48 -1.05 1.55
-1.58 -1.07 1.53
-1.55 -1.05 1.54
-1.55 -1.03 1.54
-5.70 -0.50 0.89
-2.68 -0.09 1.36
-2.86 -0.06 1.33
-2.86 -0.02 1.33
-6.57 0.04 1.03
-3.65 0.03 1.51
-8.89 0.12 0.65
-9.16 0.14 0.61
-8.35 0.17 0.74
-8.74 0.20 0.68
-8.79 0.25 0.67
-3.81 0.13 1.48
-8.05 0.27 0.79
-7.95 0.28 0.80
-4.05 0.16 1.44
-4.67 0.20 1.34
-4.81 0.22 1.32
-4.29 0.21 1.40
-3.74 0.19 1.49
-7.40 0.38 0.89
-7.37 0.40 0.90
-7.26 0.41 0.91
-7.32 0.43 0.90
-7.01 0.45 0.95
-7.47 0.49 0.88
-7.36 0.51 0.89
-7.79 0.55 0.82
-7.89 0.58 0.81
-7.30 0.56 0.90
-7.90 0.62 0.81
-7.75 0.63 0.83
-6.92 0.58 0.97
-7.34 0.64 0.89
-6.69 0.60 1.00
-6.87 0.63 0.97
-6.88 0.65 0.97
-6.75 0.66 0.99
-6.75 0.67 0.99
-6.50 0.67 1.03
-6.54 0.69 1.02
-6.59 0.71 1.01
-6.51 0.72 1.03
-6.51 0.73 1.03
-6.46 0.75 1.04
-6.48 0.77 1.03
-6.41 0.77 1.04
-6.71 0.83 0.99
-6.67 0.84 1.00
-6.45 0.83 1.03
-6.41 0.84 1.04
-6.51 0.87 1.02
-6.51 0.94 1.02
-6.75 0.99 0.98
-6.45 0.96 1.03
-6.50 0.99 1.02
-3.69 0.80 1.48
-3.86 0.90 1.45
-1.46 -1.35 1.50
-1.80 -1.19 1.45
-5.50 -0.72 0.85
-5.85 -0.61 0.80
-2.77 -0.36 1.30
-2.67 -0.34 1.32
-2.52 -0.32 1.34
-2.77 -0.31 1.30
-7.31 -0.42 0.92
-8.15 -0.42 0.78
-6.04 -0.26 1.12
-7.63 -0.30 0.86
-3.00 -0.00 1.22
-3.04 0.01 1.21
-3.72 0.03 1.47
-3.69 0.04 1.48
-3.74 0.05 1.47
-3.67 0.06 1.48
-3.75 0.07 1.46
-3.63 0.08 1.49
-3.75 0.09 1.46
-3.85 0.11 1.45
-3.87 0.12 1.44
-4.08 0.13 1.41
-4.01 0.14 1.42
-4.09 0.15 1.41
-4.11 0.17 1.40
-4.32 0.18 1.36
-4.71 0.21 1.30
-4.43 0.21 1.34
-3.98 0.20 1.42
-4.40 0.23 1.35
-4.34 0.24 1.36
-4.07 0.24 1.41
-4.05 0.25 1.41
-4.30 0.27 1.37
-4.38 0.29 1.35
-4.55 0.31 1.32
-6.58 0.45 0.97
-6.82 0.49 0.93
-4.83 0.37 1.27
-6.69 0.51 0.95
-6.54 0.52 0.97
-7.69 0.62 0.78
-7.54 0.63 0.80
-6.92 0.60 0.91
-3.83 0.36 1.44
-6.67 0.61 0.95
-6.83 0.65 0.92
-6.86 0.67 0.92
-6.69 0.67 0.95
-6.53 0.67 0.97
-6.42 0.67 0.99
-6.60 0.71 0.96
-6.17 0.68 1.03
-6.37 0.72 1.00
-6.41 0.74 0.99
-6.43 0.76 0.99
-6.41 0.77 0.99
-6.52 0.80 0.97
-6.34 0.80 1.00
-6.23 0.80 1.02
-6.10 0.80 1.04
-6.28 0.84 1.01
-6.16 0.84 1.03
-6.75 0.93 0.93
-6.69 0.94 0.94
-6.24 0.90 1.01
-6.42 0.94 0.98
-6.30 0.94 1.00
-6.26 0.95 1.01
-6.26 0.97 1.01
-3.61 0.77 1.46
-3.79 0.81 1.43
-3.62 0.79 1.46
-3.62 0.81 1.46
-3.46 0.79 1.49
-3.71 0.85 1.44
-3.33 0.79 1.51
-3.58 0.87 1.46
-3.50 0.90 1.47
-3.66 0.94 1.44
-3.53 0.94 1.47
-0.30 -1.37 1.66
-1.33 -1.56 1.49
-1.33 -1.49 1.49
-1.10 -1.34 1.53
-0.82 -1.20 1.59
-1.48 -1.29 1.47
-1.26 -1.18 1.51
-1.70 -1.30 1.43
-1.70 -1.15 1.44
-1.85 -1.06 1.41
-2.65 -0.40 1.28
-2.37 -0.37 1.33
-2.62 -0.38 1.29
-2.48 -0.35 1.31
-2.50 -0.34 1.31
-2.67 -0.34 1.28
-2.63 -0.33 1.28
-2.66 -0.32 1.28
-2.49 -0.29 1.31
-2.63 -0.29 1.28
-2.58 -0.28 1.29
-2.70 -0.27 1.27
-2.64 -0.25 1.28
-2.64 -0.24 1.28
-2.45 -0.22 1.31
-2.78 -0.22 1.26
-2.79 -0.21 1.25
-2.75 -0.19 1.26
-2.80 -0.18 1.25
-2.79 -0.17 1.26
-2.81 -0.16 1.25
-2.92 -0.15 1.23
-2.94 -0.14 1.23
-2.89 -0.12 1.24
-2.90 -0.11 1.23
-2.90 -0.10 1.23
-2.97 -0.08 1.22
-2.95 -0.07 1.23
-2.98 -0.06 1.22
-2.96 -0.04 1.22
-2.97 -0.03 1.22
-3.03 -0.02 1.21
-3.96 0.00 1.39
-4.05 0.01 1.38
-4.11 0.03 1.37
-3.87 0.03 1.41
-4.00 0.05 1.39
-4.07 0.06 1.37
-4.00 0.07 1.39
-3.98 0.08 1.39
-4.01 0.09 1.38
-4.11 0.10 1.36
-4.00 0.11 1.38
-4.39 0.13 1.31
-4.28 0.14 1.33
-4.61 0.16 1.27
-7.71 0.28 0.71
-7.77 0.30 0.70
-7.27 0.30 0.79
-7.55 0.33 0.74
-6.87 0.32 0.86
-7.01 0.34 0.84
-6.80 0.35 0.87
-7.20 0.39 0.80
-7.03 0.39 0.83
-6.49 0.38 0.93
-6.60 0.41 0.91
-6.57 0.42 0.92
-6.56 0.44 0.92
-6.69 0.46 0.89
-6.67 0.48 0.90
-6.71 0.50 0.89
-6.61 0.51 0.91
-6.82 0.54 0.87
-6.82 0.56 0.87
-7.24 0.61 0.79
-7.06 0.61 0.82
-6.73 0.60 0.88
-6.98 0.64 0.83
-6.87 0.65 0.86
-6.90 0.67 0.85
-6.63 0.66 0.90
-6.49 0.67 0.92
-6.61 0.69 0.90
-6.31 0.68 0.95
-6.31 0.70 0.95
-6.39 0.72 0.94
-6.34 0.73 0.95
-6.33 0.75 0.95
-6.37 0.77 0.94
-6.33 0.78 0.95
-6.22 0.78 0.97
-6.44 0.83 0.93
-6.71 0.87 0.88
-6.54 0.87 0.91
-6.61 0.90 0.89
-6.59 0.91 0.90
-6.54 0.92 0.90
-1.99 -1.44 1.34
-2.08 -1.46 1.33
-2.09 -1.11 1.33
-1.91 -1.04 1.37
-2.16 -1.09 1.32
-2.41 -1.13 1.27
-2.99 -1.21 1.17
-2.43 -1.01 1.27
-2.80 -1.02 1.21
-3.50 -1.04 1.08
-1.81 -0.51 1.39
-2.47 -0.55 1.27
-2.86 -0.51 1.20
-3.08 -0.49 1.16
-3.09 -0.45 1.16
-2.78 -0.41 1.21
-2.99 -0.42 1.18
-2.83 -0.39 1.20
-2.84 -0.38 1.20
-2.83 -0.37 1.20
-2.70 -0.35 1.23
-2.91 -0.35 1.19
-2.88 -0.33 1.19
-3.03 -0.33 1.17
-3.04 -0.31 1.16
-2.92 -0.29 1.19
-2.80 -0.27 1.21
-2.86 -0.26 1.20
-2.92 -0.25 1.19
-2.91 -0.24 1.19
-3.11 -0.24 1.15
-2.86 -0.21 1.20
-2.86 -0.20 1.20
-3.13 -0.20 1.15
-2.91 -0.18 1.19
-2.97 -0.16 1.18
-3.07 -0.15 1.16
-4.86 -0.18 0.84
-3.05 -0.13 1.16
-3.03 -0.11 1.17
-4.08 -0.06 1.37
-6.18 -0.07 0.99
-6.28 -0.06 0.98
-6.16 -0.04 1.00
-3.90 -0.02 1.41
-4.04 -0.01 1.38
-2.98 -0.00 1.13
-2.97 0.01 1.13
-3.06 0.02 1.11
-3.01 0.04 1.12
-3.00 0.05 1.12
-2.93 0.06 1.13
-2.83 0.07 1.15
-2.81 0.09 1.16
-2.88 0.10 1.14
-2.80 0.11 1.16
-2.87 0.13 1.14
-4.10 0.12 1.33
-4.07 0.13 1.33
-3.94 0.14 1.36
-4.02 0.15 1.34
-3.92 0.16 1.36
-3.93 0.17 1.36
-4.17 0.19 1.31
-4.12 0.20 1.32
-4.13 0.21 1.32
-4.30 0.23 1.29
-4.22 0.23 1.30
-4.24 0.25 1.30
-4.27 0.26 1.29
-6.19 0.38 0.93
-4.01 0.27 1.34
-6.63 0.44 0.84
-6.63 0.46 0.84
-6.75 0.48 0.82
-7.36 0.54 0.70
-7.07 0.54 0.76
-6.80 0.54 0.81
-6.61 0.54 0.84
-6.47 0.55 0.87
-6.41 0.56 0.88
-6.51 0.58 0.86
-6.45 0.59 0.87
-6.40 0.61 0.88
-6.47 0.63 0.87
-4.64 0.47 1.22
-6.68 0.68 0.83
-6.47 0.68 0.87
-6.51 0.70 0.86
-6.21 0.68 0.92
-6.36 0.72 0.89
-6.18 0.71 0.92
-6.36 0.75 0.89
-6.31 0.76 0.89
-6.26 0.77 0.90
-6.68 0.84 0.82
-6.49 0.83 0.86
-6.61 0.86 0.83
-6.54 0.87 0.85
-3.76 0.54 1.38
-6.53 0.90 0.85
-3.53 0.64 1.41
-3.68 0.70 1.38
-3.73 0.73 1.37
-3.60 0.73 1.40
-3.97 0.81 1.32
-3.60 0.75 1.40
-3.59 0.77 1.40
-3.67 0.80 1.38
-3.59 0.79 1.39
-3.66 0.82 1.38
-3.68 0.84 1.38
-3.56 0.84 1.40
-1.57 -1.38 1.38
-1.59 -1.36 1.38
-1.56 -1.29 1.39
-1.27 -1.19 1.44
-1.80 -1.35 1.34
-1.71 -1.31 1.36
-1.33 -1.17 1.43
-1.62 -1.17 1.38
-1.75 -1.17 1.35
-1.74 -1.13 1.36
-1.61 -1.09 1.38
-1.80 -1.13 1.35
-1.80 -1.12 1.35
-1.61 -1.00 1.39
-1.78 -0.98 1.35
-2.20 -0.96 1.27
-1.66 -0.80 1.38
-1.84 -0.82 1.34
-1.73 -0.71 1.37
-2.06 -0.75 1.30
-1.92 -0.52 1.33
-2.57 -0.39 1.21
-2.61 -0.38 1.20
-2.76 -0.37 1.17
-2.71 -0.36 1.18
-2.77 -0.35 1.17
-2.72 -0.33 1.18
-2.73 -0.32 1.18
-2.75 -0.31 1.17
-2.69 -0.29 1.19
-2.70 -0.28 1.18
-2.69 -0.27 1.18
-2.62 -0.25 1.20
-2.77 -0.25 1.17
-2.91 -0.24 1.14
-2.69 -0.22 1.18
-2.83 -0.21 1.16
-2.78 -0.20 1.17
-2.78 -0.18 1.17
-2.88 -0.17 1.15
-2.69 -0.16 1.18
-5.55 -0.22 0.64
-2.78 -0.13 1.17
-2.76 -0.12 1.17
-2.83 -0.11 1.16
-2.93 -0.10 1.14
-2.84 -0.08 1.15
-3.00 -0.07 1.12
-3.03 -0.06 1.12
-2.97 -0.04 1.13
-2.97 -0.03 1.13
-2.94 -0.02 1.13
-3.89 0.00 1.33
-3.89 0.01 1.33
-3.94 0.02 1.32
-3.97 0.03 1.31
-6.84 0.07 0.75
-7.19 0.09 0.68
-5.92 0.09 0.93
-4.65 0.09 1.18
-6.16 0.13 0.88
-4.31 0.10 1.24
-6.04 0.16 0.90
-4.45 0.13 1.22
-4.38 0.14 1.23
-6.42 0.22 0.83
-6.30 0.23 0.85
-6.15 0.24 0.88
-6.37 0.26 0.83
-6.56 0.29 0.80
-6.52 0.30 0.80
-6.38 0.31 0.83
-6.45 0.33 0.82
-6.47 0.35 0.81
-6.40 0.36 0.83
-6.25 0.37 0.86
-6.42 0.39 0.82
-6.44 0.41 0.82
-6.36 0.42 0.83
-6.54 0.45 0.80
-6.78 0.48 0.75
-6.55 0.49 0.79
-6.46 0.50 0.81
-6.51 0.52 0.80
-6.45 0.53 0.81
-6.50 0.55 0.80
-6.42 0.56 0.82
-6.49 0.58 0.80
-6.50 0.60 0.80
-6.44 0.61 0.81
-6.41 0.62 0.82
-6.55 0.65 0.79
-6.50 0.66 0.80
-6.47 0.68 0.80
-6.34 0.68 0.83
-6.27 0.69 0.84
-6.44 0.73 0.81
-6.50 0.75 0.79
-6.48 0.76 0.80
-6.51 0.78 0.79
-6.55 0.81 0.78
-6.60 0.83 0.77
-6.57 0.84 0.78
-6.39 0.85 0.81
-2.27 -1.34 1.21
-2.50 -1.33 1.16
-2.25 -1.25 1.21
-2.18 -1.14 1.23
-2.23 -1.08 1.22
-2.48 -1.12 1.17
-1.99 -0.95 1.27
-2.42 -1.00 1.18
-2.75 -1.03 1.12
-2.46 -0.96 1.18
-2.96 -0.99 1.08
-2.73 -0.46 1.13
-2.63 -0.44 1.15
-2.98 -0.46 1.08
-3.04 -0.44 1.07
-2.89 -0.40 1.10
-3.07 -0.40 1.06
-2.76 -0.36 1.12
-2.69 -0.35 1.13
-2.82 -0.34 1.11
-2.81 -0.33 1.11
-2.79 -0.31 1.11
-2.77 -0.30 1.12
-2.97 -0.30 1.08
-2.90 -0.28 1.09
-3.11 -0.28 1.05
-3.18 -0.27 1.04
-3.05 -0.25 1.06
-4.90 -0.31 0.70
-3.00 -0.22 1.07
-5.81 -0.22 0.95
-6.17 -0.22 0.88
-6.15 -0.18 0.89
-6.30 -0.17 0.86
-7.04 -0.17 0.71
-5.83 -0.13 0.95
-6.01 -0.12 0.91
-6.12 -0.10 0.89
-6.02 -0.09 0.91
-5.68 -0.07 0.98
-3.73 -0.02 1.36
-3.83 -0.01 1.34
-2.63 -0.01 1.10
-2.70 0.01 1.09
-2.82 0.02 1.06
-2.67 0.03 1.09
-2.83 0.05 1.06
-2.71 0.06 1.09
-2.81 0.07 1.06
-2.64 0.10 1.10
-2.86 0.11 1.05
-5.53 0.19 0.50
-2.45 0.13 1.14
-2.87 0.15 1.05
-5.29 0.24 0.55
-2.56 0.17 1.11
-2.84 0.19 1.05
-2.65 0.20 1.09
-5.16 0.31 0.58
-2.88 0.23 1.05
-4.44 0.23 1.18
-4.79 0.26 1.11
-6.36 0.36 0.78
-4.59 0.28 1.15
-4.70 0.29 1.13
-6.32 0.40 0.79
-6.33 0.42 0.79
-4.47 0.32 1.17
-4.66 0.34 1.13
-4.26 0.33 1.21
-4.42 0.35 1.18
-4.55 0.37 1.15
-4.62 0.39 1.14
-4.78 0.41 1.11
-6.36 0.55 0.78
-6.42 0.57 0.76
-6.37 0.58 0.77
-6.42 0.61 0.76
-4.69 0.47 1.12
-4.68 0.48 1.12
-4.31 0.45 1.20
-4.60 0.49 1.14
-4.61 0.51 1.14
-4.71 0.53 1.12
-4.65 0.54 1.13
-6.48 0.74 0.75
-6.39 0.75 0.76
-6.57 0.79 0.73
-5.67 0.80 0.91
-3.32 0.55 1.39
-3.44 0.71 1.36
-3.31 0.70 1.39
-3.63 0.77 1.32
-3.43 0.74 1.36
-3.53 0.77 1.34
-3.54 0.78 1.34
-3.68 0.82 1.31
-3.60 0.81 1.32
-3.50 0.82 1.34
-1.58 -1.25 1.31
-1.14 -1.08 1.41
-1.16 -1.05 1.40
-1.47 -1.09 1.34
-1.43 -1.04 1.35
-1.60 -1.04 1.32
-1.94 -1.07 1.24
-1.64 -0.95 1.31
-1.99 -0.90 1.24
-1.84 -0.82 1.27
-1.93 -0.82 1.25
-1.02 -0.54 1.44
-2.48 -0.37 1.14
-2.46 -0.35 1.14
-2.71 -0.33 1.09
-2.60 -0.31 1.12
-2.76 -0.31 1.08
-2.66 -0.29 1.10
-2.84 -0.29 1.07
-2.93 -0.25 1.05
-4.84 -0.32 0.65
-2.71 -0.22 1.09
-5.05 -0.30 0.61
-4.81 -0.27 0.66
-5.05 -0.26 0.61
-4.69 -0.23 0.68
-2.56 -0.12 1.12
-2.73 -0.11 1.08
-2.44 -0.09 1.15
-2.60 -0.08 1.11
-2.60 -0.07 1.11
-2.75 -0.06 1.08
-2.83 -0.03 1.06
-2.73 -0.02 1.08
-6.37 0.00 0.72
-3.61 0.01 1.31
-3.99 0.02 1.23
-4.15 0.04 1.20
-4.04 0.05 1.22
-4.10 0.06 1.20
-4.15 0.07 1.19
-6.12 0.11 0.77
-4.69 0.10 1.08
-6.28 0.15 0.73
-4.40 0.12 1.14
-4.41 0.13 1.14
-4.45 0.14 1.13
-6.00 0.20 0.79
-4.49 0.17 1.12
-4.50 0.18 1.12
-6.35 0.26 0.72
-6.23 0.27 0.74
-6.23 0.29 0.74
-6.29 0.31 0.73
-6.21 0.32 0.74
-6.22 0.34 0.74
-6.21 0.35 0.74
-6.27 0.37 0.73
-6.27 0.39 0.73
-6.29 0.40 0.72
-6.27 0.42 0.73
-6.30 0.44 0.72
-6.45 0.46 0.69
-6.37 0.47 0.71
-6.36 0.49 0.71
-6.46 0.51 0.69
-6.50 0.53 0.68
-6.34 0.54 0.71
-6.39 0.56 0.70
-6.34 0.57 0.71
-6.32 0.58 0.71
-6.30 0.60 0.72
-6.33 0.62 0.71
-6.27 0.63 0.72
-6.30 0.65 0.72
-6.29 0.66 0.72
-6.42 0.69 0.69
-6.40 0.70 0.69
-6.26 0.71 0.72
-6.29 0.73 0.71
-6.25 0.74 0.72
-2.02 -1.18 1.17
-2.23 -1.21 1.13
-2.33 -1.23 1.11
-2.50 -1.26 1.07
-2.20 -1.17 1.14
-2.42 -1.21 1.09
-2.38 -1.19 1.10
-2.43 -1.19 1.09
-2.11 -1.10 1.16
-2.31 -1.14 1.11
-2.28 -1.12 1.12
-2.46 -1.15 1.08
-2.59 -1.14 1.05
-2.52 -1.11 1.07
-2.48 -1.09 1.08
-2.76 -1.12 1.02
-2.29 -1.01 1.12
-2.72 -1.09 1.03
-2.78 -1.09 1.01
-2.84 -1.09 1.00
-2.78 -1.06 1.01
-2.26 -0.94 1.13
-2.14 -0.89 1.16
-2.27 -0.90 1.13
-2.40 -0.92 1.10
-2.76 -0.97 1.02
-2.82 -0.96 1.01
-2.23 -0.85 1.14
-2.69 -0.85 1.04
-3.64 -0.87 0.83
-3.71 -0.87 0.82
-3.77 -0.86 0.80
-3.66 -0.81 0.83
-3.65 -0.78 0.83
-3.61 -0.76 0.84
-1.89 -0.49 1.21
-1.93 -0.48 1.20
-1.92 -0.47 1.21
-2.04 -0.47 1.18
-1.93 -0.45 1.20
-3.07 -0.45 0.96
-2.80 -0.41 1.02
-5.75 -0.26 0.86
-3.74 -0.16 1.29
-6.92 -0.26 0.60
-3.66 -0.13 1.30
-3.81 -0.13 1.27
-3.62 -0.11 1.31
-3.59 -0.10 1.32
-3.90 -0.10 1.25
-3.68 -0.09 1.30
-3.48 -0.07 1.34
-3.62 -0.06 1.31
-3.70 -0.06 1.29
-3.61 -0.05 1.31
-3.69 -0.04 1.30
-3.82 -0.03 1.27
-3.76 -0.02 1.28
-3.71 -0.01 1.29
-2.54 -0.01 1.02
-2.90 0.01 0.94
-4.01 0.03 1.19
-4.03 0.04 1.18
-4.12 0.06 1.16
-4.23 0.07 1.14
-4.35 0.08 1.11
-4.21 0.09 1.14
-4.31 0.10 1.12
-4.19 0.11 1.14
-4.16 0.12 1.15
-4.07 0.13 1.17
-4.23 0.15 1.13
-4.18 0.16 1.14
-4.29 0.17 1.12
-4.40 0.19 1.09
-4.34 0.19 1.11
-4.44 0.21 1.08
-4.57 0.23 1.06
-4.46 0.23 1.08
-4.58 0.25 1.05
-4.54 0.26 1.06
-4.52 0.27 1.06
-4.48 0.28 1.07
-4.53 0.30 1.06
-6.36 0.42 0.65
-4.52 0.32 1.06
-4.45 0.33 1.08
-4.69 0.36 1.02
-4.45 0.35 1.08
-4.75 0.38 1.01
-4.60 0.39 1.04
-6.24 0.53 0.67
-6.04 0.53 0.71
-6.22 0.56 0.67
-6.43 0.59 0.62
-6.25 0.59 0.67
-6.02 0.59 0.72
-6.20 0.62 0.68
-6.08 0.62 0.70
-6.06 0.65 0.71
-2.24 -0.99 1.09
-1.90 -0.88 1.17
-3.15 -1.02 0.88
-3.06 -0.98 0.90
-3.34 -1.00 0.84
-3.30 -0.98 0.85
-3.41 -0.97 0.83
-3.23 -0.92 0.87
-3.14 -0.88 0.89
-2.51 -0.42 1.03
-2.45 -0.39 1.04
-2.98 -0.35 0.92
-2.78 -0.31 0.97
-2.82 -0.28 0.96
-2.90 -0.25 0.94
-2.62 -0.23 1.01
-2.87 -0.21 0.95
-3.10 -0.21 0.90
-2.80 -0.15 0.96
-2.50 -0.13 1.03
-2.55 -0.10 1.02
-2.50 -0.09 1.03
-6.57 0.02 0.54
-6.50 0.03 0.56
-6.57 0.05 0.54
-6.23 0.07 0.62
-6.36 0.08 0.59
-6.90 0.11 0.46
-6.52 0.12 0.55
-6.57 0.13 0.54
-6.59 0.20 0.53
-6.80 0.22 0.48
-6.19 0.22 0.63
-6.39 0.24 0.58
-6.38 0.26 0.58
-6.30 0.27 0.60
-6.28 0.29 0.60
-6.13 0.30 0.64
-4.62 0.24 0.99
-6.04 0.32 0.66
-6.71 0.38 0.50
-6.20 0.36 0.62
-6.26 0.38 0.61
-6.64 0.42 0.52
-6.70 0.44 0.50
-6.63 0.47 0.52
-3.51 -1.01 0.74
-3.48 -0.95 0.75
-3.33 -0.91 0.79
-3.51 -0.92 0.74
-3.74 -0.76 0.69
-4.67 -0.16 0.47
-0.42 -1.46 1.24
