# .PCD v0.7 - Point Cloud Data file format
VERSION 0.7
FIELDS x y z
SIZE 4 4 4
TYPE F F F
COUNT 1 1 1
WIDTH 2669
HEIGHT 1
VIEWPOINT 0 0 0 1 0 0 0
POINTS 2669
DATA ASCII
-8.59 0.29 2.22
-11.26 0.46 2.23
-11.63 0.54 2.23
-11.38 0.55 2.23
-11.29 0.58 2.23
-8.75 0.28 2.06
-9.85 0.68 2.05
-6.17 -1.61 2.09
-10.87 0.39 1.91
-11.26 0.60 1.89
-11.30 0.66 1.89
-12.19 0.98 1.87
-8.42 -0.18 1.97
-8.79 -0.05 1.96
-9.40 0.52 1.87
-12.02 0.99 1.84
-8.44 0.10 1.91
-8.71 0.30 1.90
-10.81 0.42 1.84
-11.15 0.48 1.83
-8.77 0.41 1.90
-9.15 0.47 1.89
-8.61 0.59 1.90
-11.98 0.93 1.80
-8.45 -0.24 1.91
-8.27 -0.21 1.92
-8.38 -0.09 1.92
-8.26 -0.07 1.92
-8.61 -0.03 1.91
-9.36 0.88 1.81
-10.86 0.52 1.72
-10.63 0.54 1.73
-8.58 -0.32 1.74
-8.85 -0.30 1.73
-8.24 0.01 1.79
-9.10 0.04 1.76
-12.65 0.30 1.59
-8.33 0.26 1.79
-9.01 0.33 1.76
-10.72 0.49 1.68
-10.96 0.53 1.67
-10.87 0.55 1.67
-8.90 0.57 1.76
-8.84 0.61 1.76
-8.94 0.64 1.76
-8.91 0.66 1.76
-8.63 0.66 1.77
-9.40 0.76 1.73
-8.98 0.75 1.75
-9.13 0.79 1.75
-9.72 0.91 1.72
-8.54 -0.40 1.70
-8.33 -0.28 1.79
-8.25 -0.26 1.80
-8.23 -0.23 1.80
-8.31 -0.22 1.79
-7.95 -0.19 1.81
-8.56 -0.16 1.78
-8.46 -0.11 1.79
-8.42 -0.05 1.79
-8.04 -0.03 1.80
-8.98 0.66 1.72
-8.86 0.67 1.72
-8.74 0.71 1.73
-5.13 -1.44 1.82
-10.78 0.17 1.58
-8.13 0.21 1.72
-7.98 0.23 1.73
-8.45 0.29 1.71
-9.08 0.35 1.67
-9.08 0.40 1.67
-11.02 0.50 1.57
-8.82 0.43 1.69
-10.78 0.57 1.58
-8.62 0.51 1.70
-9.37 0.60 1.65
-8.94 0.59 1.68
-8.98 0.62 1.68
-8.93 0.64 1.68
-8.66 0.64 1.69
-8.65 0.66 1.69
-8.68 0.69 1.69
-8.79 0.74 1.68
-8.81 0.76 1.68
-9.60 0.85 1.64
-9.52 0.92 1.64
-9.37 0.97 1.65
-7.32 0.85 1.76
-6.44 0.77 1.81
-6.52 0.83 1.80
-6.72 0.87 1.79
-6.69 0.88 1.79
-6.43 0.87 1.81
-6.93 0.95 1.78
-6.52 0.91 1.80
-9.02 -0.50 1.68
-8.58 -0.41 1.71
-8.41 -0.39 1.72
-8.94 -0.39 1.69
-8.73 -0.36 1.70
-9.06 -0.33 1.68
-8.51 -0.28 1.71
-8.32 -0.24 1.72
-9.34 -0.24 1.66
-9.14 -0.21 1.68
-8.02 -0.17 1.73
-8.76 -0.12 1.69
-9.36 -0.10 1.66
-7.87 -0.05 1.74
-11.15 0.51 1.51
-8.74 0.69 1.65
-8.95 0.73 1.64
-8.91 0.75 1.64
-9.07 0.90 1.63
-3.16 0.88 1.96
-8.46 0.01 1.63
-9.55 0.15 1.56
-8.68 0.23 1.62
-9.02 0.26 1.60
-9.05 0.33 1.59
-11.35 0.43 1.45
-9.06 0.37 1.59
-11.14 0.48 1.46
-10.89 0.50 1.48
-10.92 0.53 1.47
-10.96 0.55 1.47
-9.25 0.54 1.58
-9.10 0.56 1.59
-9.42 0.60 1.57
-8.72 0.58 1.61
-8.75 0.60 1.61
-8.80 0.63 1.60
-8.58 0.63 1.62
-8.62 0.66 1.61
-9.02 0.71 1.59
-8.86 0.72 1.60
-9.07 0.78 1.59
-9.76 0.86 1.54
-9.55 0.87 1.55
-9.63 0.90 1.55
-9.18 0.90 1.58
-8.58 0.87 1.61
-9.38 1.04 1.56
-8.71 1.02 1.60
-10.55 1.33 1.49
-7.62 -0.44 1.56
-7.57 -0.34 1.57
-8.30 -0.23 1.52
-8.45 -0.21 1.51
-8.12 -0.18 1.53
-8.40 -0.16 1.51
-8.26 -0.09 1.65
-8.88 0.08 1.42
-8.92 0.11 1.42
-8.96 0.19 1.42
-8.58 0.21 1.44
-11.63 0.30 1.37
-10.93 0.39 1.42
-11.22 0.43 1.40
-10.66 0.46 1.43
-8.52 0.44 1.58
-8.66 0.46 1.57
-8.62 0.48 1.57
-8.48 0.50 1.58
-8.63 0.55 1.57
-8.53 0.59 1.57
-8.73 0.62 1.56
-8.79 0.65 1.56
-8.70 0.68 1.56
-9.13 0.81 1.53
-8.90 0.81 1.55
-8.87 0.85 1.55
-9.60 0.94 1.50
-8.99 0.93 1.54
-9.28 1.08 1.52
-8.36 -0.31 1.46
-7.78 -0.25 1.50
-8.78 -0.05 1.43
-10.24 0.01 1.41
-8.74 0.03 1.52
-8.91 0.06 1.51
-8.50 0.07 1.54
-8.64 0.10 1.53
-8.67 0.12 1.52
-8.67 0.14 1.52
-8.82 0.16 1.51
-8.81 0.19 1.51
-8.68 0.21 1.52
-8.52 0.22 1.53
-9.00 0.26 1.50
-11.43 0.35 1.32
-8.72 0.29 1.52
-11.54 0.41 1.31
-8.63 0.33 1.52
-8.39 0.35 1.54
-8.56 0.37 1.53
-8.62 0.40 1.52
-8.64 0.42 1.52
-8.74 0.45 1.52
-8.61 0.46 1.52
-8.74 0.49 1.51
-8.57 0.50 1.53
-8.76 0.54 1.51
-8.62 0.55 1.52
-8.54 0.57 1.53
-8.51 0.59 1.53
-8.43 0.60 1.54
-8.42 0.62 1.54
-8.59 0.66 1.52
-8.86 0.70 1.50
-9.04 0.73 1.49
-9.03 0.76 1.49
-9.26 0.80 1.47
-9.03 0.80 1.49
-9.15 0.83 1.48
-9.11 0.85 1.48
-8.62 0.83 1.52
-8.66 0.86 1.51
-8.82 0.89 1.50
-8.73 0.91 1.51
-8.94 0.95 1.49
-8.91 0.99 1.49
-6.57 0.76 1.67
-8.42 1.01 1.53
-8.67 1.06 1.51
-9.63 1.24 1.44
-7.21 0.96 1.62
-9.20 1.26 1.47
-6.48 0.92 1.67
-6.29 0.91 1.68
-5.84 0.94 1.71
-6.15 1.01 1.69
-5.74 0.96 1.72
-5.99 1.01 1.70
-6.37 1.09 1.67
-6.35 1.10 1.67
-6.26 1.11 1.68
-6.11 1.10 1.69
-6.07 1.11 1.69
-6.21 1.15 1.68
-6.35 1.19 1.67
-6.53 1.24 1.66
-6.41 1.23 1.67
-6.01 1.18 1.70
-6.81 1.34 1.64
-6.82 1.40 1.64
-6.44 1.34 1.66
-6.62 1.39 1.65
-7.12 1.51 1.61
-6.25 1.44 1.67
-7.02 -0.46 1.50
-8.46 -0.31 1.54
-8.43 -0.28 1.54
-8.32 -0.26 1.55
-8.34 -0.24 1.55
-8.34 -0.22 1.55
-8.72 -0.21 1.52
-10.07 -0.21 1.43
-9.12 -0.17 1.49
-10.86 -0.17 1.37
-10.42 -0.12 1.40
-9.60 -0.08 1.46
-10.20 -0.04 1.41
-10.00 -0.01 1.43
-8.52 0.03 1.33
-8.75 0.08 1.32
-8.47 0.13 1.34
-8.68 0.66 1.47
-8.99 0.70 1.45
-9.32 0.75 1.42
-8.90 0.79 1.45
-8.85 0.80 1.46
-9.27 0.86 1.42
-8.90 0.85 1.45
-8.85 0.87 1.45
-8.75 0.88 1.46
-10.00 1.03 1.36
-9.00 0.95 1.44
-9.94 1.07 1.37
-8.67 0.96 1.47
-5.86 0.97 1.68
-6.00 1.01 1.67
-6.20 1.06 1.65
-6.01 1.06 1.67
-6.31 1.13 1.64
-8.83 -0.35 1.31
-8.30 -0.31 1.35
-8.24 -0.26 1.36
-8.64 -0.16 1.33
-9.23 0.01 1.38
-9.49 0.03 1.36
-8.88 0.05 1.41
-8.63 0.07 1.43
-8.59 0.10 1.43
-8.67 0.12 1.43
-8.39 0.14 1.45
-8.85 0.16 1.41
-8.71 0.18 1.42
-8.75 0.21 1.42
-8.85 0.23 1.41
-8.83 0.25 1.41
-8.62 0.27 1.43
-8.71 0.29 1.42
-8.50 0.31 1.44
-8.52 0.33 1.44
-11.87 0.48 1.16
-8.53 0.41 1.43
-8.69 0.44 1.42
-10.81 0.57 1.24
-10.54 0.59 1.26
-8.75 0.51 1.41
-8.75 0.53 1.41
-8.48 0.54 1.44
-10.48 0.71 1.27
-9.22 0.65 1.37
-9.69 0.71 1.33
-9.69 0.73 1.33
-9.48 0.74 1.35
-9.25 0.75 1.37
-6.80 0.58 1.57
-6.40 0.56 1.61
-9.01 0.80 1.39
-8.85 0.81 1.40
-8.80 0.82 1.40
-9.07 0.87 1.38
-8.90 0.88 1.40
-9.71 1.03 1.33
-9.92 1.07 1.31
-8.82 1.03 1.40
-8.67 1.03 1.41
-8.28 1.01 1.44
-6.63 0.84 1.58
-9.29 1.17 1.36
-7.19 0.94 1.53
-6.63 0.92 1.58
-6.03 0.86 1.63
-5.90 0.86 1.64
-5.63 0.84 1.66
-5.87 0.89 1.64
-5.75 0.89 1.65
-5.81 0.91 1.65
-5.89 0.94 1.64
-5.99 0.97 1.63
-5.80 0.95 1.65
-6.09 1.01 1.62
-6.13 1.04 1.62
-6.14 1.05 1.62
-6.15 1.07 1.62
-6.22 1.10 1.61
-6.37 1.14 1.60
-6.11 1.11 1.62
-5.95 1.10 1.63
-6.05 1.14 1.62
-6.25 1.19 1.61
-6.05 1.17 1.62
-6.32 1.23 1.60
-6.18 1.22 1.61
-6.36 1.28 1.59
-6.54 1.32 1.58
-6.50 1.34 1.58
-6.55 1.36 1.58
-6.61 1.39 1.57
-6.37 1.36 1.59
-6.40 1.38 1.59
-6.50 1.44 1.58
-6.47 1.47 1.58
-6.22 1.43 1.60
-6.77 1.64 1.55
-3.10 -1.12 1.72
-2.79 -0.76 1.74
-8.28 -0.62 1.29
-7.99 -0.43 1.49
-8.50 -0.43 1.44
-8.92 -0.43 1.41
-8.31 -0.38 1.46
-8.99 -0.39 1.40
-8.74 -0.36 1.42
-8.45 -0.33 1.45
-8.21 -0.30 1.47
-7.81 -0.26 1.50
-8.47 -0.26 1.45
-8.35 -0.24 1.46
-8.37 -0.22 1.45
-10.66 -0.25 1.26
-9.85 -0.21 1.33
-9.12 -0.17 1.39
-10.24 -0.17 1.30
-9.73 -0.13 1.34
-9.86 -0.11 1.33
-10.53 -0.09 1.27
-9.83 -0.06 1.33
-10.17 -0.04 1.30
-9.54 -0.01 1.35
-8.34 -0.00 1.23
-8.56 0.05 1.21
-8.97 0.08 1.35
-8.97 0.10 1.35
-9.23 0.12 1.33
-8.46 0.24 1.39
-8.65 0.29 1.38
-11.31 0.49 1.14
-10.65 0.67 1.19
-10.09 0.69 1.24
-6.43 0.80 1.56
-6.10 0.87 1.59
-5.86 0.87 1.61
-5.83 0.88 1.61
-5.86 0.90 1.61
-5.87 0.91 1.61
-5.93 0.94 1.60
-6.29 1.02 1.57
-5.97 0.99 1.60
-6.34 1.06 1.57
-6.06 1.04 1.59
-6.10 1.06 1.59
-6.14 1.08 1.58
-6.20 1.11 1.58
-5.76 1.05 1.62
-5.90 1.09 1.60
-6.16 1.15 1.58
-6.08 1.15 1.59
-5.82 1.12 1.61
-5.93 1.16 1.60
-6.22 1.23 1.57
-6.26 1.25 1.57
-6.01 1.22 1.59
-6.38 1.31 1.56
-6.26 1.30 1.57
-6.40 1.35 1.55
-6.70 1.44 1.52
-6.30 1.38 1.56
-6.40 1.41 1.55
-8.28 -0.60 1.23
-8.53 -0.56 1.21
-8.24 -0.34 1.24
-8.30 -0.29 1.23
-8.92 -0.17 1.18
-8.49 -0.08 1.21
-9.44 0.01 1.25
-9.59 0.03 1.24
-9.50 0.06 1.25
-9.30 0.08 1.26
-9.58 0.10 1.24
-9.49 0.13 1.24
-9.87 0.16 1.21
-9.77 0.18 1.22
-10.48 0.22 1.15
-10.47 0.29 1.15
-10.51 0.32 1.15
-11.74 0.39 1.03
-8.39 0.30 1.35
-8.46 0.33 1.34
-8.63 0.35 1.32
-8.91 0.39 1.30
-10.02 0.46 1.19
-12.40 0.62 0.96
-12.35 0.65 0.97
-8.90 0.52 1.30
-6.28 0.39 1.54
-9.67 0.61 1.22
-9.70 0.64 1.22
-6.56 0.46 1.52
-9.80 0.69 1.21
-10.48 0.84 1.14
-10.45 0.87 1.14
-10.49 0.89 1.14
-9.36 0.85 1.25
-10.30 0.96 1.16
-9.63 0.97 1.22
-6.96 0.73 1.47
-7.06 0.76 1.46
-6.77 0.75 1.49
-6.73 0.76 1.49
-6.94 0.80 1.47
-8.80 1.02 1.30
-6.98 0.84 1.47
-9.23 1.14 1.25
-9.05 1.17 1.27
-6.63 0.92 1.50
-6.59 0.93 1.50
-6.23 0.90 1.54
-5.95 0.88 1.56
-5.83 0.88 1.58
-6.34 0.97 1.53
-6.08 0.95 1.55
-6.02 0.95 1.56
-6.47 1.04 1.51
-6.30 1.03 1.53
-6.27 1.04 1.53
-6.21 1.05 1.54
-6.07 1.04 1.55
-6.14 1.07 1.54
-6.26 1.10 1.53
-6.14 1.10 1.54
-5.74 1.05 1.58
-5.98 1.11 1.56
-6.12 1.15 1.54
-5.96 1.13 1.56
-6.16 1.18 1.54
-5.77 1.13 1.57
-6.05 1.20 1.55
-6.02 1.21 1.55
-6.16 1.25 1.54
-6.22 1.28 1.53
-6.37 1.32 1.51
-6.39 1.35 1.51
-6.50 1.38 1.50
-6.28 1.36 1.52
-6.29 1.38 1.52
-6.66 1.47 1.48
-6.20 1.39 1.53
-6.58 1.49 1.49
-6.48 1.48 1.50
-6.48 1.61 1.49
-2.80 -1.27 1.68
-8.34 -0.60 1.16
-8.28 -0.52 1.17
-8.09 -0.33 1.19
-8.39 -0.32 1.16
-8.15 -0.28 1.18
-8.38 -0.26 1.16
-6.98 -0.21 1.29
-8.10 -0.21 1.18
-10.51 -0.17 1.15
-10.13 -0.14 1.19
-9.72 -0.11 1.23
-9.73 -0.09 1.22
-10.00 -0.06 1.20
-9.70 -0.04 1.23
-9.88 -0.01 1.21
-7.87 -0.00 1.14
-7.65 0.02 1.16
-7.94 0.05 1.13
-3.69 0.04 1.56
-8.22 0.13 1.11
-3.53 0.08 1.57
-8.25 0.18 1.10
-8.21 0.20 1.11
-8.59 0.26 1.07
-11.55 0.32 0.98
-10.66 0.33 1.07
-12.10 0.40 0.92
-11.91 0.42 0.94
-8.50 0.35 1.28
-8.48 0.37 1.28
-8.60 0.39 1.27
-8.53 0.41 1.28
-9.60 0.49 1.17
-9.16 0.49 1.21
-9.01 0.52 1.23
-6.65 0.41 1.47
-9.79 0.62 1.15
-8.95 0.59 1.23
-9.07 0.62 1.22
-9.79 0.69 1.15
-10.34 0.75 1.09
-6.89 0.53 1.44
-10.25 0.80 1.10
-10.34 0.83 1.09
-10.50 0.87 1.07
-6.56 0.57 1.47
-6.75 0.61 1.45
-6.70 0.62 1.46
-8.69 0.86 1.26
-7.15 0.73 1.41
-6.96 0.73 1.43
-6.48 0.70 1.48
-7.04 0.77 1.42
-6.83 0.77 1.44
-6.82 0.79 1.44
-6.79 0.80 1.45
-8.46 1.01 1.28
-8.71 1.06 1.25
-7.07 0.88 1.42
-7.06 0.90 1.42
-6.99 0.91 1.42
-6.54 0.87 1.47
-6.44 0.88 1.48
-6.28 0.87 1.49
-6.34 0.90 1.49
-6.58 0.95 1.46
-6.40 0.94 1.48
-5.98 0.90 1.52
-6.59 1.00 1.46
-5.78 0.90 1.54
-6.16 0.97 1.50
-6.16 0.99 1.50
-6.16 1.00 1.50
-6.19 1.02 1.50
-5.92 1.00 1.53
-5.93 1.02 1.53
-5.86 1.02 1.53
-5.88 1.04 1.53
-5.75 1.03 1.54
-6.15 1.12 1.50
-6.03 1.11 1.51
-6.03 1.13 1.51
-6.04 1.15 1.51
-6.02 1.16 1.51
-5.88 1.15 1.53
-5.83 1.16 1.53
-5.87 1.18 1.53
-5.96 1.21 1.52
-5.83 1.20 1.53
-6.19 1.29 1.49
-6.24 1.31 1.49
-6.34 1.35 1.47
-6.22 1.34 1.49
-6.09 1.33 1.50
-6.50 1.43 1.46
-6.51 1.45 1.45
-6.53 1.47 1.45
-13.36 -0.84 0.60
-8.28 -0.47 1.10
-8.44 -0.45 1.09
-6.15 -0.34 1.32
-8.31 -0.34 1.10
-8.51 -0.32 1.08
-8.48 -0.29 1.08
-8.48 -0.27 1.08
-8.38 -0.24 1.09
-8.51 -0.21 1.08
-8.52 -0.14 1.08
-8.28 -0.11 1.10
-8.51 -0.06 1.08
-8.02 -0.03 1.13
-9.71 0.01 1.10
-10.08 0.03 1.06
-10.04 0.06 1.06
-10.37 0.09 1.03
-10.32 0.11 1.03
-10.38 0.14 1.03
-6.13 0.10 1.48
-8.42 0.16 1.23
-8.75 0.18 1.20
-8.71 0.20 1.20
-8.32 0.22 1.24
-8.30 0.24 1.25
-11.72 0.36 0.88
-8.08 0.27 1.27
-8.31 0.30 1.24
-10.56 0.40 1.00
-10.57 0.43 1.00
-8.59 0.37 1.21
-8.96 0.41 1.17
-9.00 0.43 1.17
-10.00 0.51 1.06
-9.72 0.52 1.09
-6.42 0.37 1.45
-10.41 0.60 1.02
-9.57 0.58 1.11
-9.82 0.62 1.08
-9.65 0.63 1.10
-9.98 0.68 1.06
-6.62 0.48 1.42
-9.71 0.71 1.09
-6.40 0.50 1.44
-6.72 0.54 1.41
-6.74 0.55 1.41
-6.64 0.56 1.42
-6.49 0.57 1.43
-10.44 0.92 1.01
-6.75 0.62 1.41
-8.35 0.78 1.23
-6.68 0.65 1.41
-6.38 0.64 1.44
-6.21 0.64 1.46
-7.03 0.74 1.37
-6.88 0.74 1.39
-6.65 0.73 1.41
-8.03 0.90 1.26
-7.17 0.83 1.36
-6.52 0.77 1.43
-6.54 0.79 1.42
-6.74 0.83 1.40
-6.71 0.84 1.40
-6.83 0.88 1.39
-6.68 0.88 1.41
-6.59 0.88 1.42
-6.45 0.88 1.43
-5.96 0.83 1.48
-6.35 0.90 1.44
-6.01 0.87 1.48
-5.87 0.87 1.49
-5.64 0.85 1.52
-5.74 0.88 1.51
-5.76 0.90 1.50
-5.78 0.92 1.50
-5.54 0.90 1.53
-5.81 0.95 1.50
-5.50 0.92 1.53
-5.57 0.95 1.52
-5.51 0.95 1.53
-5.58 0.98 1.52
-5.51 0.98 1.53
-5.54 1.00 1.52
-5.62 1.03 1.51
-5.49 1.02 1.53
-5.49 1.04 1.53
-5.47 1.05 1.53
-5.36 1.04 1.54
-5.44 1.07 1.53
-5.54 1.11 1.52
-5.61 1.13 1.51
-5.90 1.20 1.48
-5.65 1.17 1.51
-5.83 1.22 1.49
-5.49 1.17 1.52
-5.64 1.22 1.51
-5.91 1.28 1.47
-5.97 1.31 1.47
-6.00 1.33 1.46
-6.10 1.37 1.45
-6.34 1.44 1.42
-6.14 1.41 1.45
-6.51 1.51 1.40
-6.30 1.48 1.43
-6.52 1.55 1.40
-6.14 1.48 1.44
-5.84 1.69 1.47
-2.86 -1.42 1.60
-2.79 -1.37 1.61
-2.82 -1.37 1.61
-6.60 -0.64 1.21
-7.05 -0.62 1.16
-7.32 -0.55 1.13
-13.10 -0.68 0.52
-7.61 -0.39 1.10
-7.69 -0.37 1.09
-8.82 -0.30 1.20
-8.70 -0.27 1.21
-8.55 -0.25 1.23
-8.62 -0.23 1.22
-5.95 -0.14 1.50
-8.64 -0.18 1.21
-8.52 -0.16 1.23
-8.78 -0.14 1.20
-9.52 -0.13 1.12
-9.47 -0.11 1.13
-9.57 -0.09 1.11
-9.68 -0.06 1.10
-10.29 -0.04 1.04
-10.29 -0.02 1.04
-9.12 0.19 0.86
-9.05 0.30 0.87
-8.29 0.31 0.95
-8.53 0.34 0.93
-9.82 0.41 0.78
-9.89 0.44 0.77
-9.15 0.50 0.86
-9.12 0.53 0.86
-9.37 0.47 1.07
-9.57 0.53 1.04
-9.81 0.57 1.02
-9.74 0.61 1.02
-9.76 0.64 1.02
-9.67 0.66 1.03
-9.71 0.68 1.03
-9.78 0.71 1.02
-10.46 0.84 0.94
-8.63 0.74 1.15
-10.24 0.90 0.96
-9.47 0.95 1.05
-8.72 0.92 1.13
-6.39 0.74 1.40
-6.08 0.80 1.43
-5.74 0.79 1.47
-5.80 0.81 1.46
-5.74 0.82 1.47
-5.55 0.81 1.49
-5.48 0.81 1.50
-5.99 0.90 1.44
-5.61 0.86 1.48
-5.50 0.89 1.49
-5.43 0.89 1.50
-5.45 0.91 1.50
-5.42 0.92 1.50
-5.40 0.93 1.50
-5.39 0.94 1.50
-5.42 0.96 1.50
-5.21 0.94 1.52
-5.30 0.97 1.51
-5.40 1.00 1.50
-5.29 1.00 1.51
-5.25 1.00 1.52
-5.31 1.03 1.51
-5.29 1.04 1.51
-5.41 1.08 1.50
-5.33 1.09 1.51
-5.53 1.14 1.48
-5.47 1.15 1.49
-5.44 1.15 1.49
-5.51 1.18 1.48
-5.89 1.27 1.44
-5.79 1.28 1.45
-7.99 -0.31 1.00
-10.35 0.03 0.88
-10.34 0.06 0.89
-10.36 0.09 0.88
-10.56 0.14 0.86
-10.11 0.21 0.91
-10.06 0.23 0.92
-11.82 0.30 0.70
-9.85 0.28 0.94
-9.24 0.40 1.01
-9.67 0.58 0.96
-9.95 0.65 0.92
-9.74 0.71 0.95
-9.73 0.73 0.95
-9.78 0.76 0.94
-9.50 0.77 0.98
-10.14 0.84 0.90
-9.17 0.79 1.01
-8.61 0.85 1.08
-8.57 0.87 1.08
-9.12 0.97 1.02
-9.41 1.02 0.98
-8.69 0.99 1.07
-5.86 0.78 1.41
-5.70 0.80 1.43
-5.49 0.79 1.45
-5.59 0.82 1.44
-5.43 0.81 1.46
-5.51 0.84 1.45
-5.37 0.83 1.47
-5.49 0.86 1.45
-5.19 0.85 1.49
-5.48 0.90 1.45
-5.22 0.89 1.48
-5.22 0.91 1.48
-5.04 0.89 1.50
-5.12 0.93 1.49
-5.18 0.96 1.48
-5.17 0.97 1.49
-5.22 0.99 1.48
-5.21 1.00 1.48
-5.33 1.04 1.46
-5.35 1.06 1.46
-5.33 1.08 1.46
-5.31 1.09 1.46
-5.68 1.18 1.42
-5.70 1.21 1.41
-5.59 1.21 1.43
-5.72 1.25 1.41
-5.65 1.26 1.42
-5.69 1.29 1.41
-5.82 1.33 1.40
-3.56 0.87 1.68
-7.12 -0.56 1.02
-8.60 -0.46 1.10
-9.06 -0.42 1.04
-8.63 -0.23 1.09
-8.95 -0.17 1.06
-9.73 -0.16 0.96
-10.01 -0.07 0.93
-9.99 -0.02 0.93
-7.80 -0.01 0.87
-7.46 0.02 0.91
-7.77 0.04 0.87
-9.97 0.08 0.86
-9.80 0.10 0.88
-9.71 0.13 0.89
-9.67 0.15 0.90
-9.80 0.18 0.88
-10.04 0.21 0.85
-9.73 0.22 0.89
-9.73 0.25 0.89
-9.80 0.27 0.88
-9.90 0.30 0.87
-9.57 0.32 0.91
-9.51 0.34 0.92
-9.95 0.38 0.86
-9.70 0.39 0.89
-9.45 0.41 0.92
-9.43 0.43 0.92
-9.39 0.45 0.93
-9.46 0.48 0.92
-8.83 0.47 1.00
-8.55 0.48 1.04
-8.87 0.52 0.99
-8.77 0.53 1.01
-8.91 0.56 0.99
-9.02 0.59 0.97
-8.92 0.61 0.99
-9.29 0.65 0.94
-9.28 0.68 0.94
-9.70 0.73 0.88
-9.42 0.73 0.92
-9.69 0.78 0.88
-6.42 0.54 1.30
-6.43 0.56 1.30
-9.55 0.84 0.90
-8.87 0.80 0.99
-6.43 0.61 1.30
-6.68 0.65 1.27
-8.31 0.82 1.06
-6.57 0.67 1.28
-8.71 0.90 1.01
-6.76 0.73 1.26
-6.67 0.73 1.27
-6.68 0.75 1.27
-6.82 0.78 1.25
-6.46 0.76 1.29
-6.33 0.76 1.31
-6.19 0.77 1.33
-6.40 0.81 1.30
-6.24 0.80 1.32
-5.99 0.79 1.35
-6.09 0.82 1.34
-5.80 0.80 1.38
-5.77 0.81 1.38
-5.71 0.81 1.39
-5.84 0.85 1.37
-5.59 0.83 1.40
-5.54 0.84 1.41
-5.78 0.88 1.37
-5.70 0.89 1.38
-5.46 0.87 1.42
-5.44 0.88 1.42
-5.38 0.89 1.42
-5.39 0.90 1.42
-5.25 0.89 1.44
-5.23 0.90 1.44
-5.23 0.92 1.44
-5.32 0.95 1.43
-5.32 0.96 1.43
-5.37 0.98 1.42
-5.44 1.01 1.41
-5.27 1.00 1.43
-5.31 1.02 1.43
-5.17 1.01 1.45
-5.38 1.06 1.42
-5.22 1.04 1.44
-5.56 1.12 1.39
-5.67 1.16 1.38
-5.67 1.17 1.38
-5.85 1.22 1.35
-5.84 1.24 1.35
-5.88 1.26 1.35
-5.73 1.25 1.37
-5.72 1.26 1.37
-5.68 1.26 1.37
-5.65 1.27 1.38
-5.76 1.31 1.36
-5.62 1.30 1.38
-5.64 1.32 1.38
-5.87 1.38 1.35
-5.82 1.39 1.35
-6.05 1.46 1.32
-6.01 1.46 1.32
-6.20 1.52 1.30
-6.15 1.53 1.31
-6.13 1.54 1.31
-6.24 1.58 1.29
-6.06 1.58 1.31
-5.38 1.49 1.40
-0.46 -0.92 1.80
-6.98 -1.10 0.98
-6.97 -0.80 0.98
-7.44 -0.72 0.92
-7.68 -0.66 0.89
-5.67 -0.51 1.14
-5.52 -0.49 1.16
-8.31 -0.63 0.81
-7.37 -0.48 0.93
-7.59 -0.46 0.90
-7.86 -0.45 0.87
-7.03 -0.37 0.97
-7.63 -0.32 0.89
-7.13 -0.28 0.96
-6.53 -0.22 1.03
-7.54 -0.22 0.91
-7.84 -0.20 0.87
-7.74 -0.18 0.88
-6.86 -0.14 0.99
-8.03 -0.13 0.84
-8.08 -0.06 0.83
-7.92 -0.03 0.85
-10.41 0.01 0.73
-10.42 0.03 0.73
-9.99 0.08 0.78
-10.21 0.11 0.75
-10.37 0.14 0.73
-9.92 0.15 0.79
-9.76 0.18 0.81
-10.02 0.21 0.78
-9.81 0.23 0.80
-9.48 0.27 0.85
-9.51 0.29 0.84
-5.64 0.19 1.37
-9.44 0.33 0.85
-9.54 0.36 0.84
-9.45 0.38 0.85
-8.93 0.41 0.92
-9.07 0.44 0.90
-9.14 0.46 0.89
-5.59 0.32 1.37
-8.42 0.49 0.99
-5.75 0.36 1.35
-6.41 0.43 1.26
-8.84 0.60 0.93
-8.82 0.62 0.93
-8.78 0.64 0.94
-6.52 0.50 1.24
-6.26 0.50 1.27
-6.34 0.52 1.26
-6.16 0.52 1.29
-9.03 0.80 0.90
-8.78 0.80 0.93
-6.56 0.62 1.23
-9.11 0.87 0.89
-6.18 0.62 1.28
-8.72 0.88 0.94
-7.39 0.77 1.12
-6.60 0.73 1.22
-6.66 0.75 1.22
-6.82 0.78 1.19
-6.43 0.76 1.25
-6.31 0.76 1.26
-6.37 0.79 1.25
-6.12 0.77 1.29
-5.87 0.78 1.32
-6.04 0.81 1.30
-5.89 0.81 1.32
-5.90 0.82 1.31
-5.95 0.85 1.31
-5.90 0.86 1.31
-5.92 0.87 1.31
-5.80 0.89 1.33
-5.78 0.90 1.33
-5.61 0.89 1.35
-5.60 0.90 1.35
-5.50 0.90 1.36
-5.35 0.90 1.38
-5.33 0.91 1.39
-5.25 0.92 1.40
-5.29 0.94 1.39
-5.44 0.98 1.37
-5.34 0.98 1.38
-5.62 1.04 1.34
-5.52 1.04 1.36
-5.38 1.05 1.37
-5.68 1.11 1.33
-5.55 1.11 1.35
-5.50 1.11 1.36
-5.65 1.15 1.34
-5.61 1.16 1.34
-5.69 1.19 1.33
-5.52 1.17 1.35
-5.59 1.22 1.34
-5.69 1.25 1.33
-5.73 1.28 1.32
-5.83 1.31 1.31
-5.72 1.31 1.32
-5.77 1.33 1.31
-5.89 1.37 1.30
-5.94 1.42 1.29
-5.92 1.43 1.29
-5.89 1.44 1.29
-5.88 1.48 1.29
-6.06 1.58 1.26
-5.77 1.52 1.30
-5.94 1.58 1.28
-6.05 1.62 1.26
-5.71 1.57 1.31
-5.88 1.63 1.28
-5.51 1.58 1.33
-5.66 1.68 1.31
-7.42 -0.81 0.85
-7.32 -0.74 0.86
-5.33 -0.53 1.13
-7.13 -0.63 0.89
-5.66 -0.52 1.08
-5.50 -0.47 1.11
-5.15 -0.43 1.15
-7.15 -0.51 0.88
-7.32 -0.50 0.86
-5.14 -0.35 1.15
-4.70 -0.32 1.21
-4.57 -0.29 1.23
-7.38 -0.36 0.85
-7.89 -0.35 0.79
-7.71 -0.32 0.81
-7.39 -0.29 0.85
-7.27 -0.26 0.87
-7.79 -0.25 0.80
-6.55 -0.20 0.96
-4.38 -0.14 1.25
-6.78 -0.16 0.93
-9.85 -0.11 0.80
-8.47 -0.08 0.99
-10.63 -0.04 0.70
-10.15 -0.02 0.76
-7.93 -0.01 0.70
-7.68 0.02 0.74
-7.57 0.04 0.75
-7.99 0.07 0.69
-7.84 0.12 0.71
-7.92 0.14 0.70
-7.86 0.19 0.71
-8.48 0.23 0.62
-5.42 0.19 1.05
-5.18 0.20 1.09
-9.24 0.28 0.81
-8.96 0.30 0.85
-9.09 0.32 0.83
-8.87 0.34 0.86
-5.66 0.24 1.32
-8.71 0.37 0.89
-6.28 0.29 1.23
-5.93 0.29 1.28
-8.79 0.44 0.87
-5.77 0.31 1.30
-5.69 0.32 1.31
-5.88 0.35 1.29
-8.69 0.53 0.89
-6.12 0.39 1.25
-8.77 0.57 0.87
-9.01 0.61 0.84
-9.01 0.63 0.84
-9.18 0.67 0.81
-5.74 0.44 1.30
-6.10 0.49 1.25
-5.61 0.46 1.32
-8.52 0.71 0.91
-8.32 0.71 0.93
-8.36 0.74 0.93
-8.49 0.77 0.91
-5.86 0.56 1.28
-8.45 0.81 0.91
-8.26 0.81 0.94
-8.68 0.87 0.88
-6.68 0.70 1.16
-8.68 0.92 0.88
-6.54 0.72 1.18
-6.76 0.76 1.15
-6.39 0.74 1.20
-6.08 0.72 1.25
-6.15 0.74 1.24
-6.30 0.78 1.22
-6.08 0.77 1.25
-6.11 0.79 1.24
-5.98 0.79 1.26
-5.92 0.79 1.27
-5.93 0.81 1.27
-5.93 0.83 1.27
-5.86 0.83 1.28
-5.95 0.86 1.26
-5.85 0.86 1.28
-5.71 0.86 1.30
-5.66 0.87 1.30
-5.65 0.88 1.30
-5.65 0.89 1.30
-5.72 0.92 1.29
-5.36 0.88 1.34
-5.37 0.90 1.34
-5.27 0.89 1.36
-5.48 0.94 1.32
-5.34 0.93 1.34
-5.13 0.91 1.37
-5.21 0.94 1.36
-5.21 0.96 1.36
-5.39 1.00 1.33
-5.52 1.04 1.32
-5.40 1.03 1.33
-5.60 1.08 1.30
-5.54 1.09 1.31
-5.38 1.07 1.33
-5.23 1.06 1.35
-5.08 1.04 1.38
-5.57 1.15 1.30
-5.65 1.18 1.29
-5.61 1.19 1.30
-5.65 1.21 1.29
-5.46 1.19 1.32
-5.66 1.24 1.29
-5.73 1.27 1.28
-5.73 1.29 1.28
-5.64 1.28 1.29
-5.75 1.32 1.27
-6.00 1.39 1.23
-6.82 -1.26 0.86
-5.49 -0.79 1.05
-7.27 -0.94 0.80
-5.71 -0.73 1.02
-7.26 -0.75 0.80
-5.23 -0.53 1.09
-5.31 -0.51 1.07
-5.28 -0.49 1.08
-5.27 -0.47 1.08
-5.13 -0.44 1.10
-5.12 -0.43 1.10
-5.10 -0.41 1.10
-5.16 -0.39 1.10
-6.98 -0.46 0.84
-6.90 -0.43 0.85
-5.39 -0.35 1.06
-7.27 -0.40 0.80
-7.53 -0.39 0.76
-7.28 -0.36 0.80
-7.27 -0.33 0.80
-7.11 -0.31 0.82
-7.26 -0.29 0.80
-7.04 -0.26 0.83
-7.57 -0.25 0.75
-7.36 -0.22 0.78
-7.78 -0.20 0.73
-8.32 -0.16 0.65
-3.68 -0.06 1.30
-8.30 -0.08 0.65
-8.04 -0.06 0.69
-7.72 -0.03 0.73
-9.46 0.01 0.71
-9.80 0.05 0.66
-9.96 0.08 0.63
-9.53 0.10 0.69
-9.58 0.12 0.69
-9.49 0.15 0.70
-8.91 0.16 0.79
-8.93 0.18 0.78
-8.80 0.20 0.80
-8.85 0.23 0.79
-8.96 0.25 0.78
-5.41 0.17 1.31
-5.56 0.19 1.29
-8.74 0.31 0.81
-5.49 0.22 1.30
-5.51 0.23 1.29
-5.64 0.25 1.27
-8.84 0.40 0.79
-8.78 0.42 0.80
-5.63 0.29 1.27
-5.86 0.32 1.24
-5.82 0.33 1.24
-5.74 0.34 1.26
-5.74 0.36 1.25
-8.56 0.54 0.83
-8.54 0.56 0.83
-8.51 0.58 0.84
-8.39 0.59 0.86
-8.22 0.60 0.88
-5.86 0.45 1.23
-6.01 0.48 1.21
-7.87 0.64 0.93
-7.65 0.64 0.96
-6.09 0.53 1.20
-7.84 0.70 0.93
-7.74 0.71 0.95
-7.85 0.74 0.93
-7.42 0.72 1.00
-8.20 0.81 0.88
-6.06 0.62 1.20
-8.73 0.90 0.80
-6.10 0.66 1.19
-6.20 0.69 1.18
-6.17 0.70 1.18
-6.19 0.72 1.18
-6.30 0.75 1.16
-6.06 0.73 1.20
-6.00 0.74 1.21
-5.89 0.75 1.22
-5.93 0.77 1.21
-5.99 0.79 1.21
-5.86 0.79 1.22
-5.83 0.80 1.23
-5.82 0.81 1.23
-5.83 0.83 1.23
-5.88 0.85 1.22
-5.90 0.87 1.22
-5.65 0.85 1.25
-5.66 0.87 1.25
-5.91 0.92 1.21
-5.48 0.87 1.28
-5.46 0.88 1.28
-5.47 0.90 1.28
-5.36 0.90 1.29
-5.53 0.94 1.27
-5.51 0.95 1.27
-5.36 0.94 1.29
-5.12 0.92 1.33
-5.45 0.99 1.28
-5.65 1.03 1.25
-5.63 1.04 1.25
-5.55 1.05 1.26
-5.60 1.07 1.25
-5.39 1.05 1.28
-5.47 1.08 1.27
-5.49 1.09 1.27
-5.56 1.12 1.26
-5.68 1.16 1.24
-5.74 1.19 1.23
-5.62 1.18 1.25
-5.71 1.21 1.23
-5.65 1.21 1.24
-5.68 1.24 1.23
-5.77 1.27 1.22
-5.41 1.21 1.27
-5.66 1.28 1.23
-5.57 1.27 1.25
-5.68 1.31 1.23
-5.98 1.39 1.18
-5.92 1.40 1.19
-6.08 1.45 1.17
-6.03 1.45 1.17
-5.89 1.44 1.19
-5.94 1.47 1.18
-5.96 1.49 1.18
-5.90 1.49 1.19
-5.76 1.47 1.21
-6.10 1.57 1.16
-5.89 1.53 1.19
-5.95 1.57 1.18
-5.64 1.52 1.23
-5.36 1.53 1.26
-5.60 1.67 1.22
-6.69 -1.31 0.80
-7.05 -1.25 0.75
-5.44 -0.83 0.99
-5.50 -0.82 0.98
-5.64 -0.81 0.96
-5.55 -0.78 0.98
-7.17 -0.89 0.74
-5.36 -0.71 1.00
-6.04 -0.73 0.90
-6.02 -0.70 0.91
-5.52 -0.62 0.98
-5.48 -0.58 0.99
-5.52 -0.57 0.98
-5.47 -0.54 0.99
-5.45 -0.52 0.99
-4.84 -0.47 1.08
-4.84 -0.45 1.08
-4.63 -0.42 1.11
-4.83 -0.41 1.08
-4.91 -0.40 1.07
-4.77 -0.37 1.09
-4.73 -0.35 1.10
-5.35 -0.37 1.00
-6.83 -0.41 0.78
-6.56 -0.38 0.83
-6.75 -0.36 0.80
-7.46 -0.37 0.69
-8.07 -0.28 0.92
-8.65 -0.27 0.83
-8.34 -0.24 0.88
-8.59 -0.23 0.84
-8.37 -0.20 0.87
-8.41 -0.18 0.87
-8.79 -0.17 0.81
-8.82 -0.15 0.80
-9.11 -0.13 0.76
-8.97 -0.11 0.78
-8.83 -0.08 0.80
-8.07 -0.06 0.91
-8.49 -0.04 0.85
-8.95 -0.02 0.78
-7.41 -0.01 0.63
-7.52 0.02 0.61
-7.73 0.04 0.58
-7.47 0.06 0.62
-7.55 0.14 0.60
-7.54 0.19 0.60
-7.97 0.22 0.54
-7.37 0.23 0.63
-7.61 0.26 0.59
-5.17 0.25 0.97
-7.97 0.37 0.53
-8.22 0.40 0.49
-8.46 0.49 0.46
-9.06 0.46 0.69
-8.88 0.47 0.72
-8.83 0.49 0.73
-8.85 0.51 0.73
-8.68 0.52 0.75
-5.72 0.37 1.22
-8.61 0.56 0.76
-8.49 0.58 0.78
-8.54 0.60 0.77
-8.26 0.60 0.82
-8.22 0.62 0.82
-7.99 0.62 0.86
-7.81 0.63 0.89
-5.58 0.47 1.24
-7.99 0.69 0.85
-7.52 0.67 0.93
-5.93 0.55 1.18
-7.15 0.67 0.99
-5.66 0.55 1.22
-8.06 0.79 0.84
-6.20 0.65 1.14
-5.55 0.62 1.24
-6.42 0.72 1.10
-6.07 0.70 1.15
-6.17 0.73 1.14
-5.95 0.72 1.17
-5.38 0.67 1.26
-5.78 0.73 1.20
-5.65 0.73 1.22
-5.43 0.72 1.25
-5.79 0.78 1.19
-5.51 0.76 1.24
-5.62 0.79 1.22
-5.70 0.81 1.21
-5.75 0.83 1.20
-5.64 0.83 1.22
-5.42 0.82 1.25
-5.31 0.81 1.27
-5.17 0.81 1.29
-5.38 0.85 1.26
-5.22 0.84 1.28
-5.38 0.88 1.25
-5.26 0.88 1.27
-5.25 0.89 1.27
-5.46 0.94 1.24
-5.27 0.92 1.27
-5.15 0.92 1.29
-5.35 0.96 1.25
-4.76 0.88 1.35
-5.09 0.95 1.30
-5.14 0.97 1.29
-5.00 0.96 1.31
-4.48 0.88 1.39
-4.44 0.88 1.40
-4.62 0.93 1.37
-4.97 1.01 1.31
-4.71 0.97 1.35
-4.87 1.02 1.33
-4.67 0.99 1.36
-4.64 1.01 1.36
-7.08 -0.95 0.68
-5.13 -0.48 0.99
-7.41 -0.55 0.63
-6.71 -0.40 0.74
-7.26 -0.38 0.65
-7.45 -0.34 0.62
-7.43 -0.32 0.63
-7.75 -0.30 0.58
-7.61 -0.25 0.60
-7.61 -0.22 0.60
-7.68 -0.20 0.59
-8.38 -0.19 0.48
-7.88 -0.13 0.55
-8.05 -0.11 0.53
-9.83 0.01 0.49
-9.28 0.03 0.58
-9.88 0.05 0.49
-9.70 0.08 0.51
-9.72 0.10 0.51
-9.74 0.13 0.51
-9.32 0.14 0.58
-9.11 0.16 0.61
-8.89 0.18 0.65
-8.87 0.20 0.65
-8.83 0.22 0.65
-8.84 0.25 0.65
-5.33 0.17 1.23
-5.47 0.19 1.21
-8.49 0.30 0.71
-8.92 0.34 0.64
-5.39 0.23 1.22
-6.24 0.27 1.08
-5.48 0.26 1.20
-8.73 0.42 0.67
-8.56 0.43 0.70
-8.44 0.45 0.71
-8.32 0.46 0.73
-8.46 0.49 0.71
-7.99 0.49 0.79
-6.12 0.39 1.10
-8.20 0.54 0.75
-8.21 0.56 0.75
-8.34 0.59 0.73
-7.79 0.57 0.82
-7.47 0.57 0.87
-7.71 0.61 0.83
-7.24 0.59 0.91
-7.28 0.61 0.90
-7.42 0.64 0.88
-7.11 0.63 0.93
-5.99 0.56 1.11
-6.89 0.65 0.96
-6.68 0.65 1.00
-6.23 0.63 1.07
-6.18 0.64 1.08
-5.85 0.62 1.13
-5.82 0.63 1.14
-6.06 0.67 1.10
-5.77 0.66 1.15
-5.85 0.68 1.13
-6.13 0.73 1.08
-5.92 0.72 1.12
-6.06 0.75 1.10
-5.79 0.74 1.14
-5.65 0.73 1.16
-5.53 0.73 1.18
-5.51 0.75 1.18
-5.61 0.77 1.17
-5.54 0.78 1.18
-5.65 0.81 1.16
-5.64 0.82 1.16
-5.64 0.84 1.16
-5.62 0.85 1.16
-5.60 0.86 1.17
-5.53 0.87 1.18
-5.35 0.85 1.21
-5.44 0.88 1.19
-5.37 0.89 1.20
-5.48 0.92 1.18
-5.50 0.93 1.18
-5.56 0.96 1.17
-5.48 0.96 1.18
-5.35 0.95 1.20
-5.40 0.98 1.19
-5.14 0.95 1.24
-4.90 0.92 1.28
-4.91 0.93 1.27
-5.61 1.07 1.16
-5.26 1.03 1.21
-5.31 1.05 1.20
-5.47 1.09 1.18
-5.47 1.11 1.18
-4.57 0.95 1.33
-5.20 1.08 1.22
-5.43 1.14 1.18
-4.73 1.02 1.30
-4.90 1.07 1.27
-4.75 1.05 1.29
-4.85 1.08 1.28
-5.00 1.13 1.25
-5.99 1.48 1.07
-5.47 -1.03 0.86
-5.49 -0.99 0.86
-4.89 -0.88 0.96
-5.35 -0.90 0.88
-5.29 -0.87 0.89
-5.08 -0.83 0.93
-5.36 -0.84 0.88
-5.59 -0.85 0.84
-6.09 -0.88 0.76
-5.41 -0.79 0.87
-5.14 -0.74 0.92
-6.20 -0.82 0.74
-5.62 -0.75 0.84
-5.30 -0.70 0.89
-5.31 -0.68 0.89
-6.04 -0.73 0.77
-5.32 -0.65 0.89
-5.70 -0.66 0.83
-5.44 -0.62 0.87
-5.47 -0.60 0.86
-6.02 -0.62 0.77
-6.28 -0.62 0.73
-5.79 -0.55 0.81
-5.46 -0.51 0.86
-5.72 -0.48 0.82
-5.40 -0.44 0.87
-7.98 -0.43 0.80
-7.97 -0.41 0.80
-8.02 -0.40 0.80
-8.13 -0.38 0.78
-7.88 -0.35 0.82
-7.96 -0.33 0.81
-8.50 -0.33 0.72
-8.07 -0.30 0.79
-8.27 -0.28 0.75
-8.39 -0.27 0.73
-8.26 -0.24 0.76
-8.12 -0.22 0.78
-8.38 -0.20 0.73
-8.68 -0.19 0.69
-8.86 -0.17 0.66
-8.83 -0.15 0.66
-9.24 -0.13 0.59
-8.84 -0.11 0.66
-8.93 -0.08 0.64
-9.11 -0.06 0.61
-8.86 -0.04 0.65
-8.31 -0.02 0.74
-3.44 -0.01 1.14
-7.29 0.02 0.48
-7.69 0.04 0.41
-9.17 0.07 0.53
-9.40 0.10 0.49
-5.17 0.08 1.22
-8.27 0.15 0.68
-8.40 0.19 0.66
-5.44 0.14 1.17
-8.80 0.24 0.59
-5.37 0.17 1.18
-8.38 0.28 0.66
-5.63 0.20 1.13
-8.13 0.33 0.70
-5.57 0.25 1.15
-5.84 0.27 1.10
-8.36 0.42 0.66
-8.89 0.47 0.57
-8.63 0.48 0.61
-7.66 0.47 0.78
-8.16 0.51 0.69
-7.76 0.51 0.76
-6.45 0.46 0.99
-5.88 0.44 1.09
-6.09 0.48 1.05
-6.24 0.51 1.02
-5.76 0.49 1.11
-6.08 0.53 1.05
-6.06 0.54 1.05
-6.17 0.57 1.03
-6.11 0.58 1.04
-5.97 0.60 1.07
-5.82 0.60 1.09
-6.00 0.63 1.06
-5.68 0.62 1.12
-5.63 0.63 1.12
-5.66 0.64 1.12
-5.10 0.61 1.21
-5.24 0.64 1.19
-5.35 0.67 1.17
-5.18 0.66 1.20
-5.21 0.68 1.19
-5.22 0.69 1.19
-5.41 0.73 1.16
-5.45 0.75 1.15
-5.43 0.76 1.15
-5.60 0.80 1.12
-5.58 0.81 1.13
-5.48 0.81 1.14
-5.52 0.83 1.13
-5.51 0.84 1.13
-5.39 0.84 1.16
-5.35 0.85 1.16
-5.23 0.85 1.18
-5.08 0.84 1.21
-4.97 0.83 1.23
-4.80 0.82 1.26
-4.82 0.84 1.25
-4.87 0.86 1.24
-4.77 0.86 1.26
-4.71 0.86 1.27
-5.05 0.93 1.21
-5.36 1.01 1.15
-5.50 1.05 1.13
-5.61 1.08 1.11
-4.93 0.99 1.23
-4.76 0.97 1.26
-4.49 0.93 1.30
-4.38 0.92 1.32
-4.42 0.94 1.31
-4.40 0.95 1.32
-4.52 0.99 1.30
-4.51 1.00 1.30
-4.51 1.01 1.30
-4.54 1.04 1.29
-4.31 1.01 1.33
-4.41 1.04 1.31
-5.25 -1.11 0.84
-4.83 -1.01 0.91
-5.24 -1.05 0.84
-4.99 -1.00 0.88
-5.37 -1.03 0.82
-4.71 -0.93 0.93
-4.94 -0.94 0.89
-5.02 -0.93 0.88
-4.91 -0.88 0.90
-5.17 -0.87 0.85
-5.19 -0.86 0.85
-5.18 -0.84 0.85
-5.25 -0.83 0.84
-5.23 -0.81 0.84
-5.89 -0.85 0.73
-5.50 -0.80 0.80
-5.69 -0.79 0.76
-5.46 -0.75 0.80
-5.81 -0.77 0.74
-5.32 -0.70 0.83
-5.58 -0.71 0.78
-5.23 -0.66 0.84
-5.30 -0.64 0.83
-5.21 -0.62 0.84
-4.94 -0.58 0.89
-5.26 -0.59 0.84
-5.78 -0.60 0.75
-1.76 -0.30 1.44
-5.70 -0.56 0.76
-5.03 -0.50 0.88
-1.53 -0.25 1.48
-5.48 -0.47 0.80
-5.13 -0.41 0.86
-5.27 -0.40 0.83
-5.25 -0.38 0.84
-5.17 -0.34 0.85
-5.89 -0.35 0.73
-5.04 -0.30 0.87
-6.63 -0.31 0.60
-7.36 -0.32 0.48
-3.59 -0.18 1.12
-7.38 -0.27 0.47
-6.21 -0.22 0.67
-6.48 -0.20 0.62
-7.47 -0.20 0.45
-7.57 -0.18 0.44
-7.77 -0.16 0.40
-3.21 -0.07 1.19
-3.48 -0.06 1.14
-8.13 -0.08 0.34
-7.77 -0.06 0.40
-7.74 -0.03 0.41
-8.13 0.00 0.64
-8.88 0.03 0.50
-8.77 0.05 0.52
-8.72 0.07 0.53
-8.42 0.09 0.58
-8.68 0.11 0.54
-8.08 0.12 0.64
-8.09 0.14 0.64
-5.72 0.12 1.07
-7.87 0.18 0.68
-8.17 0.21 0.63
-5.55 0.16 1.10
-5.54 0.17 1.10
-5.56 0.19 1.10
-5.48 0.20 1.11
-7.93 0.30 0.67
-7.75 0.31 0.70
-8.02 0.34 0.65
-8.00 0.36 0.65
-8.55 0.41 0.55
-8.71 0.44 0.52
-8.49 0.45 0.56
-8.23 0.46 0.61
-8.21 0.48 0.61
-8.38 0.51 0.58
-8.52 0.54 0.56
-5.98 0.40 1.02
-5.85 0.41 1.04
-5.74 0.41 1.06
-5.76 0.43 1.06
-5.84 0.45 1.04
-5.81 0.46 1.04
-5.82 0.48 1.04
-6.02 0.51 1.01
-6.21 0.54 0.97
-6.08 0.55 1.00
-6.06 0.56 1.00
-6.24 0.59 0.96
-6.24 0.61 0.96
-6.46 0.64 0.92
-6.27 0.64 0.96
-6.12 0.64 0.98
-6.05 0.65 1.00
-6.01 0.67 1.00
-5.71 0.65 1.06
-5.77 0.67 1.05
-5.79 0.69 1.04
-5.52 0.67 1.09
-5.63 0.70 1.07
-5.75 0.73 1.05
-5.56 0.72 1.08
-5.59 0.74 1.07
-5.52 0.74 1.09
-5.55 0.76 1.08
-5.62 0.79 1.07
-5.60 0.80 1.07
-5.69 0.83 1.05
-5.88 0.87 1.02
-5.74 0.86 1.04
-5.53 0.85 1.08
-5.48 0.86 1.09
-5.43 0.86 1.10
-5.30 0.86 1.12
-5.40 0.89 1.10
-5.56 0.93 1.07
-5.38 0.91 1.11
-5.49 0.94 1.09
-5.97 1.04 0.99
-5.52 0.98 1.08
-5.54 1.00 1.07
-5.49 1.00 1.08
-5.79 1.07 1.02
-5.76 1.08 1.03
-5.85 1.11 1.01
-5.76 1.11 1.03
-5.92 1.15 1.00
-5.93 1.17 1.00
-5.62 1.13 1.05
-5.26 1.08 1.12
-5.09 1.06 1.15
-5.13 1.08 1.14
-4.88 1.05 1.19
-4.97 1.08 1.17
-4.68 1.03 1.22
-4.82 1.07 1.20
-4.80 1.08 1.20
-4.67 1.07 1.22
-4.59 1.07 1.24
-4.84 1.13 1.19
-4.82 1.14 1.19
-4.78 1.15 1.20
-6.70 1.58 0.84
-5.20 1.27 1.12
-5.68 1.39 1.03
-4.92 1.23 1.17
-5.07 1.28 1.14
-5.97 1.50 0.97
-5.24 1.35 1.11
-5.33 1.38 1.09
-5.57 1.46 1.04
-5.85 1.54 0.99
-5.49 1.47 1.06
-5.22 1.42 1.11
-5.19 1.42 1.11
-5.26 1.45 1.10
-5.25 1.48 1.10
-5.46 1.60 1.05
-4.73 -1.16 0.86
-4.86 -1.16 0.84
-4.64 -1.11 0.88
-5.15 -1.17 0.79
-5.42 -1.19 0.74
-5.07 -1.12 0.80
-1.80 -0.63 1.39
-4.75 -1.04 0.86
-4.92 -1.04 0.83
-4.65 -0.99 0.88
-4.72 -0.98 0.87
-4.89 -0.99 0.84
-4.85 -0.96 0.85
-5.04 -0.97 0.81
-5.08 -0.96 0.80
-5.12 -0.94 0.80
-5.10 -0.92 0.80
-5.15 -0.91 0.79
-5.01 -0.88 0.82
-5.34 -0.89 0.76
-4.96 -0.83 0.82
-5.60 -0.88 0.71
-5.74 -0.88 0.68
-5.82 -0.87 0.67
-7.04 -0.97 0.45
-5.13 -0.76 0.80
-5.21 -0.75 0.78
-6.35 -0.84 0.57
-6.28 -0.81 0.59
-3.69 -0.56 1.05
-6.01 -0.74 0.64
-5.51 -0.68 0.73
-5.07 -0.63 0.81
-5.07 -0.61 0.81
-5.42 -0.62 0.74
-5.31 -0.59 0.76
-5.42 -0.58 0.74
-6.61 -0.64 0.53
-5.34 -0.54 0.76
-6.16 -0.57 0.61
-5.65 -0.52 0.70
-5.98 -0.52 0.64
-6.43 -0.52 0.56
-5.65 -0.46 0.70
-7.15 -0.52 0.43
-7.47 -0.51 0.37
-7.05 -0.47 0.45
-7.06 -0.44 0.45
-6.57 -0.40 0.53
-6.29 -0.37 0.59
-4.91 -0.29 0.83
-7.24 -0.36 0.41
-5.66 -0.28 0.70
-6.05 -0.28 0.63
-7.30 -0.29 0.40
-5.93 -0.23 0.65
-6.13 -0.22 0.61
-6.60 -0.20 0.53
-6.16 -0.17 0.61
-7.12 -0.17 0.43
-8.51 -0.12 0.57
-8.34 -0.10 0.60
-8.78 -0.08 0.52
-8.00 -0.06 0.66
-8.29 -0.04 0.61
-7.96 -0.02 0.67
-3.40 -0.01 1.05
-3.31 0.01 1.07
-3.49 0.02 1.03
-7.24 0.06 0.33
-3.53 0.05 1.03
-6.61 0.10 0.44
-3.52 0.08 1.03
-3.42 0.09 1.05
-3.61 0.11 1.01
-3.28 0.12 1.07
-3.55 0.14 1.02
-3.52 0.15 1.03
-8.21 0.25 0.55
-8.29 0.27 0.53
-5.54 0.20 1.05
-5.51 0.21 1.06
-5.47 0.23 1.06
-8.22 0.35 0.54
-7.98 0.36 0.59
-8.22 0.39 0.54
-5.90 0.30 0.98
-8.74 0.46 0.44
-8.95 0.49 0.40
-9.09 0.52 0.37
-9.03 0.54 0.38
-8.98 0.56 0.39
-6.02 0.40 0.96
-5.77 0.40 1.00
-5.79 0.42 1.00
-5.78 0.43 1.00
-5.84 0.45 0.99
-5.88 0.47 0.98
-5.82 0.48 0.99
-6.35 0.53 0.89
-6.34 0.55 0.89
-6.17 0.55 0.92
-6.22 0.57 0.91
-6.48 0.61 0.86
-6.38 0.62 0.88
-6.27 0.63 0.90
-5.95 0.61 0.96
-5.82 0.61 0.99
-5.81 0.63 0.99
-5.82 0.64 0.98
-5.75 0.65 1.00
-5.74 0.66 1.00
-5.54 0.66 1.04
-5.56 0.67 1.03
-5.44 0.68 1.05
-5.68 0.72 1.01
-5.43 0.70 1.06
-5.52 0.73 1.04
-5.67 0.76 1.01
-5.45 0.75 1.05
-5.52 0.77 1.04
-5.60 0.80 1.02
-5.60 0.81 1.02
-5.54 0.82 1.03
-5.50 0.83 1.04
-5.40 0.83 1.06
-5.06 0.79 1.12
-5.38 0.85 1.06
-5.15 0.83 1.10
-5.05 0.83 1.12
-5.08 0.85 1.11
-4.90 0.84 1.15
-4.75 0.82 1.18
-4.52 0.80 1.22
-4.55 0.82 1.21
-4.45 0.81 1.23
-4.50 0.83 1.22
-4.34 0.82 1.25
-4.35 0.83 1.25
-5.00 0.96 1.12
-4.75 0.93 1.17
-5.16 1.01 1.09
-4.37 0.88 1.24
-4.38 0.90 1.24
-4.34 0.90 1.25
-4.44 0.93 1.23
-5.05 1.06 1.11
-4.74 1.02 1.17
-4.40 0.96 1.23
-4.56 1.01 1.20
-4.62 1.03 1.19
-4.70 1.06 1.17
-4.33 1.00 1.25
-4.36 1.01 1.24
-4.37 1.03 1.24
-4.52 1.07 1.21
-4.68 1.16 1.17
-4.78 1.21 1.15
-4.72 -1.17 0.80
-5.29 -1.11 0.70
-5.75 -1.16 0.61
-4.71 -1.00 0.81
-5.83 -1.11 0.59
-5.69 -1.07 0.62
-6.93 -1.21 0.39
-6.16 -1.09 0.53
-5.61 -1.00 0.64
-6.37 -1.07 0.49
-5.43 -0.94 0.67
-5.75 -0.96 0.61
-5.59 -0.92 0.64
-5.59 -0.90 0.64
-5.65 -0.81 0.63
-6.09 -0.83 0.55
-5.74 -0.78 0.61
-1.03 -0.33 1.50
-3.12 -0.44 1.11
-5.25 -0.59 0.71
-4.27 -0.46 0.89
-6.65 -0.60 0.44
-6.64 -0.51 0.44
-7.12 -0.47 0.35
-6.19 -0.40 0.53
-6.17 -0.38 0.53
-7.21 -0.36 0.34
-7.24 -0.34 0.33
-6.41 -0.29 0.49
-6.26 -0.26 0.52
-6.29 -0.24 0.51
-6.83 -0.23 0.41
-6.93 -0.21 0.39
-4.56 -0.11 0.83
-7.22 -0.08 0.33
-3.17 -0.03 1.09
-3.28 -0.02 1.07
-7.66 0.00 0.58
-7.90 0.02 0.53
-8.02 0.04 0.51
-7.41 0.06 0.63
-8.18 0.08 0.48
-7.74 0.10 0.56
-7.52 0.12 0.61
-7.68 0.14 0.57
-7.40 0.15 0.63
-7.63 0.17 0.58
-5.78 0.15 0.95
-7.96 0.22 0.52
-8.16 0.25 0.48
-8.37 0.27 0.43
-8.00 0.28 0.51
-8.35 0.32 0.44
-7.62 0.31 0.58
-8.07 0.35 0.49
-7.76 0.35 0.55
-8.38 0.40 0.43
-7.95 0.40 0.51
-8.20 0.43 0.46
-7.76 0.43 0.55
-7.67 0.45 0.57
-7.49 0.45 0.60
-7.20 0.46 0.66
-7.49 0.49 0.60
-8.78 0.59 0.35
-7.49 0.53 0.60
-6.82 0.50 0.73
-7.55 0.57 0.59
-6.03 0.48 0.89
-6.51 0.53 0.79
-7.12 0.60 0.67
-7.35 0.63 0.63
-6.12 0.55 0.87
-6.13 0.57 0.87
-6.22 0.59 0.85
-6.07 0.59 0.88
-5.89 0.59 0.91
-6.02 0.62 0.89
-5.81 0.61 0.93
-5.88 0.64 0.91
-5.89 0.65 0.91
-5.71 0.65 0.95
-5.75 0.67 0.94
-5.76 0.68 0.94
-5.64 0.69 0.96
-5.57 0.69 0.97
-5.49 0.70 0.99
-5.61 0.73 0.96
-5.70 0.75 0.94
-5.68 0.76 0.95
-5.65 0.78 0.95
-5.56 0.78 0.97
-5.54 0.79 0.97
-5.60 0.81 0.96
-5.55 0.82 0.97
-5.40 0.82 1.00
-5.41 0.83 1.00
-5.40 0.84 1.00
-5.30 0.84 1.02
-5.35 0.87 1.01
-5.31 0.87 1.02
-5.17 0.87 1.04
-5.00 0.85 1.08
-4.93 0.86 1.09
-4.66 0.83 1.14
-5.79 1.02 0.92
-4.58 0.84 1.16
-4.66 0.86 1.14
-4.79 0.90 1.11
-5.13 0.97 1.05
-5.65 1.08 0.94
-5.37 1.04 1.00
-5.49 1.08 0.97
-5.58 1.11 0.95
-5.39 1.09 0.99
-5.58 1.14 0.95
-5.51 1.14 0.96
-5.17 1.09 1.03
-5.79 1.23 0.90
-5.58 1.20 0.95
-5.77 1.25 0.91
-5.09 1.13 1.04
-4.87 1.10 1.09
-4.54 1.05 1.15
-4.58 1.07 1.15
-4.69 1.10 1.12
-4.70 1.12 1.12
-4.83 1.16 1.09
-4.68 1.14 1.12
-4.66 1.15 1.12
-4.81 1.19 1.09
-5.08 1.27 1.04
-4.98 1.26 1.06
-4.97 1.29 1.06
-4.99 1.30 1.05
-4.82 1.28 1.09
-4.95 1.32 1.06
-5.03 1.35 1.04
-5.03 1.37 1.04
-5.29 1.49 0.98
-5.34 1.55 0.97
-2.02 -1.67 1.24
-3.81 -1.29 0.91
-4.05 -1.25 0.87
-4.58 -1.33 0.76
-5.49 -1.42 0.58
-4.23 -1.18 0.83
-4.76 -1.26 0.73
-4.55 -1.20 0.77
-4.48 -1.17 0.78
-4.76 -1.20 0.73
-5.05 -1.23 0.67
-5.62 -1.30 0.56
-5.48 -1.26 0.58
-5.32 -1.22 0.62
-5.81 -1.27 0.52
-5.62 -1.22 0.56
-5.68 -1.21 0.55
-5.57 -1.18 0.57
-5.56 -1.16 0.57
-5.70 -1.16 0.54
-5.57 -1.12 0.57
-5.27 -1.06 0.63
-5.42 -1.06 0.60
-5.52 -1.05 0.58
-5.56 -1.04 0.57
-5.68 -1.03 0.55
-5.55 -1.00 0.57
-5.97 -1.03 0.49
-6.19 -1.03 0.45
-5.74 -0.96 0.54
-5.80 -0.95 0.53
-5.82 -0.93 0.52
-5.93 -0.92 0.50
-6.04 -0.91 0.48
-6.51 -0.94 0.38
-6.03 -0.85 0.48
-6.21 -0.85 0.44
-6.32 -0.84 0.42
-6.43 -0.83 0.40
-6.67 -0.82 0.35
-6.59 -0.80 0.37
-4.68 -0.61 0.75
-5.56 -0.67 0.57
-5.23 -0.62 0.64
-5.33 -0.61 0.62
-6.01 -0.64 0.48
-6.21 -0.64 0.44
-6.29 -0.62 0.43
-6.36 -0.61 0.42
-4.96 -0.49 0.69
-4.22 -0.43 0.84
-6.51 -0.55 0.39
-6.30 -0.52 0.43
-5.73 -0.46 0.54
-5.29 -0.40 0.63
-5.93 -0.41 0.50
-6.34 -0.41 0.42
-6.18 -0.38 0.45
-6.47 -0.38 0.39
-8.51 -0.29 0.41
-8.79 -0.28 0.36
-8.61 -0.25 0.39
-8.46 -0.23 0.42
-8.47 -0.21 0.42
-8.40 -0.19 0.44
-8.34 -0.16 0.45
-8.36 -0.14 0.44
-8.28 -0.12 0.46
-8.59 -0.10 0.40
-8.43 -0.08 0.43
-8.24 -0.06 0.47
-8.10 -0.04 0.49
-8.03 -0.02 0.51
-3.84 0.10 0.86
-6.40 0.25 0.33
-8.15 0.41 0.41
-8.36 0.44 0.36
-8.04 0.44 0.43
-8.08 0.47 0.42
-7.67 0.46 0.50
-8.12 0.51 0.41
-7.56 0.49 0.53
-7.51 0.51 0.54
-7.40 0.52 0.56
-7.62 0.56 0.51
-7.46 0.56 0.55
-7.71 0.60 0.49
-7.38 0.60 0.56
-7.31 0.61 0.57
-5.38 0.47 0.98
-6.68 0.59 0.71
-6.08 0.56 0.83
-6.02 0.57 0.84
-5.75 0.56 0.90
-5.85 0.58 0.88
-5.79 0.59 0.89
-5.89 0.62 0.87
-5.57 0.60 0.93
-5.53 0.61 0.94
-5.45 0.62 0.96
-5.38 0.62 0.97
-5.58 0.66 0.93
-5.42 0.66 0.96
-5.35 0.66 0.97
-5.42 0.69 0.96
-5.31 0.69 0.98
-5.45 0.72 0.95
-5.26 0.71 0.99
-5.38 0.74 0.96
-5.14 0.72 1.01
-4.80 0.69 1.08
-4.92 0.72 1.06
-5.20 0.77 1.00
-4.84 0.73 1.07
-4.56 0.71 1.13
-4.49 0.71 1.15
-4.38 0.71 1.17
-4.51 0.74 1.14
-4.47 0.74 1.15
-4.38 0.74 1.17
-4.68 0.80 1.10
-4.48 0.78 1.15
-4.64 0.82 1.11
-4.42 0.79 1.16
-4.30 0.79 1.18
-4.11 0.77 1.22
-4.21 0.80 1.20
-4.19 0.80 1.20
-4.29 0.83 1.18
-4.10 0.81 1.22
-4.55 0.90 1.12
-4.51 0.91 1.13
-4.55 0.93 1.12
-4.44 0.92 1.14
-4.51 0.95 1.13
-4.47 0.95 1.14
-4.08 0.90 1.22
-4.46 0.99 1.14
-4.39 0.98 1.15
-4.08 0.93 1.22
-4.47 1.02 1.13
-4.30 1.00 1.17
-4.19 0.99 1.19
-4.19 1.00 1.19
-4.39 1.08 1.14
-4.61 1.17 1.10
-2.70 1.02 1.48
-1.20 -1.10 1.40
-4.42 -1.28 0.74
-4.99 -1.36 0.62
-4.79 -1.31 0.66
-4.96 -1.30 0.63
-4.99 -1.29 0.62
-5.43 -1.33 0.53
-1.60 -0.67 1.33
-5.58 -1.29 0.50
-5.54 -1.25 0.51
-5.70 -1.25 0.48
-5.69 -1.13 0.48
-5.54 -1.07 0.51
-5.53 -1.03 0.52
-6.04 -1.03 0.41
-6.10 -1.02 0.40
-6.28 -1.00 0.36
-4.45 -0.68 0.74
-3.75 -0.52 0.88
-3.56 -0.44 0.92
-6.34 -0.50 0.35
-6.20 -0.41 0.38
-5.67 -0.36 0.49
-6.10 -0.34 0.40
-2.91 -0.18 1.05
-6.05 -0.19 0.41
-6.31 -0.07 0.35
-5.85 -0.05 0.45
-4.63 0.00 1.09
-7.58 0.02 0.45
-7.32 0.04 0.51
-7.27 0.06 0.52
-6.93 0.07 0.59
-7.12 0.09 0.55
-7.42 0.11 0.48
-7.79 0.14 0.40
-7.47 0.15 0.47
-7.00 0.16 0.57
-8.06 0.20 0.34
-7.53 0.25 0.46
-5.55 0.24 0.88
-5.43 0.25 0.91
-5.51 0.28 0.89
-7.82 0.41 0.39
-7.98 0.46 0.36
-7.55 0.46 0.45
-7.31 0.46 0.50
-7.57 0.50 0.44
-7.33 0.50 0.49
-8.03 0.57 0.34
-7.05 0.52 0.55
-7.46 0.57 0.46
-7.26 0.57 0.51
-7.05 0.57 0.55
-6.98 0.58 0.57
-6.96 0.60 0.57
-6.94 0.62 0.57
-6.71 0.62 0.62
-5.84 0.56 0.81
-5.69 0.56 0.84
-5.92 0.59 0.79
-5.77 0.60 0.82
-5.36 0.57 0.91
-5.32 0.58 0.92
-5.51 0.61 0.88
-5.53 0.63 0.88
-5.52 0.64 0.88
-5.55 0.66 0.87
-5.34 0.65 0.91
-5.33 0.66 0.92
-5.39 0.69 0.90
-5.29 0.69 0.92
-5.36 0.71 0.91
-5.30 0.72 0.92
-5.29 0.73 0.92
-5.32 0.75 0.91
-5.26 0.75 0.93
-5.28 0.77 0.92
-5.18 0.77 0.94
-5.12 0.78 0.96
-5.73 0.88 0.82
-5.00 0.79 0.98
-4.63 0.75 1.06
-4.61 0.76 1.06
-4.78 0.79 1.03
-4.56 0.77 1.08
-4.72 0.81 1.04
-4.67 0.82 1.05
-4.71 0.84 1.04
-4.77 0.86 1.03
-4.63 0.85 1.06
-4.62 0.86 1.06
-4.56 0.86 1.07
-4.74 0.90 1.03
-4.56 0.89 1.07
-5.05 0.99 0.96
-4.55 0.91 1.07
-5.09 1.02 0.95
-5.40 1.09 0.88
-5.13 1.05 0.94
-5.05 1.05 0.96
-5.18 1.09 0.92
-5.03 1.08 0.96
-5.40 1.16 0.88
-4.90 1.08 0.98
-5.20 1.15 0.92
-4.92 1.11 0.98
-5.33 1.21 0.89
-4.60 1.07 1.05
-4.57 1.08 1.05
-4.97 1.18 0.96
-4.69 1.13 1.02
-4.66 1.13 1.03
-4.67 1.15 1.03
-4.70 1.17 1.02
-4.55 1.15 1.05
-4.53 1.16 1.06
-4.65 1.20 1.03
-4.77 1.24 1.00
-4.60 1.21 1.04
-4.53 1.21 1.05
-4.45 1.20 1.07
-4.73 1.28 1.01
-4.33 1.20 1.09
-4.71 1.31 1.01
-4.60 1.30 1.03
-3.54 -1.42 0.85
-3.92 -1.49 0.77
-3.77 -1.44 0.80
-3.84 -1.44 0.78
-3.69 -1.40 0.82
-3.82 -1.41 0.79
-4.22 -1.48 0.70
-4.01 -1.42 0.75
-4.05 -1.41 0.74
-3.86 -1.35 0.78
-3.97 -1.36 0.76
-4.89 -1.42 0.56
-4.59 -1.35 0.63
-4.62 -1.34 0.62
-4.53 -1.30 0.64
-4.34 -1.25 0.68
-4.62 -1.29 0.62
-4.83 -1.30 0.58
-4.83 -1.29 0.58
-4.96 -1.29 0.55
-4.92 -1.27 0.56
-4.46 -1.17 0.66
-4.62 -1.18 0.62
-5.18 -1.25 0.50
-5.16 -1.23 0.51
-5.48 -1.26 0.44
-5.33 -1.22 0.47
-5.30 -1.20 0.48
-5.24 -1.17 0.49
-5.35 -1.17 0.47
-4.52 -1.03 0.65
-5.17 -1.10 0.51
-5.00 -1.06 0.54
-4.98 -1.04 0.55
-5.53 -1.09 0.43
-5.76 -1.11 0.38
-5.59 -1.06 0.42
-4.53 -0.91 0.65
-4.75 -0.92 0.60
-5.54 -1.00 0.43
-4.63 -0.87 0.63
-4.34 -0.82 0.69
-4.62 -0.83 0.63
-5.03 -0.86 0.54
-4.30 -0.76 0.70
-5.58 -0.89 0.42
-4.32 -0.73 0.69
-4.43 -0.73 0.67
-4.27 -0.70 0.70
-4.32 -0.68 0.69
-4.21 -0.66 0.72
-4.24 -0.64 0.71
-4.26 -0.63 0.71
-4.22 -0.61 0.72
-4.36 -0.61 0.68
-4.68 -0.62 0.62
-4.42 -0.58 0.67
-4.14 -0.54 0.73
-4.49 -0.55 0.66
-4.54 -0.54 0.65
-4.34 -0.50 0.69
-4.40 -0.49 0.68
-3.85 -0.44 0.79
-3.78 -0.42 0.81
-3.70 -0.40 0.83
-5.51 -0.47 0.44
-7.40 -0.43 0.50
-7.25 -0.40 0.53
-7.22 -0.38 0.53
-6.97 -0.35 0.59
-7.38 -0.35 0.50
-7.57 -0.34 0.46
-6.88 -0.29 0.61
-7.48 -0.30 0.48
-6.75 -0.24 0.63
-6.47 -0.21 0.70
-4.44 -0.04 1.13
-4.92 -0.02 1.03
-3.15 -0.01 0.89
-3.36 0.01 0.84
-2.98 0.02 0.92
-4.68 0.04 1.03
-7.17 0.09 0.47
-5.43 0.08 0.86
-5.32 0.11 0.89
-5.15 0.15 0.92
-5.11 0.17 0.93
-4.79 0.17 1.00
-5.26 0.22 0.90
-5.16 0.24 0.92
-5.14 0.25 0.92
-5.22 0.28 0.90
-5.29 0.30 0.89
-5.44 0.34 0.85
-5.16 0.35 0.91
-5.06 0.35 0.94
-5.28 0.39 0.88
-5.11 0.40 0.92
-5.33 0.44 0.87
-6.92 0.60 0.51
-6.73 0.60 0.55
-5.10 0.49 0.92
-5.06 0.50 0.93
-5.08 0.53 0.92
-5.19 0.56 0.90
-5.57 0.62 0.81
-5.57 0.65 0.81
-5.23 0.62 0.89
-5.29 0.66 0.87
-5.15 0.67 0.90
-5.21 0.69 0.89
-5.13 0.71 0.90
-5.05 0.71 0.92
-5.05 0.74 0.92
-4.79 0.73 0.98
-4.72 0.73 1.00
-4.67 0.75 1.01
-4.80 0.78 0.97
-4.77 0.80 0.98
-4.61 0.80 1.02
-4.56 0.81 1.03
-4.61 0.84 1.01
-4.55 0.84 1.03
-4.52 0.86 1.03
-4.62 0.91 1.01
-4.36 0.87 1.07
-4.40 0.90 1.06
-5.23 1.07 0.86
-5.00 1.05 0.91
-4.62 1.01 1.00
-4.51 1.00 1.03
-4.16 -1.41 0.65
-4.40 -1.41 0.60
-4.76 -1.45 0.52
-4.87 -1.38 0.50
-4.70 -1.33 0.53
-4.64 -1.30 0.55
-4.84 -1.32 0.50
-4.72 -1.26 0.53
-4.98 -1.29 0.47
-4.61 -1.19 0.56
-4.80 -1.21 0.51
-4.94 -1.21 0.48
-4.88 -1.18 0.50
-4.55 -1.11 0.57
-4.57 -1.10 0.57
-4.52 -1.08 0.58
-4.50 -1.06 0.58
-4.77 -1.08 0.52
-4.65 -1.04 0.55
-4.44 -1.00 0.60
-4.58 -1.00 0.57
-4.90 -1.03 0.50
-5.40 -1.06 0.38
-4.11 -0.82 0.68
-2.24 -0.55 1.10
-4.33 -0.68 0.63
-2.19 -0.46 1.11
-4.24 -0.64 0.65
-4.35 -0.64 0.62
-1.98 -0.40 1.16
-3.35 -0.47 0.85
-3.50 -0.47 0.81
-3.48 -0.45 0.82
-3.53 -0.44 0.81
-3.66 -0.44 0.78
-3.43 -0.41 0.83
-3.35 -0.39 0.85
-3.09 -0.36 0.91
-3.22 -0.35 0.88
-3.10 -0.33 0.90
-3.14 -0.32 0.89
-3.28 -0.31 0.86
-3.20 -0.30 0.88
-3.25 -0.29 0.87
-3.16 -0.27 0.89
-3.14 -0.25 0.89
-5.30 -0.33 0.41
-3.04 -0.22 0.92
-2.89 -0.20 0.95
-2.82 -0.19 0.96
-3.11 -0.17 0.90
-2.91 -0.02 0.94
-6.84 0.09 0.47
-6.93 0.12 0.45
-5.04 0.31 0.89
-7.12 0.59 0.39
-7.05 0.61 0.41
-7.22 0.64 0.37
-6.87 0.63 0.45
-6.64 0.62 0.50
-5.14 0.52 0.86
-5.59 0.63 0.75
-5.81 0.67 0.69
-5.83 0.69 0.69
-5.78 0.70 0.70
-5.89 0.73 0.67
-6.28 0.79 0.58
-5.56 0.72 0.75
-5.47 0.72 0.77
-5.53 0.74 0.76
-5.79 0.79 0.69
-5.73 0.80 0.71
-5.89 0.84 0.67
-5.71 0.83 0.71
-5.14 0.76 0.85
-5.56 0.84 0.74
-5.21 0.80 0.83
-5.19 0.81 0.83
-5.45 0.86 0.77
-5.19 0.84 0.83
-4.92 0.81 0.89
-5.33 0.89 0.79
-5.10 0.87 0.85
-5.07 0.88 0.86
-5.12 0.90 0.84
-5.22 0.93 0.82
-5.35 0.96 0.79
-4.63 0.86 0.96
-5.08 0.95 0.85
-4.96 0.94 0.88
-5.01 0.96 0.87
-5.08 1.00 0.84
-4.92 0.99 0.88
-5.60 1.14 0.72
-4.61 -1.40 0.48
-4.72 -1.41 0.46
-4.84 -1.41 0.43
-4.85 -1.40 0.43
-4.83 -1.37 0.43
-4.90 -1.37 0.42
-4.97 -1.36 0.40
-4.76 -1.31 0.45
-4.91 -1.32 0.42
-4.82 -1.28 0.44
-5.10 -1.31 0.37
-4.86 -1.25 0.43
-4.66 -1.20 0.48
-5.02 -1.25 0.39
-4.77 -1.19 0.45
-4.75 -1.17 0.46
-4.67 -1.13 0.48
-4.74 -1.13 0.46
-4.56 -1.08 0.50
-4.50 -1.06 0.52
-4.77 -1.08 0.45
-4.81 -1.07 0.44
-5.00 -1.08 0.40
-5.01 -1.02 0.40
-4.34 -0.88 0.56
-4.28 -0.83 0.57
-4.25 -0.81 0.58
-3.99 -0.76 0.64
-4.33 -0.78 0.56
-3.82 -0.66 0.68
-3.81 -0.65 0.68
-5.06 -0.72 0.39
-4.68 -0.67 0.48
-5.04 -0.68 0.39
-4.87 -0.65 0.43
-4.59 -0.57 0.50
-4.48 -0.55 0.53
-4.00 -0.50 0.64
-3.73 -0.46 0.70
-3.58 -0.42 0.74
-3.73 -0.41 0.70
-3.71 -0.40 0.71
-3.41 -0.37 0.78
-3.26 -0.34 0.81
-3.47 -0.34 0.76
-3.26 -0.30 0.81
-3.79 -0.31 0.69
-3.24 -0.27 0.81
-3.39 -0.26 0.78
-3.45 -0.25 0.77
-3.30 -0.22 0.80
-3.42 -0.21 0.77
-3.25 -0.19 0.81
-3.16 -0.17 0.83
-3.31 -0.16 0.80
-2.03 0.73 0.23
-2.45 -0.65 2.12
-2.76 0.82 1.80
