# .PCD v0.7 - Point Cloud Data file format
VERSION 0.7
FIELDS x y z
SIZE 4 4 4
TYPE F F F
COUNT 1 1 1
WIDTH 2911
HEIGHT 1
VIEWPOINT 0 0 0 1 0 0 0
POINTS 2911
DATA ASCII
-8.86 1.28 1.87
-8.98 1.35 1.87
-8.65 1.32 1.88
-8.67 1.35 1.88
-8.70 1.40 1.88
-8.54 1.42 1.88
-8.80 1.48 1.87
-9.01 1.56 1.86
-8.77 1.54 1.87
-8.75 1.56 1.87
-8.51 1.54 1.88
-8.48 1.56 1.88
-8.80 1.64 1.87
-8.72 1.65 1.87
-8.43 1.62 1.88
-8.49 1.65 1.88
-8.51 1.68 1.88
-8.43 1.68 1.88
-8.13 0.54 1.85
-8.65 1.25 1.82
-8.53 1.26 1.82
-8.80 1.34 1.81
-8.66 1.43 1.81
-8.71 1.48 1.81
-8.78 1.52 1.81
-8.50 1.49 1.82
-8.47 1.56 1.82
-8.48 1.58 1.82
-8.10 0.50 1.82
-8.06 0.56 1.82
-8.84 1.25 1.78
-8.55 1.24 1.79
-8.48 1.27 1.79
-8.38 1.28 1.79
-8.65 1.34 1.78
-8.77 1.40 1.78
-8.41 1.37 1.79
-8.38 1.39 1.79
-8.48 1.42 1.79
-8.62 1.47 1.78
-8.33 1.44 1.79
-9.03 1.58 1.76
-8.58 1.53 1.78
-9.19 1.66 1.76
-8.80 1.63 1.77
-7.98 0.39 1.79
-8.50 0.67 1.76
-8.28 1.03 1.77
-8.47 1.08 1.76
-8.43 1.12 1.76
-8.48 1.14 1.76
-8.61 1.18 1.75
-8.43 1.18 1.76
-8.56 1.22 1.75
-8.48 1.23 1.76
-8.55 1.26 1.75
-8.47 1.27 1.76
-8.59 1.31 1.75
-8.35 1.30 1.76
-8.33 1.32 1.76
-8.40 1.35 1.76
-8.35 1.36 1.76
-8.38 1.39 1.76
-8.74 1.47 1.74
-8.61 1.47 1.75
-8.67 1.50 1.74
-8.43 1.48 1.75
-8.34 1.49 1.76
-8.66 1.57 1.74
-8.57 1.57 1.75
-8.81 1.64 1.73
-8.60 1.62 1.74
-8.44 1.62 1.75
-8.42 1.64 1.75
-8.28 1.63 1.76
-8.30 1.68 1.76
-6.73 1.47 1.83
-6.84 -0.94 1.79
-6.65 -0.85 1.80
-2.55 0.22 2.03
-8.65 1.23 1.71
-8.64 1.29 1.71
-8.49 1.29 1.72
-8.34 1.31 1.73
-8.42 1.37 1.72
-8.42 1.43 1.72
-8.47 1.57 1.72
-8.77 1.65 1.70
-8.36 1.62 1.72
-8.25 1.62 1.73
-8.01 0.39 1.72
-7.91 0.41 1.72
-7.74 0.42 1.73
-7.75 0.46 1.73
-7.97 0.51 1.72
-8.23 0.55 1.70
-8.26 0.63 1.70
-8.31 0.74 1.70
-8.30 0.78 1.70
-8.44 0.82 1.69
-8.66 0.86 1.67
-8.43 0.90 1.69
-8.28 0.93 1.69
-8.26 0.95 1.69
-8.30 0.97 1.69
-8.35 1.00 1.69
-8.22 1.03 1.70
-8.19 1.06 1.70
-8.38 1.11 1.69
-8.46 1.14 1.68
-8.39 1.15 1.69
-8.40 1.18 1.68
-8.34 1.21 1.69
-8.27 1.22 1.69
-8.42 1.27 1.68
-8.37 1.28 1.68
-8.39 1.31 1.68
-8.49 1.36 1.68
-8.43 1.40 1.68
-8.23 1.39 1.69
-8.31 1.42 1.69
-8.73 1.51 1.66
-8.52 1.50 1.67
-8.46 1.51 1.68
-8.42 1.53 1.68
-8.60 1.60 1.67
-8.76 1.65 1.66
-8.51 1.63 1.67
-8.49 1.65 1.67
-3.54 1.08 1.94
-6.99 -1.05 1.71
-6.74 -1.00 1.72
-7.10 -1.01 1.70
-6.92 -0.97 1.71
-6.84 -0.94 1.71
-7.16 -0.95 1.70
-6.92 -0.90 1.71
-7.05 -0.89 1.70
-6.94 -0.86 1.71
-7.13 -0.85 1.70
-7.06 -0.83 1.70
-7.13 -0.78 1.70
-6.86 -0.35 1.79
-5.78 -0.24 1.84
-7.12 -0.19 1.77
-7.53 -0.08 1.75
-8.45 0.75 1.65
-8.22 0.94 1.66
-8.32 0.97 1.66
-8.29 1.10 1.66
-9.28 1.53 1.59
-8.69 1.61 1.62
-6.77 -1.09 1.68
-6.83 -1.01 1.68
-6.97 -1.00 1.67
-6.86 -0.96 1.67
-6.92 -0.95 1.67
-7.02 -0.93 1.67
-6.84 -0.89 1.68
-6.80 -0.87 1.68
-7.23 -0.89 1.65
-7.00 -0.84 1.67
-7.02 -0.82 1.67
-6.36 -0.32 1.70
-8.07 0.48 1.64
-8.20 0.50 1.63
-8.34 0.53 1.62
-8.16 0.54 1.63
-8.18 0.56 1.63
-8.17 0.58 1.63
-8.27 0.61 1.62
-8.09 0.64 1.63
-8.46 0.73 1.61
-8.24 0.73 1.62
-8.37 0.77 1.61
-8.46 0.80 1.61
-8.48 0.82 1.61
-8.55 0.85 1.60
-8.29 0.84 1.62
-8.46 0.88 1.61
-8.58 0.91 1.60
-8.31 0.91 1.62
-8.33 0.93 1.61
-8.21 0.94 1.62
-8.35 1.02 1.61
-8.17 1.02 1.62
-8.21 1.04 1.62
-8.29 1.07 1.62
-8.39 1.11 1.61
-8.61 1.16 1.59
-8.53 1.17 1.60
-8.73 1.22 1.59
-8.50 1.23 1.60
-8.71 1.28 1.58
-8.44 1.35 1.60
-8.54 1.41 1.59
-8.99 1.51 1.56
-8.59 1.46 1.59
-8.90 1.54 1.57
-9.12 1.60 1.55
-8.35 1.51 1.60
-8.22 1.53 1.61
-8.61 1.67 1.58
-6.47 1.57 1.72
-6.89 -1.10 1.63
-7.15 -1.11 1.61
-6.90 -1.06 1.63
-6.91 -1.04 1.63
-6.90 -1.01 1.63
-6.86 -0.99 1.63
-6.98 -0.98 1.62
-6.94 -0.95 1.63
-6.89 -0.92 1.63
-6.94 -0.91 1.63
-6.88 -0.88 1.63
-6.98 -0.86 1.62
-7.19 -0.86 1.61
-7.06 -0.82 1.62
-7.17 -0.81 1.61
-7.24 -0.79 1.61
-7.20 -0.74 1.61
-6.70 -0.39 1.64
-6.11 -0.33 1.67
-6.70 -0.31 1.64
-6.73 -0.29 1.64
-6.34 -0.25 1.66
-6.57 -0.24 1.64
-6.50 -0.21 1.65
-6.36 -0.19 1.66
-6.23 -0.17 1.66
-6.11 -0.14 1.67
-6.75 0.09 1.58
-6.84 0.12 1.58
-7.62 0.22 1.63
-8.28 0.51 1.58
-8.09 0.52 1.59
-8.15 0.54 1.59
-8.10 0.56 1.59
-8.09 0.58 1.59
-8.15 0.60 1.59
-8.15 0.62 1.59
-8.37 0.66 1.57
-8.10 0.66 1.59
-8.37 0.72 1.57
-8.37 0.74 1.57
-8.43 0.77 1.56
-8.30 0.78 1.57
-8.30 0.80 1.57
-8.34 0.83 1.57
-8.44 0.86 1.56
-8.42 0.88 1.56
-8.33 0.91 1.57
-8.39 0.94 1.56
-8.27 0.94 1.57
-8.31 0.97 1.57
-8.40 1.00 1.56
-8.25 1.01 1.57
-8.26 1.05 1.57
-8.42 1.09 1.56
-8.48 1.12 1.56
-8.59 1.15 1.55
-8.55 1.17 1.55
-8.41 1.17 1.56
-8.72 1.24 1.54
-8.52 1.23 1.55
-8.43 1.24 1.56
-8.32 1.25 1.56
-8.16 1.25 1.57
-8.23 1.30 1.57
-8.69 1.39 1.54
-8.51 1.38 1.55
-9.30 1.53 1.49
-8.54 1.45 1.55
-6.89 -1.06 1.58
-6.80 -1.03 1.58
-6.96 -0.95 1.57
-6.88 -0.92 1.58
-6.94 -0.90 1.58
-7.06 -0.89 1.57
-6.99 -0.86 1.57
-7.06 -0.85 1.57
-7.08 -0.83 1.57
-7.45 -0.83 1.54
-7.14 -0.78 1.56
-6.58 -0.48 1.60
-6.89 -0.47 1.58
-6.40 -0.38 1.61
-6.08 -0.29 1.63
-6.19 -0.25 1.62
-6.28 -0.23 1.61
-6.89 -0.22 1.58
-6.75 -0.20 1.58
-6.32 -0.15 1.61
-6.11 -0.12 1.62
-6.47 -0.10 1.60
-6.36 -0.08 1.61
-6.54 -0.04 1.60
-6.97 0.01 1.64
-7.01 0.03 1.63
-6.79 0.04 1.65
-9.58 0.13 1.44
-9.56 0.15 1.44
-7.36 0.31 1.60
-7.36 0.34 1.60
-7.27 0.39 1.61
-7.22 0.41 1.61
-8.65 0.51 1.51
-7.93 0.49 1.56
-8.11 0.52 1.55
-7.96 0.53 1.56
-7.93 0.55 1.56
-8.02 0.57 1.55
-8.05 0.60 1.55
-7.96 0.61 1.56
-7.94 0.63 1.56
-7.96 0.65 1.56
-8.23 0.69 1.53
-8.07 0.70 1.55
-8.28 0.74 1.53
-8.31 0.76 1.53
-8.28 0.78 1.53
-8.24 0.80 1.53
-8.20 0.81 1.53
-8.26 0.84 1.53
-8.14 0.85 1.54
-8.23 0.88 1.53
-8.24 0.90 1.53
-8.40 0.94 1.52
-7.96 0.91 1.55
-8.31 0.97 1.52
-8.26 0.99 1.53
-8.43 1.03 1.51
-8.10 1.01 1.54
-8.42 1.07 1.51
-8.43 1.09 1.51
-8.42 1.11 1.51
-8.32 1.12 1.52
-8.50 1.17 1.51
-8.52 1.19 1.51
-8.12 1.16 1.53
-8.09 1.18 1.54
-8.12 1.20 1.53
-8.32 1.27 1.52
-8.99 1.39 1.47
-8.43 1.33 1.51
-8.49 1.36 1.50
-8.63 1.40 1.49
-9.06 1.49 1.46
-8.53 1.45 1.50
-8.52 1.50 1.50
-8.49 1.51 1.50
-8.13 1.47 1.53
-8.01 1.48 1.54
-8.02 1.50 1.54
-8.04 1.52 1.53
-8.21 1.57 1.52
-8.40 1.63 1.50
-6.26 1.26 1.67
-8.43 1.68 1.50
-6.88 1.48 1.62
-6.14 1.35 1.67
-7.08 -1.38 1.52
-7.09 -1.36 1.52
-7.28 -1.29 1.50
-7.20 -1.26 1.51
-7.18 -1.16 1.51
-6.94 -1.11 1.53
-7.03 -1.08 1.52
-6.96 -1.05 1.53
-7.06 -1.03 1.52
-7.34 -1.04 1.50
-7.23 -1.00 1.51
-7.40 -1.00 1.50
-7.32 -0.97 1.50
-7.31 -0.94 1.50
-7.44 -0.93 1.49
-7.21 -0.89 1.51
-7.26 -0.87 1.50
-7.40 -0.85 1.49
-6.97 -0.59 1.52
-6.72 -0.53 1.54
-7.09 -0.53 1.51
-6.46 -0.47 1.56
-6.44 -0.45 1.56
-7.58 -0.48 1.48
-6.51 -0.39 1.55
-6.63 -0.37 1.55
-6.05 -0.33 1.59
-7.05 -0.15 1.63
-7.26 -0.12 1.62
-6.68 -0.09 1.66
-7.15 -0.06 1.62
-7.05 -0.04 1.63
-6.83 -0.02 1.65
-7.01 -0.01 1.63
-6.57 0.05 1.50
-6.97 0.18 1.47
-6.92 0.23 1.47
-6.98 0.34 1.47
-7.16 0.42 1.45
-7.42 0.46 1.43
-8.02 0.53 1.51
-7.98 0.55 1.51
-7.86 0.56 1.52
-7.90 0.58 1.52
-7.92 0.61 1.52
-8.10 0.64 1.50
-8.17 0.66 1.50
-8.11 0.68 1.50
-8.09 0.70 1.50
-8.08 0.72 1.50
-8.20 0.75 1.49
-8.23 0.77 1.49
-8.23 0.79 1.49
-8.25 0.82 1.49
-8.30 0.84 1.48
-8.26 0.90 1.49
-8.15 0.91 1.49
-8.15 0.93 1.49
-7.94 0.93 1.51
-8.08 0.96 1.50
-8.14 0.99 1.49
-8.03 1.00 1.50
-8.04 1.02 1.50
-8.04 1.04 1.50
-8.38 1.10 1.47
-7.93 1.07 1.51
-8.06 1.11 1.50
-8.53 1.39 1.45
-8.32 1.48 1.47
-7.01 -1.23 1.47
-7.01 -1.19 1.47
-7.16 -1.16 1.46
-7.04 -1.12 1.47
-7.10 -1.01 1.47
-7.05 -0.98 1.47
-6.92 -0.95 1.48
-7.38 -0.97 1.45
-7.49 -0.96 1.44
-7.52 -0.93 1.44
-6.26 -0.27 1.53
-6.84 -0.22 1.48
-6.30 -0.19 1.52
-6.15 -0.14 1.53
-6.48 -0.13 1.51
-6.47 -0.11 1.51
-6.38 -0.08 1.52
-6.38 -0.06 1.52
-6.07 -0.04 1.54
-6.12 -0.02 1.54
-6.82 0.01 1.57
-6.99 0.03 1.55
-6.82 0.06 1.57
-6.52 0.07 1.59
-9.99 0.31 1.30
-7.09 0.24 1.54
-6.80 0.28 1.57
-7.65 0.49 1.49
-7.64 0.51 1.49
-7.56 0.52 1.50
-7.84 0.56 1.48
-7.87 0.58 1.47
-7.93 0.61 1.47
-7.86 0.62 1.47
-7.91 0.65 1.47
-7.99 0.67 1.46
-8.04 0.70 1.46
-8.01 0.71 1.46
-8.16 0.77 1.44
-8.37 0.81 1.43
-8.24 0.82 1.44
-8.27 0.84 1.43
-8.23 0.86 1.44
-8.26 0.88 1.43
-8.15 0.89 1.44
-7.98 0.89 1.46
-8.10 0.93 1.45
-8.03 0.94 1.45
-8.11 0.97 1.45
-8.04 0.98 1.45
-8.10 1.01 1.45
-8.03 1.02 1.45
-8.01 1.04 1.45
-7.99 1.08 1.45
-8.11 1.12 1.44
-8.13 1.14 1.44
-7.93 1.13 1.46
-8.15 1.21 1.44
-8.01 1.21 1.45
-8.07 1.24 1.44
-7.88 1.23 1.46
-7.91 1.25 1.46
-8.27 1.33 1.42
-8.52 1.39 1.40
-8.48 1.40 1.41
-8.42 1.42 1.41
-8.17 1.40 1.43
-8.00 1.39 1.45
-7.99 1.41 1.45
-8.49 1.51 1.40
-8.74 1.58 1.38
-8.40 1.54 1.41
-8.44 1.57 1.40
-8.34 1.58 1.41
-8.57 1.64 1.39
-8.22 1.60 1.42
-6.42 1.29 1.58
-8.14 1.63 1.43
-8.09 1.64 1.43
-6.49 1.47 1.57
-6.05 1.63 1.60
-3.58 1.33 1.81
-7.15 -1.30 1.41
-7.18 -1.28 1.40
-7.20 -1.26 1.40
-7.14 -1.23 1.41
-7.08 -1.20 1.41
-7.08 -1.18 1.41
-7.07 -1.15 1.41
-7.08 -1.13 1.41
-7.15 -1.11 1.41
-7.42 -1.12 1.38
-7.36 -1.09 1.39
-7.17 -1.02 1.41
-7.37 -1.00 1.39
-7.04 -0.94 1.41
-7.22 -0.93 1.40
-6.10 -0.72 1.49
-6.32 -0.72 1.47
-6.58 -0.65 1.45
-6.29 -0.59 1.47
-7.41 -0.62 1.38
-7.00 -0.36 1.56
-6.56 -0.32 1.59
-6.46 -0.30 1.60
-6.79 -0.30 1.57
-7.29 -0.30 1.53
-6.77 -0.26 1.58
-3.73 -0.14 1.83
-6.57 -0.22 1.59
-7.00 -0.22 1.56
-6.88 -0.20 1.57
-7.32 -0.19 1.53
-6.90 -0.16 1.56
-7.04 -0.15 1.55
-6.95 -0.13 1.56
-6.89 -0.11 1.56
-6.73 -0.09 1.58
-6.76 -0.08 1.57
-6.91 -0.06 1.56
-6.74 -0.04 1.58
-6.73 -0.02 1.58
-6.76 -0.01 1.57
-6.27 0.00 1.42
-6.42 0.02 1.41
-7.69 0.53 1.45
-7.90 0.56 1.43
-7.80 0.58 1.43
-7.93 0.63 1.42
-7.97 0.65 1.42
-8.06 0.68 1.41
-8.01 0.69 1.41
-8.04 0.72 1.41
-8.04 0.74 1.41
-8.09 0.76 1.41
-8.28 0.80 1.39
-8.33 0.82 1.38
-8.29 0.84 1.39
-8.16 0.85 1.40
-8.30 0.88 1.38
-8.22 0.90 1.39
-7.92 0.89 1.42
-8.25 0.94 1.39
-7.94 0.93 1.42
-7.89 0.94 1.42
-8.00 0.98 1.41
-8.09 1.01 1.40
-7.89 1.00 1.42
-7.88 1.02 1.42
-8.02 1.06 1.41
-7.86 1.06 1.42
-8.05 1.11 1.40
-8.03 1.12 1.40
-8.01 1.14 1.40
-7.74 1.12 1.43
-7.89 1.17 1.42
-7.97 1.20 1.41
-8.22 1.27 1.38
-8.23 1.30 1.38
-8.10 1.40 1.39
-8.10 1.51 1.39
-8.46 1.62 1.35
-8.07 1.61 1.39
-7.21 -1.19 1.35
-7.07 -1.15 1.36
-7.25 -1.15 1.35
-6.94 -1.00 1.37
-6.61 -0.92 1.40
-6.78 -0.51 1.38
-6.49 -0.47 1.41
-6.75 -0.42 1.39
-6.07 -0.29 1.44
-6.10 -0.27 1.44
-6.08 -0.23 1.44
-6.09 -0.21 1.44
-6.11 -0.19 1.44
-5.99 -0.16 1.45
-6.21 -0.15 1.43
-6.19 -0.12 1.43
-9.17 0.10 1.26
-8.96 0.12 1.28
-9.19 0.15 1.26
-9.00 0.17 1.28
-9.86 0.23 1.19
-10.01 0.28 1.18
-9.97 0.63 1.18
-7.41 0.49 1.42
-7.70 0.53 1.39
-7.75 0.55 1.39
-7.83 0.58 1.38
-7.80 0.60 1.38
-7.64 0.60 1.40
-7.95 0.65 1.37
-7.86 0.66 1.38
-7.96 0.69 1.37
-7.96 0.71 1.37
-8.11 0.74 1.35
-8.29 0.78 1.33
-8.23 0.79 1.34
-8.35 0.83 1.33
-8.33 0.85 1.33
-8.33 0.87 1.33
-8.07 0.86 1.35
-8.18 0.89 1.34
-8.12 0.91 1.35
-8.25 0.94 1.33
-8.03 0.94 1.36
-7.94 0.95 1.36
-8.07 0.98 1.35
-8.05 1.00 1.35
-8.09 1.03 1.35
-7.99 1.04 1.36
-8.04 1.06 1.35
-8.09 1.09 1.35
-7.95 1.09 1.36
-8.15 1.14 1.34
-7.97 1.14 1.36
-8.02 1.16 1.35
-7.96 1.18 1.36
-8.16 1.22 1.34
-8.08 1.23 1.34
-8.17 1.27 1.34
-8.14 1.31 1.34
-8.07 1.32 1.34
-8.16 1.35 1.33
-8.42 1.41 1.31
-8.34 1.42 1.32
-8.67 1.52 1.28
-8.31 1.57 1.31
-8.12 1.56 1.33
-8.17 1.59 1.33
-8.13 1.60 1.33
-8.23 1.66 1.32
-8.09 1.66 1.33
-6.64 1.41 1.47
-7.08 -1.15 1.30
-6.96 -1.11 1.31
-7.22 -1.10 1.29
-6.79 -1.00 1.33
-7.01 -1.01 1.31
-6.72 -0.95 1.33
-6.69 -0.93 1.34
-6.64 -0.90 1.34
-5.87 -0.66 1.41
-6.29 -0.61 1.37
-5.93 -0.55 1.41
-6.61 -0.37 1.34
-6.94 -0.36 1.31
-5.87 -0.30 1.41
-6.12 -0.29 1.39
-6.00 -0.24 1.40
-6.26 -0.23 1.37
-6.26 -0.21 1.37
-6.17 -0.19 1.38
-6.28 -0.17 1.37
-6.07 -0.14 1.39
-6.68 -0.09 1.50
-6.61 -0.07 1.51
-6.90 -0.06 1.48
-6.81 -0.04 1.49
-6.99 0.00 1.25
-6.74 0.02 1.27
-6.53 0.04 1.29
-10.03 0.28 1.11
-7.89 0.34 1.33
-9.84 0.47 1.13
-7.97 0.45 1.32
-7.15 0.42 1.40
-7.96 0.55 1.32
-7.71 0.55 1.35
-7.99 0.59 1.32
-7.93 0.60 1.32
-8.16 0.64 1.30
-7.94 0.65 1.32
-7.87 0.66 1.33
-8.04 0.69 1.31
-8.18 0.73 1.30
-8.26 0.75 1.29
-8.22 0.77 1.29
-8.24 0.79 1.29
-8.29 0.82 1.28
-8.41 0.85 1.27
-8.29 0.86 1.28
-8.23 0.88 1.29
-8.09 0.88 1.30
-8.24 0.92 1.28
-8.09 0.92 1.30
-8.24 0.96 1.28
-8.07 0.96 1.30
-8.01 0.98 1.31
-8.06 1.00 1.30
-7.96 1.01 1.31
-7.90 1.02 1.32
-8.10 1.07 1.30
-8.10 1.09 1.30
-8.07 1.15 1.30
-8.20 1.19 1.28
-8.25 1.21 1.28
-8.29 1.24 1.27
-8.29 1.26 1.27
-8.65 1.34 1.23
-8.31 1.31 1.27
-8.41 1.34 1.26
-8.15 1.33 1.28
-8.19 1.35 1.28
-8.34 1.40 1.26
-8.20 1.40 1.28
-8.51 1.47 1.24
-8.72 1.53 1.22
-8.64 1.56 1.23
-8.25 1.51 1.27
-8.37 1.55 1.26
-8.45 1.59 1.25
-8.37 1.62 1.25
-8.41 1.65 1.25
-3.95 1.09 1.71
-6.71 -1.20 1.28
-6.75 -1.18 1.28
-6.85 -1.17 1.27
-6.61 -1.09 1.29
-6.44 -1.05 1.31
-7.07 -1.10 1.24
-6.71 -1.04 1.28
-6.54 -1.00 1.30
-6.73 -1.00 1.28
-6.64 -0.97 1.29
-6.69 -0.93 1.28
-6.57 -0.89 1.29
-6.26 -0.84 1.32
-6.04 -0.78 1.34
-7.16 -0.58 1.24
-7.49 -0.55 1.20
-7.28 -0.52 1.22
-7.35 -0.50 1.22
-7.36 -0.47 1.21
-6.82 -0.40 1.27
-6.51 -0.35 1.30
-5.91 -0.30 1.36
-6.01 -0.29 1.35
-5.99 -0.26 1.35
-6.17 -0.25 1.33
-5.90 -0.20 1.36
-6.06 -0.18 1.34
-5.82 -0.16 1.36
-5.97 -0.14 1.35
-6.13 -0.12 1.33
-6.21 -0.10 1.32
-6.15 -0.08 1.33
-6.88 -0.04 1.26
-8.80 0.01 1.18
-8.94 0.03 1.17
-8.73 0.05 1.19
-8.63 0.07 1.20
-9.13 0.10 1.14
-9.40 0.13 1.12
-8.89 0.14 1.17
-9.52 0.18 1.10
-9.86 0.21 1.06
-9.78 0.23 1.07
-10.05 0.28 1.04
-9.66 0.30 1.09
-10.09 0.33 1.04
-7.44 0.27 1.32
-10.01 0.38 1.05
-8.18 0.34 1.24
-10.00 0.43 1.05
-7.21 0.35 1.35
-7.52 0.41 1.31
-7.81 0.44 1.28
-7.94 0.47 1.27
-7.62 0.47 1.30
-8.28 0.55 1.23
-8.16 0.56 1.24
-8.52 0.61 1.20
-8.51 0.63 1.20
-8.62 0.66 1.19
-8.38 0.66 1.22
-7.97 0.65 1.26
-7.81 0.66 1.28
-7.81 0.68 1.28
-8.08 0.72 1.25
-7.91 0.72 1.27
-7.91 0.74 1.27
-8.01 0.77 1.25
-8.24 0.82 1.23
-8.14 0.83 1.24
-8.18 0.85 1.23
-8.66 0.92 1.18
-8.15 0.89 1.24
-8.00 0.90 1.25
-8.42 0.96 1.21
-8.14 0.95 1.24
-8.15 0.99 1.23
-8.13 1.01 1.24
-8.10 1.07 1.24
-8.20 1.15 1.23
-8.09 1.17 1.24
-8.21 1.21 1.22
-8.29 1.24 1.21
-8.36 1.27 1.21
-8.33 1.29 1.21
-8.32 1.38 1.21
-8.10 1.43 1.23
-8.28 1.48 1.21
-8.53 1.56 1.18
-8.60 1.60 1.17
-8.52 1.61 1.18
-8.56 1.64 1.17
-8.36 1.62 1.20
-8.26 1.62 1.21
-8.20 1.66 1.21
-3.94 1.15 1.68
-6.69 -1.20 1.22
-6.61 -1.14 1.23
-6.46 -1.10 1.24
-6.44 -1.08 1.25
-6.62 -1.08 1.23
-6.62 -1.06 1.23
-6.73 -1.04 1.22
-6.71 -1.02 1.22
-6.75 -1.00 1.21
-6.53 -0.96 1.24
-6.69 -0.95 1.22
-6.70 -0.93 1.22
-6.49 -0.89 1.24
-6.59 -0.88 1.23
-5.95 -0.79 1.30
-6.03 -0.78 1.29
-5.94 -0.75 1.30
-6.02 -0.74 1.29
-5.94 -0.71 1.30
-5.62 -0.67 1.33
-5.75 -0.66 1.32
-6.20 -0.65 1.27
-6.38 -0.64 1.25
-7.21 -0.63 1.17
-6.84 -0.43 1.20
-6.58 -0.39 1.23
-6.43 -0.37 1.24
-6.58 -0.35 1.23
-6.92 -0.25 1.39
-7.07 -0.24 1.37
-6.72 -0.21 1.41
-6.78 -0.20 1.40
-6.95 -0.18 1.38
-6.70 -0.16 1.41
-6.73 -0.14 1.41
-6.74 -0.13 1.41
-6.79 -0.11 1.40
-8.49 -0.08 1.22
-8.63 -0.03 1.20
-10.04 0.53 0.97
-8.91 0.58 1.10
-8.54 0.58 1.14
-8.37 0.70 1.16
-8.57 0.78 1.14
-8.07 0.76 1.19
-8.01 0.77 1.20
-8.34 0.82 1.16
-8.22 0.83 1.18
-7.99 0.83 1.20
-8.92 0.94 1.09
-8.25 0.90 1.17
-8.44 0.94 1.15
-8.62 0.98 1.13
-8.42 0.98 1.15
-8.25 0.98 1.17
-7.89 0.96 1.21
-8.22 1.06 1.17
-8.27 1.11 1.16
-8.31 1.14 1.16
-8.19 1.14 1.17
-8.48 1.20 1.14
-8.39 1.21 1.15
-8.30 1.22 1.16
-8.38 1.25 1.15
-8.58 1.59 1.11
-8.61 1.62 1.11
-2.65 1.01 1.79
-0.92 -0.50 1.80
-6.55 -1.00 1.18
-6.38 -0.87 1.20
-6.50 -0.86 1.18
-6.11 -0.81 1.22
-6.12 -0.79 1.22
-8.24 -0.49 0.99
-8.95 0.12 1.04
-8.71 0.16 1.07
-9.13 0.19 1.02
-9.49 0.22 0.97
-9.68 0.27 0.95
-8.01 0.25 1.15
-7.47 0.29 1.21
-7.68 0.35 1.19
-10.03 0.51 0.90
-8.09 0.43 1.14
-8.20 0.48 1.12
-9.51 0.58 0.96
-8.94 0.57 1.03
-8.74 0.58 1.06
-7.90 0.56 1.16
-7.85 0.62 1.16
-8.08 0.66 1.13
-8.80 0.76 1.05
-8.99 0.79 1.02
-8.97 0.82 1.02
-7.86 0.74 1.16
-8.67 0.86 1.06
-8.82 0.89 1.04
-8.92 0.92 1.03
-8.29 0.95 1.10
-9.01 1.07 1.01
-8.20 1.15 1.11
-8.36 1.19 1.09
-8.30 1.20 1.09
-8.23 1.21 1.10
-8.57 1.28 1.06
-8.51 1.30 1.07
-8.41 1.30 1.08
-8.39 1.45 1.08
-8.62 1.56 1.05
-8.28 1.54 1.09
-6.27 -1.08 1.14
-6.38 -1.01 1.13
-7.06 -1.04 1.05
-6.14 -0.90 1.16
-6.40 -0.90 1.13
-6.20 -0.80 1.15
-8.57 -0.93 0.87
-9.51 0.06 0.90
-9.44 0.08 0.91
-9.50 0.10 0.91
-9.42 0.13 0.91
-9.13 0.14 0.95
-8.69 0.16 1.01
-8.74 0.18 1.00
-8.77 0.20 1.00
-9.30 0.24 0.93
-8.80 0.25 0.99
-9.47 0.29 0.91
-7.90 0.26 1.11
-7.73 0.28 1.13
-8.40 0.32 1.04
-7.84 0.32 1.12
-7.72 0.34 1.13
-9.85 0.45 0.86
-7.82 0.38 1.12
-8.73 0.44 1.00
-8.62 0.46 1.01
-4.06 0.24 1.60
-9.04 0.52 0.96
-8.33 0.51 1.05
-8.49 0.54 1.03
-8.33 0.55 1.05
-8.06 0.55 1.08
-7.67 0.55 1.13
-7.93 0.58 1.10
-7.70 0.61 1.13
-7.90 0.64 1.10
-8.57 0.71 1.01
-8.38 0.72 1.04
-8.67 0.79 1.00
-8.25 0.77 1.05
-7.95 0.77 1.09
-7.64 0.78 1.13
-8.91 0.92 0.97
-7.73 0.82 1.12
-8.40 0.91 1.03
-7.56 0.85 1.14
-7.71 0.88 1.12
-7.66 0.90 1.13
-7.66 0.91 1.13
-9.11 1.10 0.94
-9.49 1.17 0.89
-8.84 1.14 0.97
-7.62 1.01 1.13
-8.98 1.20 0.95
-8.40 1.17 1.02
-8.15 1.16 1.06
-8.22 1.23 1.04
-8.36 1.31 1.02
-8.13 1.30 1.05
-8.27 1.34 1.04
-8.32 1.39 1.03
-8.34 1.42 1.02
-8.47 1.46 1.01
-8.06 1.44 1.06
-8.32 1.50 1.02
-8.42 1.54 1.01
-8.42 1.56 1.01
-8.33 1.57 1.02
-8.09 1.55 1.05
-8.15 1.58 1.04
-8.07 1.59 1.05
-8.00 1.66 1.06
-3.44 1.18 1.64
-1.03 -1.06 1.73
-5.76 -1.22 1.15
-5.86 -1.21 1.13
-5.76 -1.18 1.15
-5.68 -1.15 1.16
-5.70 -1.13 1.15
-6.00 -1.15 1.12
-5.58 -1.07 1.17
-5.85 -1.09 1.14
-5.86 -1.07 1.13
-6.02 -1.07 1.12
-5.68 -1.01 1.16
-5.68 -0.99 1.16
-5.80 -0.98 1.14
-6.28 -1.02 1.08
-6.16 -0.98 1.10
-6.00 -0.94 1.12
-6.43 -0.97 1.06
-6.47 -0.95 1.06
-6.66 -0.95 1.04
-6.72 -0.93 1.03
-5.90 -0.83 1.13
-5.51 -0.77 1.18
-5.74 -0.78 1.15
-5.99 -0.78 1.12
-5.87 -0.75 1.13
-5.91 -0.73 1.13
-5.98 -0.72 1.12
-5.53 -0.66 1.18
-6.13 -0.67 1.10
-6.36 -0.66 1.07
-6.25 -0.57 1.09
-6.62 -0.55 1.04
-6.47 -0.50 1.06
-6.97 -0.50 1.00
-6.29 -0.36 1.08
-6.14 -0.33 1.10
-5.96 -0.31 1.12
-6.06 -0.29 1.11
-5.87 -0.26 1.13
-5.53 -0.23 1.17
-5.61 -0.22 1.16
-5.53 -0.19 1.17
-5.39 -0.17 1.19
-5.75 -0.16 1.15
-5.81 -0.14 1.14
-5.91 -0.12 1.13
-5.23 -0.09 1.21
-6.16 -0.08 1.09
-5.78 -0.06 1.14
-5.67 -0.04 1.15
-6.03 0.01 1.31
-8.73 0.03 0.94
-9.56 0.08 0.83
-8.75 0.09 0.93
-8.98 0.12 0.90
-9.69 0.15 0.81
-8.61 0.16 0.95
-8.61 0.20 0.95
-7.84 0.22 1.06
-8.24 0.25 1.00
-8.01 0.27 1.03
-9.45 0.36 0.84
-9.26 0.38 0.86
-9.54 0.41 0.82
-9.51 0.46 0.83
-9.33 0.47 0.85
-9.37 0.50 0.84
-9.45 0.55 0.83
-9.20 0.56 0.87
-8.56 0.54 0.95
-8.01 0.55 1.03
-9.08 0.64 0.88
-7.66 0.57 1.07
-7.38 0.56 1.11
-8.90 0.70 0.90
-8.88 0.72 0.91
-8.82 0.73 0.91
-9.23 0.81 0.86
-8.87 0.80 0.91
-8.78 0.82 0.92
-8.72 0.84 0.93
-8.93 0.88 0.90
-7.77 0.79 1.05
-7.60 0.79 1.08
-8.45 0.96 0.96
-9.05 1.16 0.87
-8.80 1.16 0.91
-8.83 1.18 0.90
-8.35 1.25 0.96
-8.40 1.28 0.96
-8.28 1.28 0.97
-8.20 1.29 0.98
-8.29 1.33 0.97
-8.11 1.32 0.99
-8.22 1.36 0.98
-8.22 1.40 0.98
-9.13 1.57 0.85
-8.96 1.57 0.87
-8.64 1.54 0.91
-8.54 1.54 0.93
-8.73 1.59 0.90
-8.59 1.59 0.92
-8.27 1.58 0.96
-8.02 1.64 0.99
-8.12 1.68 0.98
-3.70 1.23 1.58
-6.18 -1.55 1.03
-5.68 -1.35 1.09
-5.77 -1.28 1.08
-5.66 -1.24 1.10
-5.57 -1.21 1.11
-5.77 -1.22 1.08
-5.77 -1.20 1.08
-5.56 -1.15 1.11
-5.75 -1.16 1.09
-5.56 -1.11 1.11
-5.68 -1.11 1.10
-5.85 -1.11 1.07
-6.48 -1.17 0.99
-6.00 -1.09 1.05
-6.17 -1.09 1.03
-5.78 -1.02 1.08
-5.78 -1.00 1.08
-5.87 -0.99 1.07
-5.96 -0.98 1.06
-5.81 -0.94 1.08
-5.81 -0.92 1.08
-5.94 -0.92 1.06
-6.06 -0.91 1.05
-6.08 -0.89 1.04
-6.62 -0.92 0.97
-6.68 -0.91 0.97
-5.74 -0.80 1.09
-5.83 -0.78 1.08
-5.68 -0.75 1.10
-5.67 -0.73 1.10
-5.73 -0.72 1.09
-6.38 -0.75 1.01
-7.08 -0.79 0.91
-6.05 -0.68 1.05
-6.48 -0.69 0.99
-6.15 -0.65 1.03
-5.39 -0.57 1.13
-6.33 -0.62 1.01
-5.73 -0.56 1.09
-6.73 -0.60 0.96
-6.51 -0.57 0.99
-6.76 -0.56 0.95
-6.98 -0.55 0.93
-7.04 -0.53 0.92
-7.03 -0.51 0.92
-8.18 -0.54 0.77
-5.98 -0.41 1.06
-6.09 -0.39 1.04
-6.28 -0.38 1.02
-5.95 -0.35 1.06
-5.87 -0.32 1.07
-5.94 -0.31 1.06
-5.90 -0.28 1.07
-5.98 -0.27 1.06
-5.44 -0.21 1.13
-5.44 -0.17 1.13
-9.46 -0.11 0.84
-9.50 -0.09 0.83
-8.70 -0.01 0.94
-6.54 -0.00 0.91
-6.44 0.02 0.93
-6.62 0.04 0.90
-6.22 0.12 0.96
-6.43 0.15 0.93
-8.78 0.21 0.60
-6.34 0.19 0.94
-6.31 0.21 0.94
-7.80 0.22 1.00
-7.84 0.24 1.00
-7.71 0.26 1.02
-7.49 0.27 1.05
-9.43 0.36 0.77
-9.41 0.38 0.77
-9.17 0.39 0.81
-9.36 0.43 0.78
-9.28 0.44 0.79
-9.12 0.46 0.81
-9.02 0.48 0.83
-7.53 0.44 1.04
-9.20 0.65 0.80
-9.58 0.70 0.74
-8.78 0.66 0.86
-8.83 0.69 0.85
-9.17 0.74 0.80
-8.71 0.72 0.86
-8.76 0.75 0.86
-3.53 0.33 1.61
-8.66 0.79 0.87
-8.74 0.84 0.86
-7.48 0.74 1.04
-7.46 0.76 1.04
-7.51 0.78 1.03
-7.35 0.78 1.06
-7.45 0.81 1.04
-8.34 1.03 0.91
-8.44 1.06 0.89
-8.36 1.08 0.90
-8.60 1.13 0.87
-8.89 1.19 0.83
-8.16 1.16 0.93
-8.33 1.20 0.90
-8.79 1.29 0.84
-8.54 1.27 0.87
-8.14 1.24 0.93
-8.69 1.36 0.85
-8.53 1.36 0.87
-8.71 1.41 0.85
-6.31 1.06 1.19
-8.39 1.40 0.89
-8.61 1.46 0.86
-8.93 1.54 0.81
-8.80 1.54 0.83
-8.52 1.51 0.87
-8.36 1.51 0.89
-8.23 1.51 0.91
-8.37 1.55 0.89
-8.16 1.54 0.92
-8.15 1.56 0.92
-8.27 1.60 0.90
-8.46 1.65 0.87
-8.41 1.67 0.88
-8.29 1.67 0.89
-8.20 1.67 0.91
-8.09 1.67 0.92
-7.92 1.68 0.94
-3.41 0.89 1.60
-3.44 0.90 1.60
-2.34 -1.17 1.50
-5.83 -1.41 1.01
-5.86 -1.35 1.01
-5.73 -1.31 1.03
-5.72 -1.29 1.03
-5.62 -1.25 1.04
-5.65 -1.24 1.04
-5.62 -1.22 1.04
-5.63 -1.20 1.04
-5.70 -1.19 1.03
-5.57 -1.15 1.05
-5.78 -1.10 1.02
-5.61 -1.06 1.05
-5.94 -1.08 1.00
-5.71 -1.03 1.03
-6.07 -1.05 0.98
-5.97 -1.02 1.00
-5.76 -0.98 1.03
-5.94 -0.98 1.00
-5.91 -0.95 1.01
-5.91 -0.93 1.01
-6.19 -0.94 0.97
-6.33 -0.94 0.95
-6.63 -0.95 0.91
-6.54 -0.91 0.92
-6.61 -0.90 0.91
-6.71 -0.89 0.90
-6.34 -0.83 0.95
-6.46 -0.82 0.93
-5.73 -0.73 1.03
-6.59 -0.79 0.91
-6.68 -0.73 0.90
-7.04 -0.74 0.85
-6.72 -0.69 0.89
-6.68 -0.66 0.90
-6.67 -0.62 0.90
-6.60 -0.59 0.91
-4.94 -0.45 1.14
-6.79 -0.54 0.88
-6.37 -0.49 0.94
-6.42 -0.47 0.94
-6.44 -0.43 0.93
-6.34 -0.38 0.95
-6.27 -0.17 0.95
-6.32 -0.15 0.95
-6.97 -0.14 0.86
-6.33 -0.09 0.95
-8.11 0.01 0.90
-8.97 0.03 0.76
-8.93 0.05 0.77
-8.92 0.07 0.77
-8.76 0.09 0.80
-8.96 0.12 0.77
-8.00 0.13 0.91
-9.03 0.16 0.75
-7.70 0.16 0.95
-7.56 0.18 0.97
-9.12 0.26 0.74
-7.28 0.23 1.02
-7.47 0.25 0.99
-7.70 0.28 0.95
-7.32 0.28 1.01
-9.45 0.38 0.69
-9.40 0.40 0.69
-9.53 0.43 0.67
-9.57 0.46 0.67
-9.55 0.48 0.67
-9.34 0.49 0.70
-9.25 0.51 0.71
-9.29 0.54 0.71
-9.70 0.58 0.65
-9.64 0.61 0.65
-9.65 0.63 0.65
-9.53 0.65 0.67
-9.78 0.69 0.63
-8.66 0.63 0.80
-9.13 0.69 0.73
-8.79 0.69 0.78
-8.96 0.72 0.75
-8.54 0.71 0.82
-8.25 1.09 0.85
-8.92 1.24 0.75
-6.18 0.91 1.16
-8.47 1.24 0.81
-8.75 1.30 0.77
-8.78 1.33 0.76
-5.91 0.94 1.20
-6.25 1.00 1.15
-6.71 1.09 1.08
-8.22 1.34 0.85
-6.31 1.06 1.14
-6.47 1.10 1.11
-6.55 1.15 1.10
-8.36 1.47 0.82
-8.05 1.44 0.87
-8.33 1.50 0.82
-8.12 1.49 0.86
-8.11 1.51 0.86
-8.12 1.53 0.85
-8.13 1.56 0.85
-8.06 1.56 0.86
-8.15 1.60 0.85
-8.07 1.61 0.86
-8.12 1.64 0.85
-8.05 1.65 0.86
-7.98 1.65 0.87
-5.71 -1.31 0.96
-5.52 -1.26 0.99
-5.50 -1.22 1.00
-5.47 -1.18 1.00
-3.37 -0.84 1.31
-5.66 -1.15 0.97
-5.57 -1.11 0.99
-5.55 -1.07 0.99
-6.40 -1.14 0.86
-5.85 -1.03 0.95
-5.81 -1.00 0.95
-5.84 -0.99 0.95
-6.01 -0.97 0.92
-6.38 -0.97 0.87
-6.43 -0.93 0.86
-6.60 -0.92 0.84
-6.74 -0.91 0.82
-6.40 -0.84 0.87
-6.41 -0.80 0.87
-3.19 -0.49 1.34
-3.35 -0.48 1.31
-5.99 -0.68 0.93
-6.69 -0.69 0.82
-5.14 -0.50 1.05
-6.54 -0.57 0.85
-6.21 -0.21 1.18
-6.42 -0.21 1.15
-6.35 -0.19 1.16
-7.01 -0.19 1.06
-7.52 -0.18 0.99
-7.72 -0.17 0.96
-8.61 -0.16 0.82
-7.63 -0.13 0.97
-7.66 -0.11 0.96
-8.03 -0.09 0.91
-8.08 -0.07 0.90
-7.98 -0.05 0.91
-9.04 -0.02 0.75
-6.33 0.02 0.81
-6.54 0.19 0.78
-8.66 0.34 0.45
-9.01 0.38 0.39
-9.98 0.48 0.53
-9.83 0.49 0.56
-9.83 0.52 0.56
-9.87 0.54 0.55
-7.46 0.47 0.93
-9.77 0.64 0.56
-9.94 0.67 0.54
-7.38 0.52 0.94
-9.20 0.67 0.65
-9.93 0.74 0.54
-9.79 0.78 0.56
-9.97 0.82 0.53
-10.09 0.93 0.51
-8.24 1.12 0.79
-8.72 1.21 0.71
-8.83 1.25 0.69
-8.86 1.36 0.69
-3.51 0.83 1.53
-1.33 -0.65 1.58
-5.38 -1.26 0.96
-5.51 -1.26 0.94
-5.59 -1.01 0.93
-6.21 -1.05 0.83
-6.53 -1.02 0.78
-6.42 -0.99 0.80
-6.65 -0.99 0.77
-6.33 -0.94 0.82
-6.85 -0.95 0.74
-6.86 -0.92 0.73
-6.52 -0.85 0.79
-6.95 -0.84 0.72
-7.16 -0.84 0.69
-7.32 -0.71 0.66
-6.74 -0.65 0.75
-6.48 -0.61 0.79
-6.57 -0.59 0.78
-6.53 -0.50 0.79
-6.37 -0.24 0.81
-6.29 -0.15 0.82
-6.36 -0.13 0.81
-6.54 -0.09 0.78
-6.55 -0.07 0.78
-6.31 -0.05 0.82
-8.76 0.07 0.65
-7.53 0.12 0.86
-7.47 0.14 0.87
-7.49 0.16 0.86
-6.99 0.18 0.95
-6.85 0.19 0.97
-6.79 0.23 0.98
-6.88 0.25 0.96
-7.25 0.28 0.90
-7.08 0.29 0.93
-7.00 0.31 0.94
-6.86 0.32 0.97
-7.00 0.34 0.94
-9.53 0.48 0.52
-6.91 0.37 0.96
-9.70 0.54 0.49
-7.08 0.42 0.93
-7.25 0.44 0.90
-9.59 0.60 0.51
-9.58 0.63 0.51
-8.66 0.70 0.66
-8.68 0.72 0.65
-8.23 1.15 0.72
-8.23 1.17 0.72
-6.08 0.90 1.08
-5.98 0.90 1.09
-8.33 1.25 0.70
-8.30 1.26 0.70
-8.73 1.35 0.63
-8.39 1.32 0.68
-8.97 1.45 0.58
-6.24 1.05 1.04
-8.02 1.39 0.74
-8.16 1.43 0.72
-8.30 1.48 0.69
-7.90 1.45 0.76
-7.75 1.47 0.78
-7.91 1.52 0.75
-7.80 1.52 0.77
-3.99 0.87 1.42
-7.74 1.65 0.78
-5.29 -1.25 0.90
-5.65 -1.26 0.85
-5.64 -1.24 0.85
-5.81 -1.23 0.82
-5.60 -1.18 0.86
-5.65 -1.15 0.85
-5.57 -1.12 0.86
-5.46 -1.08 0.88
-2.20 -0.63 1.41
-5.67 -1.07 0.85
-6.02 -1.09 0.79
-5.74 -1.04 0.83
-5.73 -1.02 0.84
-6.60 -1.10 0.69
-6.64 -0.91 0.69
-6.58 -0.88 0.70
-6.62 -0.86 0.69
-3.41 -0.55 1.21
-6.50 -0.81 0.71
-3.04 -0.49 1.27
-6.55 -0.77 0.70
-3.27 -0.48 1.23
-2.75 -0.41 1.32
-6.48 -0.63 0.72
-6.82 -0.39 0.98
-7.13 -0.39 0.93
-6.26 -0.33 1.07
-6.07 -0.30 1.11
-6.82 -0.32 0.98
-6.43 -0.29 1.05
-6.78 -0.29 0.99
-6.42 -0.25 1.05
-6.73 -0.25 1.00
-6.56 -0.23 1.02
-7.13 -0.23 0.93
-7.05 -0.21 0.94
-7.26 -0.20 0.91
-7.22 -0.18 0.91
-7.20 -0.16 0.92
-7.07 -0.14 0.94
-7.04 -0.12 0.94
-6.89 -0.10 0.97
-6.90 -0.08 0.97
-7.30 -0.07 0.90
-7.56 -0.05 0.86
-7.69 -0.03 0.83
-7.49 0.06 0.80
-7.19 0.08 0.86
-6.92 0.09 0.90
-7.36 0.12 0.83
-7.06 0.13 0.88
-6.98 0.14 0.89
-7.02 0.16 0.88
-6.79 0.18 0.92
-6.59 0.19 0.96
-6.69 0.21 0.94
-6.69 0.22 0.94
-7.16 0.26 0.86
-6.89 0.26 0.91
-6.94 0.28 0.90
-7.18 0.31 0.85
-9.89 0.45 0.38
-6.80 0.33 0.92
-9.73 0.49 0.41
-8.81 0.47 0.57
-3.69 0.22 1.46
-9.44 0.54 0.46
-9.28 0.56 0.48
-9.02 0.57 0.53
-8.70 0.57 0.58
-8.63 0.59 0.59
-8.44 0.62 0.63
-8.60 0.65 0.60
-3.74 0.34 1.45
-9.40 0.87 0.46
-9.28 0.88 0.48
-6.23 0.87 1.00
-6.15 0.89 1.01
-8.52 1.23 0.59
-8.20 1.20 0.65
-9.49 1.41 0.42
-6.06 0.95 1.03
-8.73 1.39 0.55
-8.00 1.30 0.68
-8.52 1.40 0.59
-8.18 1.37 0.65
-7.79 1.35 0.72
-7.99 1.46 0.68
-7.67 1.45 0.73
-7.92 1.54 0.68
-3.85 0.81 1.41
-3.93 0.84 1.39
-3.66 1.07 1.43
-3.55 1.05 1.45
-3.60 1.09 1.44
-3.53 1.10 1.45
-3.33 1.13 1.48
-5.33 -1.64 0.83
-1.75 -0.80 1.44
-5.73 -1.29 0.77
-5.13 -1.15 0.87
-5.61 -1.20 0.79
-5.54 -1.17 0.80
-5.26 -1.11 0.85
-5.53 -1.13 0.80
-5.37 -1.09 0.83
-5.31 -1.06 0.84
-5.45 -1.04 0.82
-5.60 -1.04 0.79
-2.70 -0.65 1.28
-5.43 -0.96 0.82
-2.53 -0.60 1.31
-2.62 -0.59 1.30
-2.69 -0.58 1.29
-3.17 -0.58 1.21
-2.88 -0.54 1.25
-3.25 -0.56 1.19
-2.83 -0.51 1.26
-3.26 -0.53 1.19
-3.04 -0.50 1.23
-3.05 -0.49 1.22
-3.12 -0.48 1.21
-3.00 -0.46 1.23
-2.98 -0.44 1.24
-3.10 -0.44 1.22
-2.91 -0.41 1.25
-3.01 -0.40 1.23
-3.09 -0.40 1.22
-3.11 -0.38 1.22
-2.89 -0.34 1.25
-7.31 0.00 0.77
-7.29 0.02 0.78
-7.09 0.04 0.81
-6.83 0.06 0.86
-7.01 0.07 0.83
-6.84 0.09 0.86
-6.66 0.10 0.89
-6.74 0.12 0.88
-7.04 0.15 0.82
-6.87 0.16 0.85
-6.87 0.18 0.85
-6.91 0.20 0.84
-6.94 0.21 0.84
-6.82 0.23 0.86
-6.74 0.24 0.87
-9.52 0.36 0.36
-6.65 0.27 0.89
-8.63 0.39 0.53
-8.56 0.41 0.54
-8.80 0.44 0.49
-8.82 0.47 0.49
-9.66 0.56 0.33
-8.84 0.53 0.48
-8.70 0.55 0.51
-8.75 0.57 0.50
-9.46 0.64 0.37
-9.10 0.64 0.43
-8.95 0.65 0.46
-9.57 0.72 0.35
-9.46 0.73 0.37
-9.18 0.76 0.42
-7.88 1.10 0.64
-7.74 1.34 0.66
-7.77 1.39 0.65
-7.68 1.51 0.66
-5.24 -1.66 0.78
-5.22 -1.63 0.78
-5.32 -1.63 0.77
-5.37 -1.63 0.76
-5.22 -1.58 0.78
-5.19 -1.55 0.79
-5.18 -1.51 0.79
-4.94 -1.37 0.84
-5.58 -1.31 0.73
-5.39 -1.22 0.76
-5.29 -1.19 0.78
-5.25 -1.16 0.78
-5.22 -1.14 0.79
-3.18 -0.83 1.15
-5.41 -1.13 0.76
-3.00 -0.78 1.19
-5.07 -1.05 0.82
-2.93 -0.74 1.20
-2.92 -0.73 1.20
-2.83 -0.70 1.22
-2.90 -0.70 1.20
-3.06 -0.70 1.18
-2.96 -0.68 1.19
-3.02 -0.67 1.18
-2.76 -0.63 1.23
-2.65 -0.60 1.25
-3.07 -0.62 1.17
-2.95 -0.58 1.20
-3.16 -0.59 1.16
-3.11 -0.57 1.17
-3.05 -0.56 1.18
-3.03 -0.54 1.18
-3.08 -0.53 1.17
-2.99 -0.51 1.19
-3.16 -0.51 1.16
-3.15 -0.50 1.16
-3.15 -0.48 1.16
-3.06 -0.46 1.18
-3.10 -0.45 1.17
-3.02 -0.43 1.18
-3.23 -0.43 1.15
-3.37 -0.43 1.12
-3.41 -0.42 1.11
-3.16 -0.39 1.16
-3.81 -0.42 1.04
-3.63 -0.39 1.07
-3.78 -0.38 1.05
-7.09 -0.10 0.81
-7.28 -0.09 0.78
-7.17 -0.07 0.80
-7.16 -0.05 0.80
-7.39 -0.03 0.76
-7.53 -0.01 0.73
-6.79 0.19 0.80
-6.96 0.21 0.77
-6.93 0.23 0.78
-6.84 0.24 0.79
-7.06 0.27 0.75
-6.86 0.28 0.79
-7.11 0.31 0.74
-8.50 0.43 0.47
-8.86 0.51 0.40
-9.01 0.56 0.37
-9.09 0.59 0.36
-8.87 0.62 0.40
-8.66 0.63 0.44
-8.85 0.67 0.40
-1.38 -0.68 1.44
-1.73 -0.73 1.38
-1.64 -0.69 1.39
-1.52 -0.66 1.42
-5.07 -1.19 0.75
-2.81 -0.83 1.18
-5.07 -1.14 0.75
-5.18 -1.12 0.73
-2.38 -0.65 1.26
-2.33 -0.64 1.27
-2.65 -0.66 1.21
-2.51 -0.63 1.23
-2.42 -0.61 1.25
-2.70 -0.63 1.20
-2.67 -0.62 1.20
-2.44 -0.58 1.25
-2.40 -0.56 1.25
-2.31 -0.54 1.27
-2.23 -0.52 1.28
-2.28 -0.51 1.28
-2.67 -0.54 1.20
-2.71 -0.53 1.19
-2.75 -0.52 1.19
-2.79 -0.52 1.18
-2.96 -0.52 1.15
-2.94 -0.50 1.15
-2.95 -0.49 1.15
-2.91 -0.47 1.16
-2.94 -0.46 1.15
-2.77 -0.44 1.18
-2.69 -0.42 1.20
-2.78 -0.41 1.18
-3.31 -0.44 1.08
-3.03 -0.40 1.14
-3.21 -0.40 1.10
-3.57 -0.41 1.03
-3.07 -0.37 1.13
-3.81 -0.40 0.99
-3.89 -0.39 0.97
-3.79 -0.37 0.99
-3.80 -0.35 0.99
-7.20 0.00 0.66
-7.19 0.02 0.66
-7.14 0.04 0.67
-6.99 0.06 0.70
-6.72 0.07 0.75
-6.76 0.09 0.75
-6.69 0.10 0.76
-6.79 0.12 0.74
-6.75 0.14 0.75
-6.60 0.15 0.78
-6.84 0.18 0.73
-6.78 0.19 0.74
-6.87 0.21 0.72
-6.84 0.23 0.73
-6.88 0.25 0.72
-6.88 0.26 0.72
-8.51 0.49 0.39
-8.44 0.51 0.40
-8.81 0.55 0.33
-8.24 0.58 0.44
-8.69 0.70 0.35
-8.94 0.74 0.29
-8.66 0.74 0.35
-8.35 0.76 0.41
-8.29 0.77 0.42
-7.95 0.76 0.49
-7.86 0.80 0.51
-7.79 1.23 0.50
-7.86 1.26 0.49
-6.99 1.50 0.65
-7.36 1.63 0.57
-5.09 -1.69 0.66
-5.10 -1.67 0.66
-5.21 -1.67 0.64
-5.06 -1.62 0.67
-5.03 -1.60 0.68
-5.09 -1.59 0.67
-5.11 -1.58 0.66
-4.83 -1.48 0.72
-5.01 -1.37 0.69
-4.94 -1.34 0.70
-4.88 -1.31 0.72
-5.15 -1.32 0.66
-2.68 -0.84 1.15
-2.86 -0.81 1.11
-2.96 -0.81 1.10
-2.75 -0.77 1.14
-2.80 -0.76 1.13
-2.68 -0.74 1.15
-2.70 -0.73 1.14
-2.61 -0.70 1.16
-2.60 -0.69 1.17
-2.54 -0.67 1.18
-2.59 -0.66 1.17
-2.60 -0.65 1.16
-2.74 -0.65 1.14
-2.55 -0.62 1.17
-2.65 -0.62 1.16
-2.59 -0.60 1.17
-2.47 -0.57 1.19
-2.33 -0.54 1.22
-2.44 -0.54 1.20
-2.69 -0.56 1.15
-2.74 -0.55 1.14
-2.69 -0.53 1.15
-3.15 -0.57 1.06
-2.78 -0.52 1.13
-2.99 -0.52 1.09
-3.25 -0.53 1.04
-3.13 -0.51 1.06
-3.61 -0.54 0.97
-3.29 -0.50 1.03
-3.29 -0.48 1.03
-3.49 -0.48 0.99
-3.45 -0.47 1.00
-3.58 -0.46 0.98
-3.86 -0.45 0.92
-4.00 -0.45 0.89
-3.94 -0.41 0.90
-3.97 -0.40 0.90
-3.95 -0.36 0.90
-6.84 -0.25 0.73
-6.52 -0.23 0.80
-6.72 -0.22 0.76
-7.18 -0.21 0.67
-7.00 -0.19 0.70
-7.11 -0.18 0.68
-6.93 -0.15 0.72
-6.69 -0.13 0.76
-6.90 -0.12 0.72
-6.91 -0.10 0.72
-7.15 -0.09 0.67
-7.05 -0.07 0.69
-6.91 -0.05 0.72
-7.12 -0.03 0.68
-6.94 -0.01 0.71
-8.04 0.44 0.42
-8.42 0.51 0.34
-8.14 0.51 0.39
-7.96 0.60 0.43
-8.16 0.63 0.39
-7.88 0.63 0.44
-7.98 0.70 0.42
-8.31 0.77 0.35
-8.11 0.77 0.39
-5.11 -1.66 0.60
-1.29 -0.72 1.39
-4.94 -1.34 0.64
-1.39 -0.68 1.37
-1.59 -0.71 1.33
-1.53 -0.68 1.35
-1.66 -0.69 1.32
-1.26 -0.61 1.40
-2.06 -0.72 1.24
-2.46 -0.75 1.16
-1.97 -0.67 1.26
-2.38 -0.70 1.17
-2.17 -0.66 1.22
-2.16 -0.65 1.22
-2.19 -0.64 1.21
-2.07 -0.61 1.24
-2.05 -0.60 1.24
-2.17 -0.60 1.22
-2.06 -0.58 1.24
-2.25 -0.59 1.20
-2.23 -0.58 1.20
-2.28 -0.57 1.19
-2.13 -0.54 1.22
-2.35 -0.56 1.18
-2.12 -0.52 1.23
-2.09 -0.50 1.23
-2.22 -0.51 1.20
-2.36 -0.51 1.18
-2.25 -0.49 1.20
-2.27 -0.48 1.19
-0.80 -0.33 1.49
-1.20 -0.36 1.41
-0.63 -0.29 1.53
-2.62 -0.46 1.12
-2.55 -0.44 1.14
-2.88 -0.46 1.07
-3.15 -0.47 1.02
-3.56 -0.49 0.93
-3.46 -0.46 0.95
-3.52 -0.46 0.94
-3.61 -0.45 0.92
-3.31 -0.41 0.98
-3.91 -0.44 0.86
-3.69 -0.41 0.91
-3.42 -0.36 0.96
-7.81 0.63 0.37
-7.79 0.67 0.38
-7.79 0.69 0.38
-7.69 0.70 0.40
-6.79 1.26 0.57
-6.66 1.27 0.59
-6.58 1.27 0.61
-6.54 1.37 0.61
-6.48 1.38 0.63
-6.77 1.45 0.56
-7.00 1.52 0.51
-4.96 -1.68 0.55
-5.03 -1.66 0.54
-2.60 -1.05 1.06
-2.28 -0.94 1.13
-2.63 -0.99 1.06
-3.02 -1.00 0.98
-2.53 -0.89 1.08
-2.75 -0.91 1.04
-2.49 -0.86 1.09
-2.71 -0.87 1.05
-2.53 -0.83 1.08
-2.40 -0.79 1.11
-2.35 -0.76 1.12
-2.43 -0.76 1.11
-2.54 -0.77 1.08
-2.45 -0.73 1.10
-2.53 -0.73 1.08
-2.39 -0.70 1.12
-2.57 -0.70 1.08
-2.25 -0.64 1.14
-2.28 -0.63 1.14
-2.32 -0.63 1.13
-2.30 -0.61 1.13
-2.20 -0.59 1.16
-2.38 -0.60 1.12
-2.34 -0.58 1.13
-2.36 -0.57 1.12
-2.59 -0.59 1.07
-2.60 -0.58 1.07
-2.58 -0.55 1.07
-2.70 -0.55 1.05
-2.60 -0.53 1.07
-2.57 -0.51 1.08
-2.77 -0.52 1.03
-3.21 -0.55 0.94
-3.38 -0.55 0.90
-3.44 -0.54 0.89
-3.40 -0.52 0.90
-3.33 -0.50 0.92
-3.36 -0.49 0.91
-3.46 -0.47 0.89
-3.35 -0.45 0.91
-3.25 -0.42 0.93
-3.26 -0.40 0.93
-3.24 -0.38 0.93
-3.53 -0.39 0.87
-3.64 -0.36 0.85
-6.48 -0.37 0.68
-6.65 -0.35 0.65
-6.55 -0.31 0.67
-6.70 -0.30 0.63
-6.55 -0.28 0.67
-6.66 -0.27 0.64
-6.55 -0.25 0.67
-6.55 -0.23 0.67
-6.40 -0.21 0.70
-6.49 -0.16 0.68
-6.44 -0.14 0.69
-6.64 -0.13 0.65
-6.58 -0.11 0.66
-6.63 -0.10 0.65
-6.62 -0.08 0.65
-6.55 -0.06 0.66
-6.52 -0.05 0.67
-6.58 -0.03 0.66
-6.54 -0.01 0.67
-1.84 -0.94 1.19
-2.35 -1.00 1.07
-2.09 -0.91 1.13
-2.16 -0.90 1.12
-2.40 -0.93 1.06
-2.85 -1.00 0.96
-2.85 -0.99 0.96
-2.22 -0.87 1.11
-2.50 -0.89 1.04
-2.45 -0.87 1.05
-2.28 -0.83 1.09
-2.17 -0.80 1.12
-2.26 -0.80 1.10
-2.17 -0.78 1.12
-2.31 -0.79 1.09
-2.33 -0.78 1.08
-2.13 -0.74 1.13
-2.34 -0.76 1.08
-2.28 -0.74 1.10
-2.41 -0.74 1.07
-2.24 -0.71 1.10
-2.18 -0.69 1.12
-2.10 -0.66 1.14
-2.13 -0.66 1.13
-1.83 -0.61 1.19
-1.92 -0.61 1.17
-1.99 -0.60 1.16
-1.91 -0.58 1.18
-2.12 -0.60 1.13
-2.02 -0.58 1.15
-2.10 -0.58 1.13
-2.26 -0.58 1.10
-2.23 -0.57 1.11
-2.13 -0.54 1.13
-3.11 -0.62 0.91
-3.50 -0.64 0.82
-3.14 -0.59 0.90
-3.20 -0.59 0.89
-3.27 -0.58 0.87
-3.23 -0.56 0.88
-3.22 -0.55 0.89
-3.49 -0.56 0.83
-3.34 -0.53 0.86
-3.50 -0.53 0.82
-3.45 -0.51 0.83
-3.49 -0.50 0.83
-3.25 -0.46 0.88
-3.30 -0.45 0.87
-3.23 -0.43 0.88
-3.25 -0.42 0.88
-3.19 -0.40 0.89
-3.44 -0.41 0.84
-3.27 -0.38 0.87
-3.19 -0.36 0.89
-3.29 -0.36 0.87
-3.21 -0.34 0.89
-3.08 -0.32 0.92
-3.30 -0.31 0.87
-3.09 -0.29 0.91
-3.23 -0.28 0.88
-3.24 -0.27 0.88
-3.31 -0.24 0.86
-6.35 1.01 0.54
-6.37 1.03 0.54
-6.40 1.07 0.53
-6.72 1.14 0.45
-6.54 1.16 0.49
-6.85 1.27 0.41
-6.78 1.31 0.43
-6.84 1.34 0.41
-2.34 -0.85 1.03
-2.30 -0.76 1.04
-2.38 -0.77 1.02
-2.46 -0.77 1.00
-2.50 -0.76 0.99
-2.39 -0.71 1.02
-2.20 -0.67 1.07
-3.77 -0.69 0.70
-3.81 -0.68 0.69
-3.81 -0.66 0.69
-3.38 -0.59 0.79
-3.46 -0.58 0.77
-3.42 -0.57 0.78
-3.49 -0.56 0.77
-3.56 -0.55 0.75
-3.26 -0.51 0.82
-3.32 -0.50 0.81
-3.23 -0.48 0.83
-3.52 -0.39 0.76
-3.62 -0.35 0.74
-2.34 1.44 1.16
-12.81 1.35 1.83
-12.70 1.21 1.66
-12.58 1.45 1.67
-12.43 -0.07 1.69
-14.36 1.61 1.54
-12.55 1.50 1.62
-12.42 1.37 1.57
-12.10 1.21 1.54
-11.92 0.99 1.50
-12.23 1.04 1.48
-13.69 0.19 1.28
-13.31 0.47 1.31
-13.71 0.52 1.28
-13.85 0.59 1.27
-11.53 0.95 1.41
-12.84 1.47 1.32
-13.76 0.52 1.20
-13.56 0.55 1.22
-13.30 0.24 1.17
-13.09 0.27 1.18
-13.31 0.31 1.17
-13.20 0.34 1.17
-13.17 0.37 1.17
-13.62 0.48 1.14
-13.56 0.51 1.14
-10.66 0.51 1.36
-10.89 0.55 1.34
-10.63 0.38 1.24
-13.54 0.61 0.99
-10.63 0.51 1.24
-13.95 0.70 0.96
-10.29 0.34 1.21
-10.82 0.49 1.17
-11.66 0.62 1.09
-11.69 0.65 1.08
-12.00 0.72 1.06
-10.35 0.32 1.15
-10.34 0.37 1.15
-10.18 0.39 1.16
-10.85 0.44 1.10
-11.91 0.57 0.99
-12.12 0.67 0.97
-12.21 0.70 0.96
-10.33 0.27 1.08
-10.35 0.32 1.08
-10.50 0.35 1.07
-10.45 0.37 1.07
-11.77 0.71 0.93
-11.86 0.74 0.92
-10.78 0.28 0.96
-10.27 0.47 1.02
-10.29 0.49 0.95
-10.55 0.77 0.91
-10.19 0.49 0.88
-10.15 0.69 0.88
-12.72 1.36 0.56
-10.17 0.56 0.73
-10.13 0.56 0.67
-10.18 0.61 0.66
-10.36 0.65 0.63
-10.23 0.67 0.65
-10.13 0.68 0.66
-10.41 0.62 0.46
-10.11 0.68 0.42
-10.16 0.86 0.41
-8.07 1.11 1.30
-8.05 1.12 1.30
-7.73 1.56 1.32
-8.07 0.96 1.24
-8.07 1.03 1.24
-8.06 1.04 1.24
-8.00 1.08 1.25
-8.06 1.11 1.24
-8.07 1.15 1.24
-8.02 1.27 1.24
-7.94 1.28 1.25
-7.93 1.36 1.25
-7.87 1.43 1.25
-7.89 1.62 1.25
-7.94 1.65 1.24
-8.21 0.67 1.18
-8.08 1.06 1.19
-7.70 1.62 1.21
-8.11 0.68 1.13
-7.96 1.67 1.12
-5.75 -0.00 1.14
-6.15 0.02 1.09
-8.19 0.62 1.07
-8.19 0.73 1.06
-8.00 0.79 1.08
-8.03 1.02 1.08
-7.98 1.09 1.08
-8.06 1.17 1.07
-8.11 1.19 1.06
-8.05 1.23 1.07
-8.04 1.25 1.07
-7.94 1.58 1.07
-7.97 1.61 1.06
-7.90 1.62 1.07
-5.90 -0.02 1.13
-8.28 0.30 1.00
-7.81 0.85 1.05
-7.86 0.88 1.04
-7.77 0.91 1.05
-7.96 0.95 1.02
-7.96 0.97 1.02
-8.08 1.00 1.01
-7.75 0.98 1.05
-8.15 1.12 0.99
-8.07 1.13 1.00
-7.98 1.14 1.02
-7.99 1.16 1.01
-7.98 1.55 1.00
-7.88 1.55 1.02
-7.93 1.58 1.01
-7.90 1.60 1.01
-6.13 -0.25 1.04
-5.85 -0.20 1.07
-5.70 -0.16 1.09
-5.68 -0.14 1.09
-6.01 0.06 0.99
-5.86 0.08 1.01
-6.01 0.10 0.99
-7.84 0.73 0.99
-7.72 0.86 1.00
-7.83 0.89 0.99
-7.82 0.91 0.99
-7.77 0.93 0.99
-8.09 0.98 0.95
-7.91 1.08 0.97
-7.97 1.11 0.96
-6.27 -0.44 0.96
-6.01 -0.39 0.99
-6.06 -0.35 0.98
-5.97 -0.33 1.00
-6.19 -0.32 0.97
-5.97 -0.29 1.00
-6.24 -0.28 0.96
-6.19 -0.25 0.97
-6.06 -0.23 0.98
-6.02 -0.21 0.99
-5.77 -0.18 1.02
-6.08 -0.11 0.98
-5.97 -0.06 0.99
-5.58 -0.04 1.05
-6.16 -0.02 0.97
-8.37 0.22 0.85
-8.28 0.71 0.85
-7.81 0.69 0.93
-7.54 0.69 0.97
-7.54 0.71 0.97
-7.49 0.72 0.97
-7.55 0.75 0.96
-7.65 0.78 0.95
-7.53 0.79 0.97
-7.61 0.81 0.95
-5.50 0.61 1.27
-5.57 0.64 1.26
-5.39 0.63 1.29
-5.48 0.66 1.28
-5.30 0.65 1.30
-5.61 0.70 1.25
-8.02 1.00 0.89
-8.06 1.02 0.88
-5.83 0.77 1.22
-8.17 1.10 0.86
-7.95 1.09 0.89
-7.64 1.09 0.94
-7.99 1.36 0.88
-6.26 -0.53 0.89
-6.03 -0.48 0.92
-5.56 -0.41 0.99
-6.01 -0.39 0.92
-5.87 -0.37 0.94
-5.91 -0.35 0.94
-6.03 -0.31 0.92
-8.39 -0.04 0.85
-8.11 0.28 0.53
-8.17 0.38 0.52
-7.55 0.38 0.62
-7.67 0.41 0.60
-7.94 0.45 0.56
-7.30 0.70 0.95
-7.49 0.78 0.92
-7.39 0.79 0.93
-7.62 0.87 0.90
-7.73 0.94 0.87
-6.45 -0.93 0.80
-6.36 -0.71 0.81
-6.09 -0.54 0.85
-6.28 -0.51 0.82
-6.13 -0.46 0.85
-5.95 -0.43 0.87
-6.24 -0.40 0.83
-6.05 -0.37 0.86
-5.93 -0.35 0.88
-6.04 -0.31 0.86
-5.87 -0.28 0.88
-5.94 -0.27 0.87
-5.88 -0.24 0.88
-6.15 -0.21 0.84
-6.13 -0.17 0.84
-8.13 0.01 0.76
-8.43 0.03 0.71
-8.35 0.05 0.72
-8.31 0.09 0.73
-8.14 0.11 0.76
-7.79 0.18 0.81
-7.68 0.24 0.83
-7.46 0.53 0.86
-8.24 0.60 0.73
-8.30 0.63 0.72
-7.99 0.63 0.77
-7.23 0.64 0.90
-7.32 0.67 0.88
-7.18 0.68 0.90
-7.19 0.70 0.90
-7.42 0.74 0.86
-7.39 0.75 0.87
-7.67 0.80 0.82
-5.14 0.56 1.24
-5.11 0.58 1.25
-5.08 0.59 1.25
-5.24 0.62 1.22
-5.23 0.63 1.23
-5.38 0.66 1.20
-5.42 0.68 1.19
-5.54 0.71 1.17
-5.46 0.71 1.19
-5.48 0.73 1.18
-5.68 0.77 1.15
-5.57 0.77 1.16
-5.62 0.79 1.16
-7.77 1.41 0.78
-7.74 1.44 0.78
-6.57 1.31 0.98
-4.06 1.44 1.37
-6.25 -1.04 0.75
-5.91 -0.98 0.81
-6.22 -0.99 0.76
-6.43 -0.99 0.72
-6.19 -0.95 0.76
-6.43 -0.95 0.72
-6.31 -0.92 0.74
-6.00 -0.87 0.79
-6.30 -0.70 0.74
-6.06 -0.64 0.78
-6.19 -0.63 0.76
-6.06 -0.58 0.78
-5.83 -0.55 0.82
-5.75 -0.52 0.83
-5.69 -0.50 0.84
-5.31 -0.46 0.90
-8.17 -0.02 0.75
-4.80 -0.00 0.92
-5.86 0.02 0.74
-5.97 0.04 0.72
-8.34 0.59 0.65
-8.29 0.65 0.65
-7.65 0.62 0.76
-7.58 0.63 0.78
-7.52 0.67 0.79
-7.27 0.66 0.83
-7.27 0.72 0.83
-7.46 0.76 0.79
-7.74 0.80 0.74
-5.34 0.58 1.16
-5.14 0.58 1.20
-5.19 0.59 1.19
-5.25 0.61 1.18
-5.35 0.64 1.16
-5.58 0.68 1.12
-5.34 0.67 1.16
-5.58 0.71 1.12
-8.00 1.01 0.69
-5.35 0.71 1.16
-5.71 0.77 1.10
-7.50 1.01 0.78
-5.74 0.82 1.09
-6.59 1.13 0.93
-6.51 1.16 0.94
-7.59 1.41 0.75
-4.30 0.92 1.33
-4.10 0.89 1.36
-4.21 0.93 1.34
-4.10 0.92 1.36
-4.19 0.95 1.35
-4.20 0.96 1.34
-4.09 0.95 1.36
-4.25 0.99 1.33
-4.35 1.03 1.31
-4.26 1.02 1.33
-4.28 1.04 1.33
-4.17 1.02 1.34
-4.04 1.01 1.37
-4.10 1.03 1.36
-3.41 1.29 1.45
-5.70 -1.03 0.78
-5.56 -0.94 0.80
-6.09 -0.93 0.71
-6.05 -0.91 0.72
-6.26 -0.91 0.68
-5.93 -0.55 0.74
-5.32 -0.47 0.84
-5.71 -0.48 0.77
-5.36 -0.44 0.83
-5.62 -0.43 0.79
-4.96 -0.38 0.90
-5.17 -0.37 0.86
-5.25 -0.36 0.85
-5.47 -0.35 0.81
-5.12 -0.32 0.87
-5.48 -0.31 0.81
-5.44 -0.29 0.82
-5.44 -0.27 0.82
-5.81 -0.26 0.75
-4.98 -0.22 0.90
-5.02 -0.20 0.89
-4.91 -0.18 0.91
-4.83 -0.16 0.92
-5.45 -0.16 0.82
-5.77 -0.14 0.76
-5.94 -0.13 0.73
-5.94 -0.11 0.73
-5.98 -0.09 0.73
-6.03 -0.07 0.72
-5.97 -0.04 0.73
-5.10 -0.02 0.87
-8.38 0.36 0.57
-7.83 0.44 0.67
-8.17 0.66 0.60
-7.56 0.65 0.71
-7.23 0.64 0.77
-7.32 0.67 0.76
-7.32 0.69 0.76
-7.35 0.71 0.75
-7.67 0.76 0.69
-5.65 0.58 1.06
-5.60 0.59 1.07
-5.53 0.60 1.08
-5.35 0.60 1.11
-5.49 0.63 1.09
-5.40 0.63 1.10
-5.35 0.64 1.11
-5.41 0.66 1.10
-5.47 0.68 1.09
-5.72 0.73 1.04
-7.74 0.98 0.67
-5.80 0.76 1.03
-5.62 0.76 1.06
-5.84 0.80 1.02
-6.18 0.86 0.96
-6.57 0.94 0.88
-6.34 0.93 0.92
-6.47 0.96 0.90
-6.36 0.97 0.92
-6.19 0.96 0.95
-6.27 0.99 0.93
-6.35 1.01 0.92
-6.52 1.06 0.89
-6.78 1.11 0.84
-7.07 1.18 0.78
-6.55 1.11 0.88
-6.06 1.05 0.97
-7.23 1.28 0.75
-7.39 1.34 0.72
-6.35 1.18 0.91
-7.40 1.38 0.71
-7.25 1.37 0.74
-6.24 1.21 0.93
-6.47 1.27 0.88
-4.41 0.92 1.27
-6.34 1.30 0.91
-4.41 0.94 1.27
-4.29 0.93 1.29
-4.37 0.96 1.27
-4.42 0.98 1.26
-4.59 1.03 1.23
-4.50 1.02 1.25
-4.49 1.05 1.25
-4.40 1.05 1.26
-4.36 1.06 1.27
-4.26 1.08 1.29
-5.31 -0.89 0.78
-5.73 -0.90 0.70
-5.74 -0.48 0.70
-5.59 -0.45 0.73
-5.15 -0.41 0.80
-4.83 -0.38 0.86
-4.69 -0.35 0.89
-5.01 -0.35 0.83
-5.25 -0.34 0.79
-4.97 -0.31 0.84
-4.70 -0.28 0.88
-5.04 -0.28 0.82
-4.98 -0.26 0.83
-5.02 -0.24 0.83
-5.23 -0.23 0.79
-5.54 -0.22 0.73
-5.72 -0.20 0.70
-5.45 -0.18 0.75
-4.50 -0.14 0.92
-5.72 -0.14 0.70
-5.89 -0.01 0.60
-6.21 0.02 0.54
-6.14 0.04 0.55
-4.54 0.05 0.85
-6.52 0.08 0.48
-6.23 0.10 0.53
-6.48 0.12 0.49
-6.45 0.15 0.49
-6.41 0.17 0.50
-6.37 0.19 0.50
-4.48 0.16 0.86
-7.21 0.40 0.72
-7.42 0.45 0.68
-7.55 0.52 0.65
-7.15 0.56 0.73
-7.33 0.59 0.69
-7.37 0.62 0.68
-7.34 0.63 0.69
-7.36 0.65 0.68
-7.26 0.66 0.70
-7.24 0.68 0.71
-7.28 0.70 0.70
-7.73 0.76 0.61
-7.79 0.79 0.60
-7.65 0.79 0.62
-5.36 0.58 1.06
-5.28 0.59 1.08
-5.24 0.60 1.09
-5.53 0.64 1.03
-5.08 0.61 1.12
-5.42 0.66 1.05
-5.49 0.68 1.04
-5.33 0.68 1.07
-5.47 0.71 1.04
-5.48 0.72 1.04
-5.28 0.71 1.07
-5.62 0.77 1.01
-5.75 0.80 0.98
-5.33 0.76 1.06
-5.51 0.80 1.03
-5.60 0.83 1.01
-6.19 0.92 0.90
-5.47 0.84 1.03
-5.02 0.79 1.12
-5.54 0.94 1.01
-6.13 1.04 0.90
-6.06 1.05 0.91
-5.48 0.97 1.03
-4.40 0.81 1.24
-4.69 0.87 1.18
-4.23 0.81 1.27
-7.03 1.33 0.72
-6.36 1.23 0.85
-6.97 1.38 0.73
-4.11 0.89 1.28
-4.18 0.92 1.27
-4.28 0.95 1.25
-4.25 0.96 1.26
-4.03 0.92 1.30
-4.07 0.94 1.29
-4.32 1.02 1.24
-5.58 -1.23 0.66
-5.44 -1.11 0.68
-5.07 -0.41 0.75
-4.34 -0.35 0.89
-4.63 -0.35 0.84
-4.63 -0.33 0.84
-4.83 -0.32 0.80
-4.73 -0.30 0.82
-5.02 -0.29 0.76
-5.01 -0.28 0.76
-5.25 -0.27 0.72
-4.69 -0.23 0.82
-4.93 -0.22 0.78
-5.47 -0.22 0.68
-5.68 -0.20 0.64
-5.73 -0.18 0.63
-4.88 -0.15 0.79
-5.93 -0.15 0.59
-6.28 -0.13 0.53
-6.07 -0.11 0.56
-5.61 -0.08 0.65
-6.27 -0.07 0.53
-6.11 -0.05 0.56
-6.03 -0.03 0.57
-7.15 0.29 0.66
-7.13 0.31 0.67
-6.98 0.32 0.70
-6.93 0.34 0.71
-7.80 0.39 0.53
-7.18 0.38 0.66
-8.03 0.45 0.48
-7.45 0.55 0.60
-7.32 0.56 0.62
-7.44 0.58 0.60
-7.16 0.64 0.65
-7.70 0.76 0.54
-7.76 0.80 0.53
-7.73 0.82 0.53
-5.50 0.61 0.98
-5.48 0.63 0.98
-5.46 0.64 0.99
-5.37 0.64 1.01
-5.56 0.68 0.97
-5.65 0.70 0.95
-5.68 0.72 0.94
-5.68 0.74 0.94
-5.60 0.74 0.96
-5.58 0.75 0.96
-5.60 0.77 0.95
-5.53 0.78 0.97
-5.92 0.84 0.89
-6.15 0.89 0.84
-6.05 0.89 0.86
-6.34 0.95 0.80
-6.09 0.93 0.85
-6.29 0.97 0.81
-5.97 0.94 0.87
-6.97 1.14 0.67
-6.85 1.14 0.69
-7.18 1.21 0.63
-6.74 1.16 0.71
-7.06 1.23 0.65
-6.87 1.22 0.68
-6.87 1.23 0.68
-6.65 1.22 0.73
-6.61 1.23 0.74
-6.60 1.24 0.74
-6.43 1.23 0.77
-6.40 1.24 0.78
-6.53 1.28 0.75
-4.37 0.90 1.19
-6.85 1.38 0.68
-6.73 1.37 0.71
-4.45 0.95 1.17
-6.78 1.42 0.69
-4.25 0.94 1.21
-6.73 1.46 0.70
-4.27 0.98 1.20
-4.40 1.03 1.18
-4.49 1.06 1.16
-4.38 1.05 1.18
-4.65 1.13 1.12
-4.81 1.19 1.09
-5.95 -1.66 0.50
-6.20 -1.69 0.45
-5.82 -1.60 0.53
-5.85 -1.58 0.52
-6.06 -1.58 0.48
-5.56 -1.41 0.58
-5.25 -1.32 0.64
-5.49 -1.34 0.60
-5.50 -1.32 0.59
-5.75 -1.34 0.55
-5.69 -1.29 0.56
-5.22 -1.20 0.65
-5.93 -1.29 0.51
-4.11 -0.48 0.87
-4.02 -0.43 0.89
-3.98 -0.38 0.90
-4.51 -0.38 0.79
-4.23 -0.35 0.85
-4.76 -0.36 0.74
-4.93 -0.35 0.71
-5.13 -0.34 0.67
-5.42 -0.33 0.61
-4.55 -0.28 0.78
-5.97 -0.01 0.44
-6.15 0.01 0.40
-6.16 0.04 0.40
-6.34 0.06 0.36
-6.27 0.08 0.38
-6.26 0.10 0.38
-6.16 0.12 0.40
-6.10 0.14 0.41
-6.23 0.16 0.38
-6.12 0.18 0.40
-6.40 0.21 0.35
-6.38 0.23 0.35
-6.59 0.30 0.31
-4.62 0.25 0.71
-7.00 0.35 0.63
-7.83 0.57 0.46
-7.05 0.64 0.62
-5.95 0.59 0.84
-5.83 0.60 0.87
-5.94 0.62 0.85
-5.65 0.61 0.91
-5.77 0.64 0.88
-5.75 0.65 0.88
-5.48 0.64 0.94
-5.36 0.64 0.96
-5.41 0.66 0.95
-5.25 0.65 0.98
-5.18 0.66 1.00
-5.50 0.71 0.93
-5.40 0.71 0.95
-5.49 0.74 0.93
-5.71 0.78 0.89
-5.83 0.81 0.86
-5.83 0.83 0.86
-5.74 0.83 0.88
-5.65 0.83 0.90
-5.77 0.86 0.87
-6.75 1.09 0.66
-6.80 1.11 0.65
-6.88 1.14 0.63
-6.35 1.09 0.74
-6.42 1.12 0.73
-6.20 1.10 0.77
-4.31 0.85 1.17
-6.22 1.20 0.76
-6.68 1.37 0.66
-4.43 1.06 1.13
-6.09 -1.60 0.41
-5.24 -1.43 0.58
-5.78 -1.50 0.47
-5.98 -1.50 0.43
-5.56 -1.37 0.52
-5.65 -1.32 0.50
-5.56 -1.25 0.52
-5.66 -1.24 0.50
-5.52 -1.16 0.53
-5.20 -0.49 0.60
-6.40 -0.52 0.35
-5.24 -0.43 0.59
-4.09 -0.35 0.82
-5.66 -0.40 0.50
-5.88 -0.37 0.46
-5.93 -0.35 0.45
-5.88 -0.33 0.46
-5.94 -0.31 0.45
-5.43 -0.27 0.55
-5.31 -0.25 0.57
-5.20 -0.23 0.60
-5.70 -0.22 0.50
-5.08 -0.19 0.62
-5.23 -0.17 0.59
-4.45 -0.14 0.75
-6.29 -0.15 0.37
-4.59 -0.11 0.72
-4.94 -0.10 0.65
-5.10 -0.08 0.61
-5.56 -0.06 0.52
-5.76 -0.05 0.48
-5.95 -0.03 0.44
-6.74 0.00 0.62
-6.74 0.02 0.62
-6.74 0.04 0.62
-6.64 0.05 0.64
-6.87 0.07 0.59
-7.08 0.09 0.55
-6.83 0.11 0.60
-7.06 0.13 0.55
-6.73 0.14 0.62
-6.58 0.15 0.65
-6.59 0.17 0.65
-6.82 0.19 0.60
-6.74 0.21 0.62
-6.83 0.23 0.60
-6.93 0.25 0.57
-6.98 0.27 0.56
-7.07 0.29 0.54
-6.95 0.30 0.57
-7.17 0.33 0.52
-7.10 0.34 0.54
-7.22 0.37 0.51
-7.40 0.39 0.47
-7.36 0.41 0.48
-7.12 0.42 0.53
-6.94 0.42 0.57
-7.10 0.45 0.53
-7.07 0.47 0.54
-7.44 0.51 0.46
-7.33 0.52 0.48
-7.52 0.55 0.44
-7.40 0.56 0.47
-7.53 0.59 0.44
-7.64 0.64 0.41
-5.79 0.55 0.81
-5.70 0.56 0.83
-5.84 0.59 0.80
-5.79 0.60 0.81
-5.25 0.56 0.93
-5.55 0.60 0.86
-5.49 0.61 0.88
-5.74 0.65 0.82
-5.82 0.68 0.80
-5.28 0.63 0.92
-5.50 0.67 0.87
-5.62 0.70 0.84
-5.47 0.70 0.88
-5.56 0.72 0.86
-5.60 0.74 0.85
-5.25 0.71 0.92
-5.36 0.74 0.90
-5.46 0.77 0.87
-5.33 0.76 0.90
-6.37 0.92 0.67
-6.32 0.93 0.68
-6.44 0.96 0.66
-6.26 0.95 0.70
-6.04 0.94 0.74
-6.16 0.97 0.72
-6.13 0.98 0.72
-6.22 1.01 0.70
-6.48 1.07 0.64
-6.46 1.08 0.65
-6.48 1.10 0.64
-6.63 1.14 0.61
-6.42 1.13 0.65
-6.47 1.15 0.64
-6.47 1.17 0.64
-6.46 1.18 0.64
-4.70 0.91 1.03
-4.89 0.98 0.98
-6.40 1.27 0.65
-6.22 1.26 0.69
-4.52 0.95 1.06
-4.38 0.94 1.09
-4.39 1.00 1.09
-4.35 1.01 1.10
-4.36 1.02 1.09
-4.33 1.03 1.10
-4.40 1.05 1.08
-4.61 1.11 1.04
-4.56 1.11 1.05
-4.60 1.13 1.04
-4.68 1.16 1.02
-4.44 1.12 1.07
-4.13 1.07 1.14
-4.24 1.10 1.11
-4.24 1.12 1.11
-4.03 1.08 1.16
-5.28 -1.67 0.49
-5.23 -1.64 0.50
-5.18 -1.61 0.51
-5.03 -1.51 0.54
-5.07 -1.40 0.54
-4.85 -1.34 0.59
-6.29 -0.35 0.72
-6.26 -0.31 0.73
-6.27 -0.19 0.73
-6.18 -0.17 0.75
-4.54 0.01 0.59
-6.71 0.05 0.56
-6.83 0.09 0.53
-6.93 0.11 0.51
-7.05 0.14 0.48
-6.68 0.17 0.57
-6.73 0.19 0.55
-6.84 0.23 0.53
-6.84 0.24 0.53
-7.01 0.28 0.49
-6.92 0.32 0.51
-6.89 0.33 0.51
-6.70 0.36 0.56
-6.88 0.38 0.52
-7.21 0.42 0.44
-7.23 0.44 0.43
-7.07 0.46 0.47
-4.65 0.33 1.02
-4.64 0.35 1.02
-4.74 0.37 1.00
-4.74 0.38 1.00
-4.65 0.39 1.02
-4.74 0.42 1.00
-4.80 0.44 0.98
-4.85 0.47 0.97
-4.92 0.49 0.95
-5.99 0.60 0.71
-5.48 0.57 0.82
-5.41 0.59 0.84
-5.31 0.59 0.86
-5.30 0.62 0.86
-5.28 0.63 0.87
-5.37 0.65 0.85
-5.40 0.67 0.84
-5.23 0.68 0.88
-5.24 0.69 0.87
-5.13 0.71 0.90
-5.37 0.75 0.84
-6.14 0.87 0.66
-6.14 0.88 0.66
-5.44 0.82 0.82
-5.90 0.90 0.71
-6.13 0.96 0.66
-6.28 1.00 0.62
-5.78 0.94 0.74
-5.54 0.92 0.79
-4.59 0.80 1.01
-4.61 0.82 1.01
-4.56 0.83 1.02
-4.65 0.86 1.00
-4.59 0.86 1.01
-4.28 0.82 1.08
-4.33 0.85 1.07
-4.21 0.84 1.09
-4.37 0.90 1.06
-4.32 0.90 1.07
-4.24 0.90 1.08
-4.20 0.90 1.09
-4.06 0.90 1.12
-4.03 0.90 1.13
-5.00 -1.64 0.47
-5.23 -1.64 0.42
-4.95 -1.56 0.49
-5.25 -1.60 0.42
-5.20 -1.56 0.43
-5.23 -1.54 0.43
-4.72 -1.30 0.54
-4.63 -0.82 0.57
-4.63 -0.80 0.57
-5.47 -0.31 0.38
-5.55 -0.30 0.36
-5.60 -0.28 0.35
-4.28 -0.09 0.65
-4.37 -0.06 0.63
-4.40 -0.04 0.62
-6.76 0.02 0.48
-6.59 0.03 0.52
-6.50 0.05 0.54
-6.54 0.07 0.53
-6.74 0.09 0.48
-6.85 0.10 0.46
