# .PCD v0.7 - Point Cloud Data file format
VERSION 0.7
FIELDS x y z
SIZE 4 4 4
TYPE F F F
COUNT 1 1 1
WIDTH 2879
HEIGHT 1
VIEWPOINT 0 0 0 1 0 0 0
POINTS 2879
DATA ASCII
-6.31 -0.42 1.76
-6.27 -0.39 1.76
-6.21 -0.37 1.76
-6.21 -0.35 1.76
-5.95 -0.32 1.77
-6.04 -0.30 1.77
-6.00 -0.28 1.77
-6.09 -0.26 1.77
-5.95 -0.20 1.77
-5.91 -0.18 1.78
-5.84 -0.06 1.78
-6.00 -0.04 1.77
-5.92 -0.02 1.77
-14.13 0.01 1.42
-6.27 0.04 1.83
-14.36 0.12 1.41
-14.34 0.15 1.41
-14.33 0.19 1.41
-14.10 0.22 1.42
-14.17 0.26 1.42
-13.78 0.32 1.44
-10.06 0.26 1.63
-10.17 0.29 1.63
-10.25 0.39 1.62
-13.17 0.63 1.47
-7.48 0.38 1.77
-6.81 0.40 1.80
-6.72 0.48 1.80
-6.65 0.51 1.81
-6.90 0.55 1.79
-6.69 0.55 1.80
-6.74 0.59 1.80
-6.82 0.65 1.80
-6.79 0.66 1.80
-6.79 0.70 1.80
-6.83 0.81 1.79
-6.75 0.83 1.80
-6.52 0.82 1.81
-6.82 0.89 1.79
-6.56 0.95 1.81
-6.75 1.01 1.79
-6.40 0.99 1.81
-6.92 -1.68 1.69
-6.69 -1.62 1.70
-7.05 -1.66 1.68
-6.94 -1.62 1.69
-7.12 -1.62 1.68
-7.00 -1.58 1.68
-6.87 -1.54 1.69
-6.98 -1.44 1.68
-6.98 -1.41 1.68
-6.99 -1.39 1.68
-6.85 -1.35 1.69
-6.92 -1.34 1.69
-6.79 -1.29 1.69
-6.40 -1.22 1.72
-6.51 -1.21 1.71
-6.65 -1.21 1.70
-6.56 -1.18 1.71
-6.66 -1.17 1.70
-6.49 -1.12 1.71
-6.52 -1.11 1.71
-6.60 -1.09 1.70
-6.47 -1.06 1.71
-6.49 -1.04 1.71
-6.28 -0.99 1.72
-6.48 -0.99 1.71
-6.77 -1.00 1.69
-6.76 -0.98 1.70
-6.25 -0.90 1.72
-6.58 -0.91 1.70
-6.55 -0.89 1.71
-6.50 -0.86 1.71
-6.26 -0.82 1.72
-6.59 -0.83 1.70
-6.33 -0.78 1.72
-6.62 -0.79 1.70
-6.59 -0.76 1.70
-6.69 -0.75 1.70
-6.72 -0.73 1.70
-6.44 -0.68 1.71
-6.80 -0.69 1.69
-6.77 -0.66 1.69
-6.78 -0.64 1.69
-6.87 -0.63 1.69
-6.70 -0.59 1.70
-6.74 -0.57 1.69
-6.56 -0.54 1.70
-6.39 -0.51 1.71
-6.77 -0.38 1.81
-6.79 -0.37 1.81
-6.71 -0.35 1.81
-6.65 -0.33 1.82
-6.73 -0.31 1.81
-6.45 -0.28 1.83
-6.52 -0.27 1.82
-6.62 -0.26 1.82
-12.10 -0.43 1.53
-6.57 -0.23 1.82
-6.90 -0.22 1.80
-6.47 -0.19 1.82
-6.53 -0.17 1.82
-6.58 -0.16 1.82
-6.42 -0.14 1.83
-6.54 -0.13 1.82
-10.78 -0.18 1.60
-10.49 -0.14 1.61
-10.60 -0.09 1.61
-14.48 -0.02 1.40
-5.99 0.00 1.69
-5.94 0.02 1.70
-5.76 0.04 1.71
-14.20 0.12 1.36
-14.13 0.15 1.36
-14.19 0.22 1.36
-14.21 0.26 1.36
-7.03 -1.63 1.64
-6.90 -1.58 1.65
-6.94 -1.47 1.65
-7.04 -1.42 1.64
-6.47 -1.25 1.67
-6.69 -1.26 1.66
-6.50 -1.21 1.67
-6.52 -1.19 1.67
-6.48 -1.16 1.67
-6.57 -1.15 1.67
-6.74 -1.15 1.66
-6.60 -1.11 1.67
-6.77 -1.11 1.66
-6.63 -1.07 1.66
-6.16 -0.93 1.69
-6.63 -0.90 1.66
-6.55 -0.87 1.67
-6.15 -0.81 1.69
-6.50 -0.82 1.67
-6.49 -0.80 1.67
-6.26 -0.75 1.68
-7.17 -0.81 1.63
-6.37 -0.72 1.68
-6.84 -0.65 1.65
-6.81 -0.62 1.65
-6.79 -0.60 1.65
-6.75 -0.57 1.66
-6.65 -0.55 1.66
-6.65 -0.52 1.66
-6.60 -0.50 1.66
-6.47 -0.47 1.67
-6.37 -0.44 1.68
-6.13 -0.41 1.69
-6.09 -0.39 1.69
-5.94 -0.36 1.70
-5.97 -0.34 1.70
-5.84 -0.32 1.71
-6.04 -0.30 1.69
-5.90 -0.28 1.70
-5.91 -0.26 1.70
-5.88 -0.24 1.70
-5.99 -0.22 1.70
-6.10 -0.20 1.69
-6.08 -0.18 1.69
-5.93 -0.16 1.70
-6.10 -0.14 1.69
-5.97 -0.12 1.70
-5.88 -0.10 1.70
-5.97 -0.08 1.70
-12.86 -0.10 1.30
-5.76 -0.04 1.71
-5.64 -0.02 1.71
-14.03 0.02 1.30
-14.51 0.05 1.27
-14.17 0.09 1.29
-14.16 0.12 1.29
-14.04 0.15 1.30
-14.15 0.19 1.29
-14.16 0.22 1.29
-14.00 0.25 1.30
-14.19 0.29 1.29
-14.19 0.32 1.29
-10.28 0.29 1.53
-9.81 0.30 1.56
-13.65 0.45 1.32
-8.89 0.34 1.61
-9.19 0.40 1.59
-9.02 0.43 1.60
-10.46 0.63 1.51
-7.16 0.57 1.71
-6.94 0.59 1.73
-6.82 -1.64 1.61
-7.01 -1.65 1.60
-6.86 -1.60 1.61
-6.92 -1.59 1.60
-6.98 -1.57 1.60
-6.95 -1.50 1.60
-7.03 -1.49 1.60
-6.92 -1.45 1.60
-6.97 -1.43 1.60
-6.90 -1.40 1.61
-6.69 -1.35 1.62
-6.64 -1.32 1.62
-6.59 -1.29 1.62
-6.58 -1.26 1.63
-6.53 -1.24 1.63
-6.36 -1.19 1.64
-6.39 -1.17 1.64
-6.49 -1.17 1.63
-6.54 -1.15 1.63
-6.39 -1.11 1.64
-6.50 -1.10 1.63
-6.56 -1.09 1.63
-6.67 -1.08 1.62
-6.50 -1.04 1.63
-6.38 -1.00 1.64
-6.36 -0.98 1.64
-6.44 -0.96 1.63
-6.30 -0.93 1.64
-6.25 -0.90 1.64
-6.22 -0.88 1.65
-6.15 -0.85 1.65
-6.14 -0.83 1.65
-6.23 -0.82 1.65
-6.28 -0.80 1.64
-6.58 -0.80 1.62
-6.37 -0.76 1.64
-6.63 -0.76 1.62
-6.26 -0.71 1.64
-6.53 -0.71 1.63
-6.34 -0.68 1.64
-6.31 -0.65 1.64
-6.66 -0.66 1.62
-6.36 -0.61 1.64
-6.51 -0.60 1.63
-6.81 -0.60 1.61
-6.56 -0.56 1.62
-6.59 -0.54 1.62
-6.59 -0.52 1.62
-6.33 -0.48 1.64
-6.38 -0.47 1.63
-6.24 -0.44 1.64
-6.18 -0.41 1.65
-5.79 -0.38 1.67
-5.86 -0.36 1.67
-6.05 -0.35 1.65
-6.18 -0.33 1.65
-6.10 -0.31 1.65
-6.05 -0.28 1.65
-5.96 -0.26 1.66
-5.98 -0.24 1.66
-6.26 -0.23 1.64
-6.03 -0.20 1.65
-6.01 -0.18 1.66
-5.73 -0.15 1.67
-6.08 -0.14 1.65
-6.08 -0.12 1.65
-14.13 -0.12 1.30
-14.30 -0.09 1.29
-13.96 -0.05 1.31
-13.73 -0.02 1.32
-5.59 0.00 1.64
-5.28 0.02 1.66
-5.36 0.04 1.65
-5.41 0.06 1.65
-5.46 0.08 1.64
-5.07 0.09 1.67
-5.43 0.12 1.65
-5.09 0.13 1.67
-5.22 0.15 1.66
-5.05 0.17 1.67
-5.27 0.19 1.66
-13.41 0.54 1.26
-6.88 -1.69 1.56
-6.88 -1.67 1.56
-6.80 -1.63 1.56
-6.84 -1.62 1.56
-6.94 -1.61 1.55
-6.73 -1.53 1.57
-6.74 -1.49 1.57
-6.90 -1.49 1.56
-6.93 -1.47 1.55
-6.91 -1.45 1.56
-6.41 -1.30 1.59
-6.40 -1.28 1.59
-6.26 -1.24 1.60
-6.29 -1.22 1.60
-6.64 -1.25 1.57
-6.20 -1.17 1.60
-6.19 -1.15 1.60
-6.41 -1.15 1.59
-6.55 -1.15 1.58
-6.59 -1.13 1.58
-6.31 -1.08 1.59
-6.35 -1.06 1.59
-6.54 -1.06 1.58
-6.33 -1.01 1.59
-6.16 -0.97 1.60
-6.12 -0.95 1.61
-6.29 -0.95 1.60
-6.49 -0.95 1.58
-6.38 -0.91 1.59
-6.33 -0.89 1.59
-6.25 -0.86 1.60
-6.29 -0.84 1.60
-6.21 -0.81 1.60
-6.46 -0.81 1.58
-6.17 -0.77 1.60
-6.59 -0.78 1.57
-6.27 -0.73 1.60
-6.09 -0.70 1.61
-6.14 -0.68 1.61
-6.46 -0.68 1.58
-6.70 -0.68 1.57
-6.13 -0.62 1.61
-6.20 -0.60 1.60
-6.23 -0.58 1.60
-6.31 -0.57 1.59
-6.41 -0.55 1.59
-6.21 -0.52 1.60
-6.34 -0.51 1.59
-6.28 -0.48 1.59
-6.40 -0.47 1.59
-6.40 -0.44 1.59
-6.04 -0.41 1.61
-6.00 -0.38 1.61
-6.08 -0.37 1.61
-6.05 -0.35 1.61
-6.23 -0.33 1.60
-6.06 -0.30 1.61
-6.00 -0.28 1.61
-5.98 -0.26 1.61
-5.98 -0.24 1.61
-6.00 -0.22 1.61
-5.99 -0.20 1.61
-5.87 -0.18 1.62
-5.69 -0.15 1.63
-5.77 -0.14 1.63
-5.67 -0.11 1.63
-5.65 -0.09 1.63
-5.78 -0.08 1.62
-5.72 -0.06 1.63
-5.51 -0.04 1.64
-5.13 -0.02 1.67
-6.52 0.01 1.69
-6.62 0.02 1.68
-6.56 0.04 1.68
-13.59 0.11 1.18
-13.63 0.14 1.18
-13.49 0.18 1.19
-13.72 0.21 1.17
-10.09 0.18 1.43
-10.06 0.21 1.43
-14.09 0.32 1.14
-9.79 0.25 1.45
-9.75 0.27 1.45
-6.60 0.21 1.68
-9.79 0.32 1.45
-7.19 0.26 1.64
-7.29 0.28 1.63
-7.17 0.30 1.64
-6.88 0.30 1.66
-9.67 0.44 1.46
-7.04 0.63 1.64
-6.74 0.62 1.66
-6.82 0.65 1.66
-6.42 1.06 1.68
-6.29 1.06 1.69
-6.37 1.09 1.68
-6.25 1.15 1.69
-6.14 1.28 1.69
-5.20 1.37 1.75
-5.25 1.40 1.75
-5.38 1.44 1.74
-5.38 1.46 1.74
-4.99 1.38 1.77
-5.29 1.50 1.75
-5.24 1.50 1.75
-5.35 1.54 1.74
-4.95 1.56 1.77
-6.79 -1.68 1.51
-6.89 -1.68 1.51
-6.86 -1.65 1.51
-6.83 -1.62 1.51
-6.77 -1.59 1.52
-6.65 -1.52 1.52
-6.78 -1.52 1.51
-6.81 -1.50 1.51
-6.97 -1.50 1.50
-6.93 -1.48 1.50
-6.54 -1.37 1.53
-6.55 -1.35 1.53
-6.26 -1.29 1.55
-6.29 -1.27 1.55
-6.35 -1.26 1.55
-6.55 -1.26 1.53
-6.41 -1.22 1.54
-6.16 -1.17 1.56
-6.23 -1.15 1.55
-5.98 -1.10 1.57
-6.21 -1.11 1.56
-6.48 -1.12 1.54
-6.65 -1.12 1.52
-6.48 -1.08 1.54
-6.49 -1.06 1.54
-6.51 -1.04 1.53
-6.50 -1.02 1.53
-6.24 -0.97 1.55
-6.44 -0.97 1.54
-6.61 -0.96 1.53
-6.46 -0.92 1.54
-6.39 -0.90 1.54
-6.25 -0.86 1.55
-6.20 -0.84 1.56
-6.22 -0.82 1.55
-6.15 -0.79 1.56
-6.60 -0.81 1.53
-6.24 -0.75 1.55
-6.03 -0.72 1.57
-6.06 -0.70 1.56
-6.04 -0.68 1.57
-5.83 -0.64 1.58
-5.83 -0.62 1.58
-5.85 -0.60 1.58
-5.84 -0.58 1.58
-5.85 -0.56 1.58
-5.78 -0.54 1.58
-6.06 -0.53 1.56
-6.19 -0.52 1.55
-6.29 -0.50 1.55
-6.30 -0.48 1.55
-6.30 -0.46 1.55
-6.18 -0.44 1.56
-5.95 -0.40 1.57
-6.16 -0.39 1.56
-6.14 -0.37 1.56
-5.94 -0.34 1.57
-5.75 -0.32 1.59
-5.88 -0.30 1.58
-6.23 -0.21 1.71
-6.18 -0.20 1.71
-6.24 -0.18 1.71
-6.12 -0.16 1.72
-5.91 -0.14 1.73
-6.24 -0.13 1.71
-6.12 -0.12 1.72
-6.05 -0.10 1.72
-6.14 -0.09 1.72
-6.04 -0.07 1.72
-6.44 -0.06 1.69
-13.98 -0.09 1.16
-13.98 -0.06 1.15
-6.10 -0.01 1.72
-5.55 0.00 1.56
-5.48 0.02 1.56
-5.47 0.04 1.56
-5.39 0.06 1.57
-4.97 0.07 1.60
-5.21 0.10 1.58
-5.37 0.12 1.57
-5.27 0.13 1.58
-5.10 0.15 1.59
-5.20 0.17 1.58
-4.98 0.18 1.60
-6.55 -1.65 1.49
-6.83 -1.68 1.46
-6.76 -1.65 1.47
-6.78 -1.63 1.47
-6.84 -1.62 1.46
-6.83 -1.59 1.46
-6.82 -1.57 1.47
-6.82 -1.55 1.46
-6.80 -1.52 1.47
-6.84 -1.50 1.46
-6.80 -1.47 1.47
-6.82 -1.45 1.47
-6.92 -1.45 1.46
-6.75 -1.40 1.47
-6.74 -1.37 1.47
-6.47 -1.31 1.49
-6.42 -1.28 1.50
-6.36 -1.25 1.50
-6.40 -1.24 1.50
-6.09 -1.11 1.52
-6.37 -1.13 1.50
-6.42 -1.11 1.50
-6.36 -1.08 1.50
-6.73 -1.11 1.47
-6.48 -1.05 1.49
-6.34 -1.02 1.50
-6.41 -1.00 1.50
-6.29 -0.97 1.51
-6.08 -0.93 1.52
-6.49 -0.95 1.49
-6.31 -0.91 1.50
-6.26 -0.88 1.51
-6.33 -0.87 1.50
-6.29 -0.84 1.51
-6.18 -0.81 1.51
-6.25 -0.80 1.51
-6.19 -0.77 1.51
-6.25 -0.75 1.51
-6.15 -0.72 1.52
-6.35 -0.72 1.50
-6.27 -0.69 1.51
-6.34 -0.68 1.50
-5.85 -0.62 1.54
-5.82 -0.60 1.54
-6.13 -0.60 1.52
-6.40 -0.59 1.50
-5.98 -0.55 1.53
-6.12 -0.53 1.52
-6.16 -0.52 1.51
-6.26 -0.50 1.51
-6.10 -0.47 1.52
-6.21 -0.44 1.51
-6.34 -0.40 1.50
-5.62 -0.35 1.55
-5.58 -0.33 1.56
-5.73 -0.31 1.55
-5.71 -0.27 1.55
-5.30 -0.24 1.58
-5.23 -0.22 1.58
-5.64 -0.21 1.55
-5.58 -0.19 1.56
-1.93 -0.10 1.84
-5.83 -0.16 1.54
-5.88 -0.14 1.53
-5.74 -0.12 1.54
-5.78 -0.10 1.54
-5.64 -0.08 1.55
-5.61 -0.06 1.55
-5.49 -0.04 1.56
-5.41 -0.02 1.57
-6.11 0.01 1.65
-6.15 0.02 1.64
-6.01 0.04 1.65
-5.86 0.05 1.67
-6.21 0.07 1.64
-6.12 0.08 1.64
-6.42 0.10 1.62
-9.77 0.18 1.34
-6.52 0.14 1.61
-9.82 0.23 1.34
-9.46 0.24 1.37
-9.75 0.27 1.34
-9.42 0.29 1.37
-13.19 0.43 1.06
-6.09 0.22 1.64
-5.96 0.23 1.65
-6.35 0.26 1.62
-13.37 0.57 1.04
-6.33 0.30 1.62
-6.07 0.30 1.64
-9.14 0.51 1.39
-8.54 0.50 1.44
-8.57 0.52 1.44
-8.88 0.63 1.41
-7.24 0.59 1.54
-6.40 0.56 1.61
-6.90 0.62 1.57
-6.99 0.64 1.56
-6.81 0.65 1.58
-7.06 0.69 1.56
-6.57 1.02 1.59
-6.23 0.98 1.62
-6.48 1.16 1.59
-6.47 1.17 1.60
-5.60 1.38 1.66
-5.20 1.37 1.69
-5.33 1.42 1.68
-4.98 1.35 1.71
-4.76 1.31 1.73
-5.26 1.44 1.68
-5.40 1.50 1.67
-5.11 1.48 1.69
-6.62 -1.67 1.42
-6.58 -1.62 1.43
-6.68 -1.62 1.42
-6.74 -1.61 1.42
-6.79 -1.59 1.41
-6.76 -1.56 1.41
-6.86 -1.56 1.41
-6.88 -1.54 1.40
-6.89 -1.49 1.40
-7.00 -1.49 1.39
-6.71 -1.42 1.42
-6.35 -1.34 1.45
-6.54 -1.35 1.43
-6.51 -1.32 1.43
-6.44 -1.29 1.44
-6.83 -1.30 1.41
-6.66 -1.26 1.42
-6.59 -1.23 1.43
-6.36 -1.17 1.45
-6.09 -1.12 1.47
-6.10 -1.10 1.47
-6.47 -1.12 1.44
-6.22 -1.05 1.46
-6.51 -1.06 1.43
-6.34 -1.02 1.45
-6.18 -0.98 1.46
-6.02 -0.94 1.47
-5.98 -0.92 1.48
-6.23 -0.92 1.46
-6.37 -0.90 1.45
-6.10 -0.85 1.47
-6.10 -0.83 1.47
-6.02 -0.80 1.47
-6.16 -0.79 1.46
-6.17 -0.77 1.46
-6.16 -0.75 1.46
-5.96 -0.69 1.48
-5.59 -0.64 1.51
-6.04 -0.66 1.47
-5.90 -0.63 1.48
-6.35 -0.64 1.45
-6.18 -0.60 1.46
-5.76 -0.56 1.50
-6.04 -0.55 1.47
-6.18 -0.52 1.46
-6.34 -0.51 1.45
-6.11 -0.35 1.65
-6.31 -0.34 1.63
-6.27 -0.33 1.64
-6.25 -0.31 1.64
-6.18 -0.29 1.64
-6.18 -0.27 1.64
-6.16 -0.26 1.64
-6.31 -0.25 1.63
-6.14 -0.23 1.65
-6.37 -0.22 1.63
-6.06 -0.19 1.65
-5.49 -0.16 1.70
-6.01 -0.16 1.66
-6.06 -0.15 1.65
-6.13 -0.13 1.65
-6.04 -0.12 1.65
-5.90 -0.10 1.66
-5.98 -0.09 1.66
-5.94 -0.07 1.66
-5.88 -0.05 1.66
-5.88 -0.04 1.66
-6.01 -0.03 1.65
-6.73 -0.01 1.60
-5.44 0.00 1.47
-5.36 0.02 1.48
-5.36 0.04 1.48
-5.98 0.05 1.62
-6.01 0.07 1.62
-13.17 0.17 0.99
-13.35 0.21 0.98
-13.35 0.24 0.98
-13.41 0.28 0.97
-13.41 0.31 0.97
-13.35 0.34 0.98
-13.21 0.37 0.99
-9.85 0.94 1.27
-6.68 -1.66 1.37
-6.79 -1.63 1.36
-6.85 -1.62 1.36
-6.95 -1.62 1.35
-6.73 -1.56 1.37
-6.75 -1.54 1.36
-6.76 -1.52 1.36
-6.88 -1.51 1.35
-6.88 -1.49 1.35
-6.71 -1.44 1.37
-6.69 -1.41 1.37
-6.68 -1.39 1.37
-6.41 -1.33 1.39
-6.49 -1.32 1.39
-6.14 -1.25 1.42
-6.57 -1.29 1.38
-6.51 -1.26 1.39
-6.84 -1.28 1.36
-6.46 -1.21 1.39
-6.43 -1.18 1.39
-6.13 -1.12 1.42
-6.02 -1.08 1.43
-6.23 -1.09 1.41
-6.14 -1.06 1.42
-5.86 -1.00 1.44
-5.80 -0.98 1.45
-6.26 -1.01 1.41
-5.96 -0.95 1.43
-6.21 -0.96 1.41
-5.90 -0.91 1.44
-6.13 -0.91 1.42
-6.19 -0.90 1.41
-6.35 -0.89 1.40
-6.36 -0.87 1.40
-6.29 -0.84 1.41
-6.19 -0.81 1.41
-6.13 -0.79 1.42
-6.07 -0.76 1.42
-6.42 -0.77 1.39
-6.18 -0.73 1.41
-5.94 -0.69 1.44
-5.89 -0.66 1.44
-5.74 -0.63 1.45
-5.71 -0.61 1.46
-5.56 -0.58 1.47
-5.68 -0.57 1.46
-5.76 -0.55 1.45
-6.09 -0.51 1.42
-6.06 -0.49 1.42
-6.23 -0.48 1.41
-6.08 -0.43 1.42
-10.78 -0.57 1.01
-5.15 -0.31 1.50
-5.40 -0.30 1.48
-5.21 -0.28 1.50
-5.37 -0.26 1.48
-5.51 -0.25 1.47
-5.63 -0.23 1.46
-5.23 -0.20 1.49
-5.16 -0.18 1.50
-5.46 -0.17 1.48
-5.26 -0.15 1.49
-5.61 -0.13 1.46
-5.59 -0.11 1.46
-5.57 -0.08 1.46
-5.75 -0.04 1.45
-5.56 -0.02 1.46
-5.95 0.01 1.59
-5.95 0.02 1.59
-13.79 0.11 0.85
-5.98 0.07 1.58
-6.29 0.08 1.55
-6.27 0.10 1.56
-6.11 0.11 1.57
-6.32 0.13 1.55
-6.04 0.14 1.58
-5.73 0.17 1.61
-5.79 0.18 1.60
-5.67 0.19 1.61
-9.13 0.32 1.29
-9.11 0.35 1.29
-5.78 0.24 1.60
-5.64 0.25 1.61
-5.74 0.28 1.60
-5.99 0.31 1.58
-5.62 0.31 1.61
-9.62 1.11 1.23
-6.37 1.05 1.53
-4.96 1.38 1.65
-6.68 -1.68 1.31
-6.64 -1.65 1.32
-6.76 -1.65 1.31
-6.74 -1.63 1.31
-6.85 -1.62 1.30
-6.80 -1.59 1.30
-6.73 -1.56 1.31
-6.76 -1.54 1.31
-6.79 -1.52 1.30
-6.81 -1.50 1.30
-6.60 -1.45 1.32
-6.68 -1.44 1.31
-6.48 -1.36 1.33
-6.57 -1.35 1.32
-6.41 -1.31 1.34
-6.72 -1.33 1.31
-6.44 -1.27 1.34
-6.68 -1.28 1.31
-6.42 -1.22 1.34
-6.41 -1.20 1.34
-5.91 -1.11 1.39
-6.19 -1.13 1.36
-6.08 -1.09 1.37
-6.14 -1.08 1.37
-5.94 -1.04 1.38
-6.00 -1.02 1.38
-6.09 -1.01 1.37
-6.14 -1.00 1.37
-6.13 -0.97 1.37
-6.12 -0.95 1.37
-6.11 -0.93 1.37
-6.07 -0.91 1.37
-6.16 -0.89 1.36
-6.19 -0.88 1.36
-6.13 -0.85 1.37
-6.17 -0.83 1.36
-6.34 -0.83 1.35
-6.22 -0.80 1.36
-6.11 -0.77 1.37
-6.18 -0.75 1.36
-6.07 -0.72 1.37
-5.99 -0.69 1.38
-5.69 -0.65 1.41
-6.17 -0.67 1.36
-5.59 -0.60 1.42
-5.22 -0.56 1.45
-5.17 -0.53 1.46
-5.04 -0.51 1.47
-5.14 -0.50 1.46
-5.10 -0.47 1.46
-5.37 -0.47 1.44
-5.14 -0.44 1.46
-5.27 -0.43 1.45
-5.18 -0.41 1.45
-5.26 -0.39 1.45
-5.24 -0.37 1.45
-5.37 -0.36 1.44
-5.63 -0.35 1.41
-5.42 -0.32 1.43
-4.88 -0.28 1.48
-5.15 -0.27 1.46
-5.49 -0.27 1.42
-5.40 -0.25 1.43
-5.63 -0.23 1.41
-5.25 -0.20 1.45
-5.62 -0.19 1.41
-5.33 -0.17 1.44
-4.75 -0.14 1.49
-5.60 -0.13 1.41
-10.42 -0.12 1.17
-13.93 -0.12 0.84
-13.96 -0.06 0.84
-13.71 -0.02 0.86
-5.34 0.00 1.39
-5.19 0.02 1.40
-5.62 0.04 1.36
-5.35 0.06 1.39
-5.16 0.08 1.41
-5.25 0.09 1.40
-5.30 0.11 1.39
-5.08 0.13 1.41
-5.30 0.15 1.39
-5.04 0.17 1.42
-5.20 0.19 1.40
-5.71 0.17 1.57
-5.89 0.19 1.55
-9.48 0.31 1.20
-9.11 0.33 1.23
-9.20 0.35 1.22
-5.66 0.24 1.58
-5.63 0.25 1.58
-8.57 0.43 1.28
-9.17 0.48 1.22
-8.58 0.48 1.28
-9.08 0.57 1.23
-9.28 1.21 1.20
-6.64 1.11 1.46
-3.78 1.65 1.71
-6.25 -1.67 1.30
-6.54 -1.63 1.27
-6.75 -1.65 1.25
-6.74 -1.63 1.25
-6.70 -1.60 1.26
-6.81 -1.59 1.25
-6.76 -1.56 1.25
-6.77 -1.54 1.25
-6.86 -1.53 1.24
-6.74 -1.49 1.25
-6.80 -1.48 1.25
-6.60 -1.42 1.27
-6.35 -1.36 1.29
-6.66 -1.39 1.26
-6.67 -1.37 1.26
-6.70 -1.35 1.26
-6.37 -1.28 1.29
-6.36 -1.26 1.29
-6.33 -1.23 1.30
-6.15 -1.19 1.31
-6.04 -1.15 1.32
-5.99 -1.12 1.33
-6.10 -1.12 1.32
-6.14 -1.10 1.31
-6.09 -1.07 1.32
-6.19 -1.07 1.31
-6.24 -1.05 1.30
-5.89 -0.99 1.34
-6.11 -0.99 1.32
-6.06 -0.97 1.32
-6.04 -0.94 1.32
-5.85 -0.90 1.34
-5.74 -0.87 1.35
-5.75 -0.85 1.35
-5.80 -0.84 1.35
-5.68 -0.81 1.36
-5.65 -0.78 1.36
-5.61 -0.76 1.37
-5.70 -0.75 1.36
-6.19 -0.77 1.31
-6.44 -0.77 1.28
-6.17 -0.73 1.31
-6.21 -0.71 1.31
-5.90 -0.66 1.34
-5.68 -0.63 1.36
-5.54 -0.60 1.37
-5.40 -0.57 1.39
-5.32 -0.54 1.40
-5.21 -0.52 1.41
-5.16 -0.50 1.41
-4.98 -0.47 1.43
-5.09 -0.46 1.42
-5.20 -0.44 1.41
-4.87 -0.41 1.44
-4.85 -0.39 1.44
-4.57 -0.36 1.47
-4.95 -0.36 1.43
-4.95 -0.34 1.43
-4.95 -0.32 1.43
-4.45 -0.28 1.48
-4.51 -0.27 1.47
-4.80 -0.26 1.44
-5.10 -0.25 1.41
-2.06 -0.14 1.72
-5.27 -0.22 1.40
-5.07 -0.20 1.42
-5.31 -0.19 1.39
-5.20 -0.17 1.40
-4.74 -0.14 1.45
-4.48 -0.12 1.48
-4.33 -0.10 1.49
-5.30 -0.09 1.39
-5.08 -0.07 1.42
-5.60 -0.06 1.36
-5.67 -0.04 1.36
-5.27 -0.02 1.40
-5.66 0.00 1.54
-7.29 0.02 1.36
-5.88 0.03 1.51
-5.79 0.05 1.52
-5.92 0.06 1.51
-5.71 0.08 1.53
-6.04 0.10 1.50
-5.96 0.11 1.51
-5.59 0.12 1.54
-5.79 0.14 1.52
-5.88 0.15 1.51
-5.73 0.16 1.53
-6.12 0.19 1.49
-5.82 0.20 1.52
-5.65 0.21 1.54
-5.63 0.22 1.54
-5.80 0.24 1.52
-5.82 0.26 1.52
-5.56 0.26 1.54
-6.07 0.30 1.49
-5.55 0.29 1.54
-5.75 0.31 1.52
-5.20 0.30 1.58
-5.44 0.33 1.56
-5.36 0.33 1.56
-5.52 0.36 1.55
-5.62 0.38 1.54
-5.61 0.39 1.54
-5.59 0.41 1.54
-12.16 0.88 0.84
-12.30 0.92 0.82
-12.47 0.96 0.80
-12.23 0.97 0.83
-12.48 1.02 0.80
-12.78 1.14 0.77
-13.58 1.41 0.68
-11.77 1.49 0.87
-9.45 1.28 1.11
-5.89 0.92 1.50
-6.60 1.12 1.42
-5.05 1.22 1.57
-5.20 1.27 1.55
-5.05 1.28 1.57
-5.37 1.45 1.53
-4.94 1.36 1.58
-5.02 1.40 1.57
-6.42 -1.64 1.22
-6.48 -1.63 1.22
-6.52 -1.61 1.21
-6.47 -1.58 1.22
-6.61 -1.56 1.20
-6.49 -1.52 1.22
-6.72 -1.53 1.19
-6.72 -1.51 1.19
-6.68 -1.48 1.20
-6.59 -1.45 1.21
-6.70 -1.44 1.19
-6.53 -1.37 1.21
-6.39 -1.33 1.23
-6.55 -1.33 1.21
-5.90 -1.22 1.28
-6.33 -1.26 1.24
-6.11 -1.20 1.26
-5.89 -1.15 1.28
-5.75 -1.09 1.30
-5.92 -1.10 1.28
-5.80 -1.06 1.29
-5.78 -1.04 1.29
-5.87 -1.03 1.28
-5.75 -0.99 1.30
-5.63 -0.96 1.31
-5.66 -0.92 1.31
-5.87 -0.93 1.28
-5.85 -0.90 1.29
-5.80 -0.88 1.29
-5.76 -0.86 1.30
-5.67 -0.83 1.31
-5.59 -0.80 1.31
-5.79 -0.78 1.29
-5.31 -0.72 1.34
-5.66 -0.73 1.31
-6.18 -0.75 1.25
-5.96 -0.71 1.27
-6.00 -0.69 1.27
-6.05 -0.68 1.26
-5.28 -0.58 1.35
-5.27 -0.56 1.35
-5.09 -0.53 1.37
-5.22 -0.52 1.35
-5.45 -0.52 1.33
-5.04 -0.47 1.37
-4.45 -0.42 1.43
-5.13 -0.42 1.36
-4.53 -0.37 1.42
-4.77 -0.37 1.40
-4.74 -0.35 1.40
-4.54 -0.32 1.42
-4.45 -0.30 1.43
-5.06 -0.31 1.37
-4.62 -0.26 1.41
-5.81 -0.20 1.52
-5.73 -0.18 1.53
-5.81 -0.17 1.52
-6.07 -0.16 1.50
-5.67 -0.14 1.54
-5.83 -0.13 1.52
-5.68 -0.11 1.54
-5.37 -0.09 1.57
-5.81 -0.08 1.52
-5.55 -0.05 1.55
-5.60 -0.04 1.55
-5.56 -0.02 1.55
-9.72 -0.02 1.11
-8.36 0.05 0.94
-8.48 0.08 0.93
-12.81 0.19 0.44
-12.10 0.78 0.77
-12.38 0.83 0.73
-12.29 0.85 0.74
-12.33 0.89 0.74
-12.29 0.91 0.74
-12.73 1.01 0.69
-6.84 -1.50 1.12
-6.59 -1.44 1.15
-6.70 -1.44 1.14
-6.44 -1.35 1.17
-6.41 -1.31 1.17
-6.29 -1.27 1.18
-6.18 -1.23 1.20
-6.13 -1.20 1.20
-6.38 -1.22 1.17
-5.63 -1.10 1.26
-6.02 -1.13 1.21
-6.18 -1.13 1.20
-6.00 -1.08 1.22
-5.95 -1.06 1.22
-5.60 -0.99 1.26
-6.06 -1.03 1.21
-5.98 -1.00 1.22
-5.56 -0.93 1.27
-5.79 -0.94 1.24
-5.76 -0.91 1.24
-5.79 -0.90 1.24
-5.69 -0.86 1.25
-5.52 -0.83 1.27
-5.50 -0.81 1.27
-5.60 -0.80 1.26
-5.83 -0.80 1.23
-5.56 -0.75 1.27
-5.21 -0.70 1.31
-6.15 -0.77 1.20
-6.15 -0.71 1.20
-5.35 -0.62 1.29
-6.36 -0.68 1.18
-5.67 -0.61 1.25
-6.90 -0.52 1.11
-4.61 -0.38 1.37
-4.59 -0.34 1.37
-4.33 -0.31 1.40
-4.39 -0.30 1.40
-4.41 -0.28 1.39
-4.56 -0.27 1.38
-4.34 -0.18 1.40
-4.49 -0.17 1.38
-9.69 0.01 0.97
-9.51 0.05 1.00
-12.69 0.29 0.61
-5.78 0.15 1.44
-5.61 0.16 1.46
-12.39 0.77 0.64
-12.48 0.87 0.63
-12.29 0.91 0.65
-12.26 0.94 0.65
-12.43 0.99 0.63
-12.45 1.02 0.63
-12.47 1.05 0.63
-8.93 0.97 1.05
-8.98 0.99 1.04
-9.24 1.09 1.01
-9.23 1.11 1.01
-9.28 1.14 1.00
-9.41 1.18 0.99
-9.49 1.22 0.98
-6.43 -1.42 1.10
-6.54 -1.40 1.09
-5.02 -1.11 1.27
-6.33 -1.28 1.11
-5.80 -1.18 1.18
-5.73 -1.15 1.19
-5.56 -1.11 1.21
-5.88 -1.13 1.17
-5.69 -1.09 1.19
-5.90 -1.07 1.17
-5.73 -1.03 1.19
-5.91 -1.04 1.16
-5.77 -1.00 1.18
-5.80 -0.98 1.18
-5.92 -0.98 1.16
-5.59 -0.92 1.20
-5.64 -0.90 1.20
-5.56 -0.88 1.21
-5.67 -0.87 1.19
-5.45 -0.83 1.22
-5.26 -0.79 1.24
-6.05 -0.84 1.15
-5.90 -0.81 1.17
-5.37 -0.72 1.23
-6.21 -0.76 1.13
-6.15 -0.73 1.14
-5.39 -0.65 1.23
-5.28 -0.62 1.24
-5.57 -0.62 1.21
-5.88 -0.34 1.43
-5.68 -0.31 1.46
-5.64 -0.30 1.46
-9.56 -0.33 0.99
-5.13 -0.17 1.52
-9.78 -0.02 0.96
-4.00 -0.00 1.34
-4.45 0.02 1.29
-4.05 0.03 1.34
-5.80 0.05 1.40
-5.88 0.06 1.39
-5.63 0.08 1.42
-5.53 0.09 1.43
-5.52 0.10 1.43
-5.47 0.12 1.44
-5.39 0.13 1.45
-8.94 0.23 1.00
-6.00 0.19 1.37
-8.91 0.29 1.00
-6.07 0.22 1.36
-5.29 0.21 1.46
-8.59 0.35 1.04
-5.30 0.23 1.46
-8.49 0.39 1.05
-8.07 0.39 1.11
-8.09 0.49 1.10
-12.12 0.78 0.59
-12.49 0.87 0.54
-12.04 0.87 0.60
-8.00 0.61 1.11
-8.06 0.63 1.10
-12.00 0.95 0.60
-7.96 0.66 1.11
-8.20 0.70 1.08
-8.24 0.73 1.08
-8.38 0.76 1.06
-8.53 0.79 1.04
-8.71 0.83 1.02
-8.71 0.85 1.02
-8.94 0.90 0.99
-9.10 0.94 0.97
-9.14 0.96 0.96
-9.12 0.98 0.96
-9.06 1.00 0.97
-9.08 1.03 0.97
-9.15 1.06 0.96
-9.23 1.09 0.95
-9.15 1.10 0.96
-9.20 1.13 0.95
-9.16 1.15 0.95
-9.17 1.17 0.95
-9.32 1.22 0.93
-9.33 1.24 0.93
-6.41 -1.55 1.04
-5.01 -1.25 1.22
-5.50 -1.31 1.16
-6.14 -1.40 1.08
-5.07 -1.21 1.21
-6.19 -1.36 1.07
-5.07 -1.17 1.21
-6.37 -1.35 1.05
-5.35 -1.18 1.18
-4.98 -1.10 1.23
-5.66 -1.18 1.14
-5.36 -1.12 1.18
-5.34 -1.10 1.18
-5.58 -1.11 1.15
-5.25 -1.05 1.19
-5.33 -1.04 1.18
-5.15 -1.00 1.20
-5.34 -1.00 1.18
-5.58 -1.01 1.15
-5.33 -0.96 1.18
-5.47 -0.96 1.16
-5.55 -0.95 1.15
-5.49 -0.92 1.16
-5.53 -0.91 1.16
-5.55 -0.89 1.15
-5.66 -0.88 1.14
-5.55 -0.85 1.15
-5.34 -0.81 1.18
-5.24 -0.78 1.19
-5.39 -0.78 1.17
-5.29 -0.75 1.19
-5.60 -0.76 1.15
-5.53 -0.73 1.16
-5.60 -0.72 1.15
-5.72 -0.71 1.13
-5.95 -0.71 1.10
-5.72 -0.67 1.13
-5.22 -0.61 1.19
-4.95 -0.57 1.23
-5.02 -0.56 1.22
-4.81 -0.53 1.25
-5.14 -0.53 1.21
-4.84 -0.50 1.24
-4.54 -0.46 1.28
-4.58 -0.44 1.28
-4.66 -0.43 1.27
-4.52 -0.41 1.28
-4.91 -0.41 1.23
-5.09 -0.40 1.21
-4.85 -0.37 1.24
-4.91 -0.36 1.23
-4.67 -0.33 1.26
-4.81 -0.32 1.25
-4.42 -0.28 1.29
-4.56 -0.27 1.28
-4.53 -0.25 1.28
-4.54 -0.24 1.28
-4.49 -0.22 1.29
-4.59 -0.21 1.27
-4.28 -0.18 1.31
-4.48 -0.17 1.29
-4.68 -0.16 1.26
-4.68 -0.14 1.26
-4.72 -0.12 1.25
-4.67 -0.10 1.26
-4.41 -0.08 1.29
-4.75 -0.07 1.25
-4.94 -0.05 1.23
-5.14 -0.04 1.20
-5.00 -0.02 1.22
-9.44 0.01 0.87
-9.10 0.03 0.91
-9.04 0.05 0.92
-9.17 0.10 0.90
-5.61 0.07 1.38
-5.73 0.11 1.36
-5.72 0.12 1.36
-5.72 0.13 1.36
-5.77 0.15 1.35
-8.32 0.25 1.01
-5.93 0.20 1.33
-5.86 0.23 1.34
-5.41 0.22 1.40
-7.85 0.34 1.07
-5.36 0.28 1.41
-8.00 0.42 1.05
-8.06 0.47 1.04
-8.07 0.49 1.04
-8.56 0.54 0.98
-11.86 0.76 0.53
-11.91 0.83 0.53
-12.32 0.88 0.47
-8.08 0.63 1.04
-8.40 0.68 0.99
-8.70 0.74 0.95
-8.40 0.76 0.99
-8.76 0.81 0.94
-8.71 0.85 0.95
-8.85 0.89 0.93
-8.91 0.92 0.92
-9.05 0.95 0.90
-9.02 1.00 0.91
-9.12 1.03 0.89
-9.06 1.07 0.90
-9.11 1.10 0.89
-8.93 1.10 0.91
-9.05 1.14 0.90
-8.95 1.17 0.91
-9.14 1.22 0.88
-9.37 1.29 0.85
-9.31 1.31 0.86
-9.24 1.32 0.87
-9.27 1.42 0.86
-5.40 1.21 1.37
-5.30 1.23 1.38
-5.36 1.26 1.38
-5.04 1.23 1.42
-4.97 1.27 1.43
-4.85 1.27 1.44
-4.97 1.38 1.42
-4.12 1.66 1.51
-6.15 -1.63 1.01
-5.76 -1.52 1.06
-6.01 -1.52 1.03
-6.02 -1.50 1.03
-5.96 -1.47 1.04
-5.93 -1.45 1.04
-5.08 -1.28 1.16
-4.99 -1.25 1.17
-5.22 -1.27 1.14
-5.04 -1.22 1.16
-5.47 -1.27 1.10
-4.81 -1.15 1.19
-5.32 -1.21 1.12
-5.26 -1.18 1.13
-5.03 -1.13 1.16
-5.02 -1.11 1.16
-5.30 -1.13 1.13
-5.12 -1.09 1.15
-5.09 -1.06 1.15
-4.90 -1.02 1.18
-4.98 -1.01 1.17
-5.33 -1.04 1.12
-5.36 -1.02 1.12
-5.35 -1.00 1.12
-5.25 -0.97 1.13
-5.13 -0.94 1.15
-5.36 -0.95 1.12
-5.31 -0.92 1.13
-5.53 -0.93 1.10
-5.46 -0.90 1.11
-5.43 -0.88 1.11
-5.68 -0.89 1.08
-5.46 -0.85 1.11
-5.38 -0.82 1.12
-5.32 -0.79 1.13
-5.43 -0.78 1.11
-5.37 -0.76 1.12
-5.39 -0.74 1.12
-5.63 -0.74 1.08
-5.88 -0.75 1.05
-5.66 -0.71 1.08
-5.85 -0.70 1.05
-5.48 -0.65 1.10
-4.73 -0.58 1.20
-4.99 -0.58 1.17
-4.71 -0.54 1.21
-4.84 -0.53 1.19
-4.74 -0.51 1.20
-4.69 -0.49 1.21
-4.93 -0.48 1.18
-4.55 -0.44 1.23
-4.55 -0.43 1.23
-4.50 -0.41 1.23
-4.64 -0.40 1.21
-5.00 -0.40 1.17
-4.28 -0.34 1.26
-5.43 -0.38 1.11
-5.12 -0.35 1.15
-4.77 -0.32 1.20
-4.96 -0.31 1.17
-4.70 -0.28 1.21
-4.67 -0.26 1.21
-4.57 -0.24 1.22
-4.71 -0.23 1.20
-4.67 -0.21 1.21
-4.79 -0.19 1.19
-4.73 -0.18 1.20
-4.79 -0.16 1.19
-4.70 -0.14 1.20
-4.55 -0.12 1.22
-5.71 -0.08 1.37
-9.75 -0.09 0.83
-8.16 -0.06 1.04
-9.52 -0.02 0.86
-3.92 -0.00 1.26
-3.93 0.01 1.26
-3.71 0.03 1.29
-4.06 0.05 1.24
-3.92 0.06 1.26
-4.01 0.08 1.25
-4.07 0.09 1.24
-4.06 0.13 1.24
-4.37 0.15 1.20
-4.64 0.17 1.16
-4.48 0.18 1.18
-8.31 0.25 0.95
-8.44 0.32 0.93
-5.53 0.23 1.34
-8.09 0.35 0.98
-7.89 0.36 1.01
-8.32 0.40 0.95
-8.08 0.41 0.98
-11.53 0.66 0.49
-8.26 0.50 0.96
-8.70 0.54 0.89
-8.20 0.54 0.96
-7.99 0.54 0.99
-8.26 0.58 0.95
-8.68 0.63 0.89
-8.79 0.66 0.88
-8.40 0.65 0.93
-8.58 0.69 0.91
-8.97 0.74 0.85
-9.02 0.77 0.84
-8.67 0.76 0.89
-8.83 0.80 0.87
-8.67 0.80 0.89
-8.75 0.83 0.88
-8.73 0.85 0.88
-8.76 0.88 0.88
-8.71 0.90 0.88
-8.85 0.93 0.86
-8.76 0.94 0.88
-8.84 0.98 0.86
-8.85 1.00 0.86
-8.86 1.02 0.86
-8.67 1.02 0.89
-8.82 1.06 0.86
-8.83 1.09 0.86
-8.86 1.11 0.86
-8.82 1.13 0.86
-8.95 1.17 0.84
-8.93 1.19 0.85
-8.93 1.21 0.84
-9.00 1.24 0.83
-8.89 1.25 0.85
-8.93 1.28 0.84
-8.90 1.30 0.85
-8.96 1.33 0.84
-8.94 1.35 0.84
-9.04 1.39 0.82
-8.99 1.40 0.83
-8.88 1.41 0.84
-8.95 1.44 0.83
-9.06 1.53 0.82
-9.10 1.61 0.81
-5.53 1.23 1.31
-5.79 -1.54 1.00
-5.65 -1.50 1.02
-5.97 -1.54 0.97
-5.90 -1.48 0.98
-5.71 -1.43 1.01
-5.80 -1.42 1.00
-5.59 -1.37 1.03
-6.12 -1.44 0.95
-5.14 -1.26 1.09
-5.57 -1.29 1.03
-4.90 -1.16 1.13
-5.19 -1.19 1.09
-6.12 -1.31 0.95
-4.72 -1.08 1.15
-4.89 -1.09 1.13
-4.81 -1.06 1.14
-4.76 -1.02 1.15
-5.22 -1.04 1.08
-5.17 -1.02 1.09
-5.16 -1.00 1.09
-5.25 -0.99 1.08
-5.25 -0.97 1.08
-5.22 -0.95 1.08
-5.45 -0.96 1.05
-5.44 -0.94 1.05
-5.48 -0.92 1.05
-5.43 -0.90 1.05
-5.61 -0.90 1.03
-5.47 -0.86 1.05
-5.40 -0.82 1.06
-5.39 -0.80 1.06
-5.29 -0.77 1.07
-5.11 -0.73 1.10
-5.06 -0.71 1.11
-6.45 -0.82 0.91
-6.42 -0.79 0.91
-5.64 -0.71 1.02
-5.79 -0.70 1.00
-5.34 -0.62 1.07
-6.19 -0.67 0.95
-5.16 -0.57 1.09
-5.09 -0.55 1.10
-5.19 -0.54 1.09
-6.56 -0.61 0.89
-4.35 -0.45 1.21
-4.60 -0.45 1.17
-4.81 -0.42 1.14
-4.26 -0.38 1.22
-4.65 -0.38 1.16
-4.73 -0.37 1.15
-4.37 -0.33 1.20
-4.42 -0.30 1.19
-4.49 -0.29 1.18
-4.39 -0.27 1.20
-4.63 -0.26 1.16
-4.66 -0.24 1.16
-4.71 -0.23 1.15
-4.90 -0.21 1.12
-4.76 -0.19 1.15
-4.65 -0.16 1.16
-4.31 -0.13 1.21
-4.12 -0.11 1.23
-4.21 -0.10 1.22
-3.89 -0.08 1.27
-4.11 -0.06 1.24
-4.28 -0.03 1.21
-4.98 0.00 1.38
-9.11 0.03 0.77
-6.52 0.04 1.15
-7.01 0.06 1.08
-7.04 0.07 1.07
-7.21 0.09 1.05
-7.12 0.11 1.06
-7.30 0.13 1.03
-7.33 0.15 1.03
-6.94 0.16 1.09
-5.98 0.15 1.23
-7.07 0.20 1.07
-8.53 0.26 0.85
-8.29 0.27 0.89
-5.48 0.20 1.30
-8.42 0.32 0.87
-7.70 0.31 0.97
-6.02 0.26 1.22
-6.05 0.28 1.22
-5.44 0.27 1.31
-5.24 0.27 1.34
-5.47 0.30 1.30
-5.58 0.32 1.29
-5.92 0.35 1.23
-5.20 0.32 1.34
-11.47 0.71 0.41
-11.25 0.73 0.44
-8.59 0.58 0.84
-8.54 0.60 0.84
-8.88 0.65 0.79
-8.77 0.66 0.81
-9.07 0.70 0.76
-8.94 0.72 0.78
-8.84 0.73 0.80
-8.70 0.74 0.82
-8.93 0.78 0.78
-8.79 0.79 0.80
-8.94 0.83 0.78
-8.75 0.84 0.81
-8.80 0.86 0.80
-8.68 0.87 0.82
-8.76 0.90 0.80
-8.74 0.92 0.80
-8.58 0.93 0.83
-8.62 0.95 0.82
-8.57 0.97 0.83
-8.69 1.01 0.81
-8.77 1.04 0.80
-8.73 1.05 0.80
-8.76 1.08 0.80
-8.68 1.09 0.81
-8.86 1.14 0.78
-8.69 1.14 0.81
-8.75 1.17 0.80
-8.72 1.19 0.80
-8.82 1.22 0.78
-8.85 1.25 0.78
-8.85 1.27 0.78
-8.86 1.29 0.78
-8.85 1.32 0.78
-8.76 1.33 0.79
-8.79 1.35 0.78
-8.81 1.38 0.78
-8.83 1.40 0.78
-8.72 1.41 0.79
-8.82 1.45 0.78
-8.87 1.48 0.77
-8.87 1.50 0.77
-9.01 1.55 0.75
-9.01 1.57 0.75
-9.00 1.59 0.74
-5.48 1.15 1.27
-5.39 1.15 1.29
-5.39 1.16 1.29
-5.06 1.17 1.33
-5.07 1.32 1.32
-5.00 1.33 1.33
-5.03 1.41 1.32
-4.65 1.48 1.37
-4.64 1.66 1.37
-4.32 1.57 1.42
-4.47 1.65 1.39
-5.33 -1.48 1.00
-5.65 -1.52 0.95
-5.81 -1.53 0.93
-5.91 -1.53 0.91
-6.12 -1.54 0.88
-5.63 -1.44 0.95
-5.75 -1.44 0.94
-5.47 -1.37 0.98
-6.10 -1.46 0.89
-5.98 -1.42 0.90
-6.05 -1.41 0.89
-6.31 -1.43 0.85
-5.02 -1.20 1.05
-4.85 -1.16 1.07
-4.89 -1.15 1.07
-4.95 -1.14 1.06
-5.36 -1.18 1.00
-4.86 -1.09 1.07
-5.12 -1.11 1.03
-4.81 -1.04 1.08
-5.01 -1.05 1.05
-4.85 -1.01 1.07
-5.64 -1.10 0.96
-5.58 -1.07 0.97
-5.37 -1.03 1.00
-5.06 -0.97 1.04
-5.06 -0.95 1.04
-5.24 -0.96 1.02
-5.43 -0.96 0.99
-5.45 -0.94 0.98
-5.45 -0.92 0.98
-5.45 -0.90 0.98
-5.43 -0.88 0.99
-5.34 -0.85 1.00
-5.25 -0.82 1.02
-5.12 -0.79 1.03
-5.11 -0.77 1.04
-5.05 -0.75 1.04
-4.90 -0.72 1.07
-4.85 -0.69 1.08
-4.73 -0.66 1.09
-4.77 -0.65 1.09
-5.14 -0.66 1.03
-4.73 -0.61 1.09
-6.25 -0.72 0.87
-5.99 -0.68 0.91
-5.86 -0.65 0.92
-6.03 -0.64 0.90
-6.08 -0.62 0.89
-5.79 -0.58 0.93
-4.81 -0.50 1.08
-4.63 -0.47 1.11
-4.41 -0.44 1.14
-4.96 -0.45 1.06
-4.80 -0.42 1.08
-4.35 -0.38 1.15
-4.32 -0.36 1.15
-4.25 -0.34 1.16
-4.13 -0.32 1.18
-4.34 -0.32 1.15
-4.05 -0.29 1.19
-4.08 -0.27 1.19
-4.01 -0.25 1.20
-4.09 -0.24 1.18
-5.21 -0.18 1.35
-5.31 -0.17 1.33
-4.90 -0.15 1.39
-4.99 -0.14 1.38
-5.18 -0.13 1.35
-5.26 -0.12 1.34
-5.27 -0.10 1.34
-5.14 -0.09 1.36
-5.35 -0.08 1.33
-5.49 -0.07 1.31
-5.33 -0.05 1.33
-5.36 -0.04 1.33
-5.07 -0.02 1.37
-5.19 -0.01 1.35
-8.07 -0.00 0.52
-7.60 0.02 0.59
-7.28 0.05 0.64
-7.16 0.07 0.66
-7.26 0.16 0.64
-7.05 0.20 0.67
-3.48 0.23 1.23
-9.41 0.51 0.30
-2.72 0.24 1.35
-11.13 0.55 0.38
-11.44 0.60 0.33
-11.27 0.62 0.36
-10.78 0.72 0.43
-8.86 0.62 0.73
-10.67 0.77 0.45
-8.87 0.67 0.73
-8.79 0.68 0.74
-8.89 0.71 0.72
-9.43 0.78 0.64
-8.86 0.75 0.73
-8.89 0.78 0.72
-9.07 0.82 0.69
-8.84 0.82 0.73
-9.10 0.86 0.69
-9.62 0.94 0.61
-8.83 0.88 0.73
-9.19 0.96 0.67
-8.79 0.95 0.73
-8.70 0.96 0.75
-8.88 1.00 0.72
-8.75 1.03 0.74
-8.76 1.05 0.73
-8.78 1.08 0.73
-8.91 1.12 0.71
-8.80 1.13 0.73
-8.74 1.14 0.74
-8.83 1.17 0.72
-8.82 1.20 0.72
-8.85 1.22 0.72
-8.83 1.24 0.72
-8.78 1.26 0.73
-8.73 1.27 0.73
-8.72 1.29 0.73
-8.61 1.30 0.75
-8.64 1.33 0.75
-8.81 1.37 0.72
-8.69 1.38 0.74
-8.69 1.40 0.74
-8.81 1.44 0.72
-8.79 1.46 0.72
-8.91 1.50 0.70
-8.91 1.53 0.70
-8.81 1.53 0.71
-3.18 0.67 1.60
-3.66 1.27 1.50
-2.40 0.99 1.70
-5.52 -1.36 0.92
-6.43 -1.49 0.77
-6.51 -1.46 0.76
-4.88 -1.18 1.02
-4.70 -1.11 1.05
-4.98 -1.14 1.00
-4.83 -1.10 1.03
-5.72 -1.19 0.89
-5.79 -1.18 0.88
-5.81 -1.14 0.87
-5.52 -1.02 0.92
-5.51 -0.98 0.92
-5.53 -0.97 0.92
-5.58 -0.95 0.91
-5.66 -0.94 0.90
-5.63 -0.92 0.90
-5.57 -0.89 0.91
-5.41 -0.86 0.94
-5.14 -0.81 0.98
-5.18 -0.80 0.97
-5.15 -0.77 0.98
-5.23 -0.76 0.96
-4.90 -0.70 1.02
-6.80 -0.85 0.72
-7.01 -0.85 0.69
-6.46 -0.56 0.77
-4.03 -0.38 1.15
-4.00 -0.35 1.16
-3.86 -0.31 1.18
-4.13 -0.31 1.13
-4.04 -0.29 1.15
-8.15 -0.44 0.51
-4.14 -0.26 1.13
-4.12 -0.24 1.14
-3.85 -0.22 1.18
-3.76 -0.20 1.19
-4.03 -0.19 1.15
-4.36 -0.18 1.10
-4.08 -0.16 1.14
-3.94 -0.14 1.16
-4.41 -0.13 1.09
-4.07 -0.11 1.14
-8.78 -0.16 0.41
-8.43 -0.11 0.46
-7.33 -0.05 0.63
-7.74 -0.03 0.57
-5.42 0.00 1.23
-5.63 0.02 1.19
-4.98 0.03 1.30
-5.36 0.04 1.23
-5.13 0.05 1.27
-5.69 0.07 1.18
-5.35 0.08 1.24
-8.10 0.16 0.78
-5.35 0.13 1.23
-5.39 0.14 1.23
-5.50 0.16 1.21
-5.61 0.17 1.19
-5.23 0.18 1.25
-5.62 0.20 1.19
-10.79 0.40 0.34
-5.36 0.24 1.23
-5.44 0.25 1.22
-5.38 0.26 1.23
-7.55 0.42 0.87
-8.22 0.50 0.76
-10.67 0.66 0.35
-10.24 0.66 0.43
-9.66 0.65 0.52
-9.34 0.65 0.57
-8.67 0.63 0.68
-8.90 0.67 0.64
-8.58 0.67 0.70
-8.86 0.71 0.65
-8.83 0.73 0.65
-9.06 0.77 0.61
-9.26 0.81 0.58
-8.79 0.79 0.66
-9.50 0.88 0.54
-8.67 0.83 0.68
-9.24 0.90 0.58
-9.80 0.98 0.49
-8.91 0.92 0.64
-8.85 0.93 0.65
-9.42 1.01 0.55
-9.06 1.00 0.61
-9.05 1.02 0.61
-9.00 1.04 0.62
-9.16 1.08 0.59
-9.05 1.09 0.61
-8.82 1.09 0.64
-8.67 1.09 0.67
-8.66 1.11 0.67
-8.53 1.12 0.69
-8.56 1.14 0.69
-8.53 1.16 0.69
-8.64 1.20 0.67
-8.51 1.20 0.69
-8.63 1.24 0.67
-8.66 1.27 0.66
-8.63 1.29 0.67
-8.62 1.31 0.67
-8.68 1.34 0.66
-8.69 1.36 0.66
-8.67 1.38 0.66
-8.67 1.40 0.66
-8.65 1.42 0.66
-8.63 1.44 0.66
-8.86 1.50 0.62
-8.63 1.49 0.66
-8.63 1.51 0.66
-8.40 1.49 0.70
-8.74 1.57 0.64
-4.06 0.93 1.41
-4.33 1.04 1.37
-4.39 1.06 1.36
-5.39 -1.51 0.86
-5.36 -1.45 0.87
-4.78 -1.26 0.97
-5.15 -1.30 0.91
-4.97 -1.25 0.94
-4.73 -1.19 0.98
-5.49 -1.30 0.85
-6.14 -1.38 0.74
-4.91 -1.17 0.95
-4.62 -1.11 0.99
-6.56 -1.38 0.68
-5.04 -1.13 0.93
-6.13 -1.27 0.75
-5.53 -1.17 0.85
-4.90 -1.06 0.95
-4.77 -1.02 0.97
-5.79 -1.14 0.80
-5.64 -1.10 0.83
-5.73 -1.10 0.81
-5.52 -1.05 0.85
-5.18 -0.99 0.90
-5.33 -0.99 0.88
-5.00 -0.93 0.93
-5.29 -0.94 0.89
-5.62 -0.96 0.83
-5.39 -0.92 0.87
-5.03 -0.86 0.93
-5.03 -0.84 0.93
-4.89 -0.81 0.95
-4.96 -0.80 0.94
-5.07 -0.79 0.92
-5.18 -0.78 0.91
-5.06 -0.75 0.93
-5.18 -0.74 0.91
-5.16 -0.72 0.91
-5.16 -0.71 0.91
-5.48 -0.72 0.86
-3.48 -0.52 1.18
-5.20 -0.65 0.90
-4.68 -0.59 0.99
-5.49 -0.64 0.85
-5.54 -0.62 0.85
-5.83 -0.63 0.80
-5.68 -0.59 0.82
-5.10 -0.53 0.92
-5.91 -0.57 0.79
-5.02 -0.49 0.93
-4.72 -0.46 0.98
-4.64 -0.43 0.99
-4.54 -0.41 1.01
-4.44 -0.39 1.03
-6.99 -0.38 0.97
-6.93 -0.36 0.98
-5.63 -0.28 1.19
-5.28 -0.25 1.25
-5.11 -0.23 1.28
-5.14 -0.22 1.28
-5.17 -0.21 1.27
-5.08 -0.19 1.28
-4.98 -0.18 1.30
-5.26 -0.17 1.25
-5.56 -0.17 1.21
-5.30 -0.15 1.25
-4.98 -0.13 1.30
-5.29 -0.12 1.25
-5.03 -0.10 1.29
-5.04 -0.09 1.29
-4.96 -0.07 1.30
-5.00 -0.06 1.30
-5.07 -0.05 1.28
-5.17 -0.04 1.27
-5.01 -0.02 1.29
-5.06 -0.01 1.28
-3.30 -0.00 1.16
-3.16 0.01 1.19
-3.27 0.03 1.17
-4.78 0.04 1.29
-4.69 0.05 1.31
-5.12 0.08 1.23
-4.97 0.11 1.26
-5.06 0.12 1.24
-5.18 0.14 1.22
-5.29 0.15 1.20
-5.32 0.16 1.20
-7.85 0.28 0.76
-5.26 0.22 1.21
-5.31 0.23 1.20
-10.17 0.45 0.36
-7.55 0.36 0.81
-7.79 0.39 0.77
-7.82 0.43 0.76
-7.67 0.46 0.79
-5.62 0.36 1.14
-9.86 0.64 0.41
-9.71 0.65 0.43
-9.61 0.67 0.45
-9.45 0.71 0.48
-9.40 0.75 0.48
-8.23 0.68 0.69
-9.15 0.78 0.52
-8.55 0.75 0.63
-8.64 0.78 0.61
-8.23 0.79 0.68
-9.59 0.96 0.45
-9.70 0.99 0.43
-10.11 1.06 0.35
-8.81 0.95 0.58
-9.40 1.03 0.47
-9.08 1.05 0.53
-8.92 1.07 0.56
-8.74 1.07 0.59
-8.68 1.09 0.60
-8.72 1.12 0.59
-8.56 1.12 0.61
-8.48 1.15 0.63
-8.40 1.18 0.64
-8.45 1.21 0.63
-8.39 1.23 0.64
-8.42 1.25 0.63
-8.51 1.29 0.62
-8.43 1.32 0.63
-8.49 1.37 0.62
-8.55 1.40 0.61
-8.51 1.42 0.61
-8.51 1.44 0.61
-8.39 1.44 0.63
-8.53 1.51 0.61
-4.19 0.92 1.36
-3.88 0.87 1.41
-4.05 0.92 1.38
-4.09 0.95 1.37
-4.29 1.01 1.34
-3.93 0.95 1.40
-3.96 0.96 1.40
-5.12 -1.61 0.85
-5.99 -1.67 0.70
-5.41 -1.53 0.80
-5.43 -1.52 0.79
-4.86 -1.34 0.89
-1.29 -0.69 1.52
-4.94 -1.32 0.88
-4.80 -1.27 0.91
-4.80 -1.26 0.91
-4.83 -1.24 0.90
-4.81 -1.22 0.90
-4.71 -1.19 0.92
-4.73 -1.17 0.92
-5.09 -1.21 0.86
-5.12 -1.20 0.85
-4.92 -1.15 0.89
-5.57 -1.23 0.78
-4.69 -1.08 0.93
-4.57 -1.04 0.95
-5.74 -1.19 0.75
-5.41 -1.13 0.80
-5.67 -1.15 0.76
-5.01 -1.04 0.87
-4.80 -0.99 0.91
-5.05 -1.00 0.87
-4.79 -0.95 0.91
-4.86 -0.94 0.90
-5.13 -0.96 0.85
-4.86 -0.91 0.90
-5.69 -0.99 0.76
-4.97 -0.89 0.88
-4.97 -0.87 0.88
-4.76 -0.83 0.92
-4.90 -0.82 0.89
-4.89 -0.80 0.90
-4.93 -0.79 0.89
-4.73 -0.75 0.92
-4.62 -0.72 0.94
-4.84 -0.73 0.90
-4.73 -0.70 0.92
-4.78 -0.69 0.91
-4.84 -0.67 0.90
-5.03 -0.67 0.87
-4.69 -0.63 0.93
-4.85 -0.62 0.90
-4.78 -0.60 0.91
-4.71 -0.58 0.93
-5.18 -0.59 0.85
-4.91 -0.56 0.89
-5.02 -0.55 0.87
-4.77 -0.51 0.92
-4.61 -0.48 0.94
-4.73 -0.47 0.92
-4.59 -0.45 0.95
-4.41 -0.42 0.98
-4.34 -0.40 0.99
-4.48 -0.39 0.97
-4.39 -0.37 0.98
-4.40 -0.35 0.98
-4.32 -0.33 0.99
-4.29 -0.31 1.00
-4.46 -0.30 0.97
-4.36 -0.28 0.98
-4.41 -0.27 0.98
-4.35 -0.25 0.99
-4.40 -0.24 0.98
-4.23 -0.21 1.01
-4.29 -0.20 1.00
-3.93 -0.17 1.06
-4.00 -0.16 1.05
-3.61 -0.14 1.11
-3.48 -0.12 1.14
-3.73 -0.11 1.09
-3.83 -0.09 1.07
-3.55 -0.08 1.12
-3.52 -0.06 1.13
-3.38 -0.05 1.15
-3.34 -0.03 1.16
-3.31 -0.02 1.16
-5.15 0.00 1.18
-5.22 0.02 1.17
-5.40 0.03 1.14
-5.36 0.04 1.14
-5.52 0.06 1.11
-5.76 0.07 1.07
-5.29 0.08 1.16
-5.42 0.10 1.13
-5.49 0.11 1.12
-5.95 0.14 1.04
-5.83 0.15 1.06
-5.45 0.15 1.13
-5.62 0.17 1.09
-5.53 0.18 1.11
-6.37 0.23 0.96
-7.77 0.29 0.71
-7.79 0.31 0.70
-5.79 0.25 1.06
-6.01 0.29 1.02
-7.29 0.37 0.79
-7.24 0.38 0.80
-7.24 0.40 0.80
-6.66 0.39 0.90
-6.63 0.40 0.91
-7.14 0.45 0.82
-7.40 0.49 0.77
-7.41 0.50 0.76
-7.65 0.54 0.72
-7.94 0.58 0.67
-7.92 0.60 0.67
-7.78 0.61 0.70
-7.86 0.63 0.68
-9.28 0.76 0.42
-9.59 0.81 0.37
-7.96 0.70 0.66
-9.12 0.82 0.45
-8.93 0.83 0.48
-8.81 0.84 0.51
-8.84 0.86 0.50
-9.73 0.97 0.34
-8.28 0.85 0.60
-9.41 0.99 0.39
-9.13 0.98 0.44
-9.24 1.02 0.42
-9.61 1.08 0.36
-8.82 1.02 0.50
-5.75 0.70 1.05
-8.87 1.07 0.49
-8.81 1.08 0.50
-8.76 1.10 0.51
-8.35 1.07 0.58
-5.90 0.79 1.03
-5.41 0.74 1.11
-8.27 1.13 0.59
-5.52 0.79 1.09
-5.55 0.80 1.09
-5.52 0.82 1.09
-8.24 1.21 0.59
-5.18 0.80 1.15
-8.30 1.26 0.58
-8.36 1.29 0.57
-8.28 1.30 0.58
-5.39 0.88 1.11
-8.36 1.35 0.57
-8.37 1.38 0.56
-5.70 0.97 1.05
-8.50 1.44 0.54
-8.45 1.45 0.55
-8.66 1.51 0.51
-5.00 1.01 1.17
-5.12 1.05 1.15
-5.54 1.23 1.07
-5.04 1.20 1.16
-5.23 1.26 1.12
-5.04 1.23 1.15
-4.89 1.21 1.18
-5.28 1.33 1.11
-4.53 1.17 1.25
-4.91 1.27 1.17
-4.49 1.18 1.25
-5.01 1.37 1.15
-4.90 1.47 1.17
-4.67 1.45 1.20
-4.85 1.53 1.17
-4.94 1.60 1.15
-4.56 1.50 1.22
-4.79 1.62 1.17
-4.33 1.57 1.25
-4.43 1.62 1.23
-5.29 -1.65 0.75
-5.43 -1.66 0.73
-5.50 -1.65 0.71
-5.33 -1.60 0.74
-5.01 -1.52 0.80
-5.03 -1.50 0.80
-5.06 -1.49 0.80
-5.19 -1.49 0.77
-4.99 -1.44 0.81
-5.07 -1.43 0.79
-4.99 -1.40 0.81
-5.06 -1.40 0.80
-4.82 -1.33 0.84
-4.89 -1.33 0.83
-4.80 -1.29 0.84
-4.97 -1.30 0.81
-4.91 -1.28 0.83
-4.85 -1.25 0.84
-4.78 -1.22 0.85
-4.90 -1.22 0.83
-4.89 -1.20 0.83
-4.96 -1.19 0.82
-4.97 -1.18 0.81
-5.07 -1.17 0.80
-5.09 -1.16 0.79
-5.14 -1.15 0.79
-5.11 -1.12 0.79
-5.21 -1.12 0.77
-5.09 -1.08 0.80
-5.19 -1.08 0.78
-5.35 -1.08 0.75
-4.93 -1.01 0.82
-4.92 -0.99 0.83
-5.09 -0.99 0.80
-5.25 -0.99 0.77
-5.15 -0.96 0.79
-5.32 -0.97 0.75
-5.01 -0.91 0.81
-5.04 -0.89 0.81
-5.08 -0.88 0.80
-5.13 -0.87 0.79
-5.06 -0.84 0.80
-4.88 -0.81 0.83
-4.79 -0.78 0.85
-5.05 -0.79 0.80
-4.86 -0.75 0.84
-4.57 -0.70 0.89
-4.62 -0.69 0.88
-4.72 -0.68 0.86
-4.59 -0.65 0.89
-4.40 -0.62 0.92
-4.51 -0.61 0.90
-4.77 -0.62 0.85
-4.69 -0.59 0.87
-4.90 -0.59 0.83
-4.73 -0.56 0.86
-4.84 -0.55 0.84
-4.77 -0.53 0.85
-4.87 -0.52 0.84
-4.87 -0.50 0.84
-4.70 -0.47 0.87
-4.54 -0.44 0.90
-4.52 -0.43 0.90
-4.58 -0.41 0.89
-4.42 -0.39 0.92
-4.52 -0.38 0.90
-4.37 -0.35 0.93
-4.22 -0.33 0.95
-4.32 -0.32 0.94
-4.39 -0.30 0.92
-4.47 -0.29 0.91
-4.52 -0.27 0.90
-4.37 -0.25 0.92
-4.56 -0.24 0.89
-4.70 -0.23 0.86
-4.61 -0.21 0.88
-4.68 -0.19 0.87
-4.36 -0.17 0.92
-4.78 -0.16 0.85
-4.12 -0.13 0.97
-4.05 -0.11 0.98
-4.84 -0.07 1.24
-4.91 -0.06 1.23
-4.88 -0.05 1.23
-4.79 -0.03 1.25
-5.05 -0.02 1.20
-5.07 -0.01 1.20
-3.46 -0.00 1.03
-3.29 0.01 1.07
-3.33 0.03 1.06
-3.49 0.04 1.03
-3.48 0.05 1.03
-3.49 0.07 1.03
-7.02 0.13 0.36
-7.04 0.16 0.36
-6.93 0.18 0.38
-3.74 0.13 0.98
-4.09 0.16 0.91
-4.29 0.18 0.87
-5.46 0.17 1.07
-5.41 0.18 1.08
-5.36 0.19 1.09
-5.44 0.21 1.08
-5.35 0.22 1.09
-5.52 0.24 1.06
-5.94 0.27 0.98
-5.89 0.29 0.99
-4.23 0.22 1.30
-5.77 0.31 1.01
-5.52 0.31 1.06
-7.22 0.42 0.74
-5.52 0.34 1.06
-9.32 0.58 0.34
-5.58 0.37 1.05
-9.34 0.63 0.33
-9.25 0.64 0.35
-9.46 0.68 0.31
-8.43 0.63 0.50
-9.34 0.72 0.33
-9.40 0.75 0.32
-9.54 0.83 0.29
-9.32 0.86 0.33
-8.89 0.87 0.41
-8.11 0.83 0.56
-8.87 0.98 0.41
-9.20 1.03 0.35
-8.67 1.00 0.45
-8.68 1.02 0.44
-8.57 1.03 0.47
-8.28 1.02 0.52
-8.45 1.06 0.49
-8.42 1.08 0.49
-8.19 1.07 0.54
-8.28 1.10 0.52
-8.21 1.12 0.53
-8.37 1.16 0.50
-8.36 1.18 0.50
-8.22 1.18 0.52
-8.24 1.20 0.52
-8.23 1.22 0.52
-8.31 1.26 0.50
-8.29 1.27 0.51
-3.92 0.65 1.34
-8.35 1.33 0.49
-8.44 1.36 0.48
-8.31 1.36 0.50
-8.38 1.40 0.49
-8.40 1.42 0.48
-8.41 1.44 0.48
-3.92 0.83 1.34
-4.17 0.89 1.29
-3.84 0.89 1.35
-4.18 0.98 1.28
-3.93 0.96 1.33
-4.15 1.02 1.28
-4.01 1.00 1.31
-4.12 1.07 1.28
-4.64 1.40 1.17
-4.49 1.38 1.20
-4.55 1.41 1.18
-4.45 1.40 1.20
-4.34 1.38 1.22
-4.50 1.44 1.19
-4.37 1.41 1.22
-4.42 1.44 1.21
-4.27 1.41 1.23
-4.39 1.46 1.21
-4.39 1.47 1.21
-4.40 1.49 1.21
-4.41 1.50 1.20
-4.49 1.54 1.19
-4.38 1.52 1.21
-5.23 -1.65 0.69
-5.23 -1.63 0.69
-1.78 -0.82 1.36
-1.91 -0.84 1.33
-1.68 -0.78 1.38
-1.90 -0.82 1.33
-4.87 -1.34 0.77
-1.81 -0.78 1.35
-1.67 -0.73 1.38
-1.77 -0.74 1.36
-4.78 -1.23 0.79
-4.82 -1.22 0.78
-1.69 -0.70 1.37
-5.35 -1.27 0.68
-5.25 -1.24 0.70
-5.42 -1.25 0.67
-5.33 -1.21 0.68
-5.15 -1.17 0.72
-1.37 -0.59 1.43
-1.49 -0.59 1.41
-1.46 -0.58 1.42
-1.61 -0.59 1.39
-1.33 -0.54 1.44
-5.47 -1.10 0.66
-1.58 -0.56 1.40
-5.49 -1.06 0.66
-5.44 -1.04 0.66
-4.99 -0.96 0.75
-5.17 -0.96 0.72
-5.30 -0.96 0.69
-5.22 -0.93 0.71
-5.00 -0.89 0.75
-4.95 -0.87 0.76
-4.91 -0.84 0.76
-4.81 -0.81 0.78
-4.65 -0.78 0.82
-4.60 -0.76 0.82
-4.62 -0.74 0.82
-4.91 -0.75 0.77
-4.36 -0.68 0.87
-4.74 -0.70 0.80
-4.68 -0.68 0.81
-4.60 -0.65 0.83
-4.48 -0.63 0.85
-4.57 -0.62 0.83
-4.09 -0.56 0.92
-4.38 -0.57 0.87
-3.62 -0.49 1.01
-3.98 -0.50 0.94
-4.51 -0.53 0.84
-4.58 -0.51 0.83
-4.50 -0.49 0.84
-4.39 -0.47 0.86
-4.34 -0.45 0.87
-4.35 -0.43 0.87
-4.25 -0.41 0.89
-4.27 -0.40 0.89
-4.14 -0.37 0.91
-4.22 -0.36 0.90
-4.10 -0.34 0.92
-4.36 -0.33 0.87
-4.27 -0.31 0.89
-4.44 -0.30 0.85
-4.57 -0.29 0.83
-4.37 -0.27 0.87
-4.58 -0.26 0.83
-4.59 -0.24 0.82
-4.67 -0.23 0.81
-4.42 -0.20 0.86
-4.60 -0.19 0.82
-4.85 -0.18 0.78
-4.97 -0.17 0.75
-5.20 -0.15 0.71
-3.88 -0.10 0.96
-4.21 -0.08 0.89
-5.50 -0.08 0.65
-3.61 -0.05 1.01
-3.40 -0.03 1.05
-3.50 -0.02 1.03
-5.66 0.00 0.98
-6.37 0.02 0.84
-7.81 0.04 0.56
-7.59 0.06 0.60
-7.64 0.08 0.59
-7.44 0.09 0.63
-6.65 0.10 0.79
-6.83 0.12 0.75
-7.02 0.14 0.71
-7.41 0.17 0.63
-6.86 0.17 0.74
-6.89 0.19 0.74
-5.48 0.17 1.01
-6.21 0.21 0.87
-5.69 0.20 0.97
-6.07 0.23 0.90
-5.31 0.22 1.05
-6.24 0.27 0.86
-6.84 0.31 0.74
-7.07 0.34 0.70
-7.44 0.37 0.62
-7.40 0.41 0.63
-6.09 0.36 0.89
-7.55 0.47 0.60
-7.40 0.48 0.63
-5.71 0.40 0.96
-5.77 0.41 0.95
-7.84 0.57 0.54
-7.90 0.59 0.53
-7.93 0.62 0.52
-7.76 0.62 0.55
-7.82 0.65 0.54
-7.75 0.66 0.55
-7.70 0.68 0.56
-7.77 0.70 0.55
-7.70 0.72 0.56
-7.76 0.74 0.55
-7.70 0.76 0.56
-7.87 0.79 0.53
-7.90 0.82 0.52
-7.94 0.84 0.51
-7.96 0.86 0.51
-7.96 0.88 0.51
-5.09 0.60 1.08
-8.16 0.94 0.47
-7.97 0.94 0.50
-8.01 0.97 0.49
-8.27 1.02 0.44
-8.21 1.03 0.45
-8.26 1.06 0.44
-8.29 1.09 0.44
-5.18 0.71 1.05
-5.20 0.73 1.05
-8.12 1.13 0.47
-8.10 1.15 0.47
-8.13 1.17 0.46
-8.03 1.18 0.48
-8.27 1.23 0.43
-8.18 1.24 0.45
-8.22 1.27 0.44
-4.57 0.75 1.17
-8.21 1.31 0.44
-8.24 1.33 0.43
-4.88 0.83 1.11
-5.12 0.88 1.06
-4.40 0.78 1.20
-5.15 0.96 1.05
-4.09 0.79 1.26
-4.56 0.88 1.17
-5.30 1.03 1.02
-4.31 0.86 1.22
-5.67 1.12 0.94
-4.43 0.92 1.19
-4.48 0.94 1.18
-5.51 1.15 0.97
-4.52 0.99 1.17
-4.50 1.00 1.17
-4.31 0.97 1.21
-4.30 0.98 1.21
-4.28 0.99 1.21
-4.53 1.05 1.16
-4.25 1.01 1.22
-4.32 1.03 1.20
-4.62 1.11 1.14
-4.35 1.06 1.20
-4.36 1.08 1.19
-4.46 1.11 1.17
-4.32 1.09 1.20
-4.42 1.13 1.18
-4.50 1.16 1.16
-4.66 1.21 1.13
-4.47 1.18 1.17
-4.57 1.21 1.14
-4.70 1.26 1.12
-4.44 1.21 1.17
-4.43 1.22 1.17
-4.39 1.22 1.18
-4.31 1.22 1.19
-4.36 1.24 1.18
-4.47 1.28 1.16
-4.40 1.27 1.17
-4.54 1.32 1.14
-4.50 1.33 1.15
-4.44 1.32 1.16
-4.46 1.34 1.16
-4.37 1.33 1.17
-4.47 1.37 1.15
-4.46 1.38 1.15
-4.40 1.38 1.17
-4.42 1.39 1.16
-4.44 1.41 1.16
-4.46 1.43 1.15
-4.42 1.43 1.16
-4.52 1.48 1.14
-4.45 1.47 1.15
-4.36 1.46 1.17
-4.41 1.48 1.16
-4.35 1.48 1.17
-4.41 1.51 1.15
-4.47 1.54 1.14
-4.44 1.55 1.15
-4.40 1.55 1.15
-4.38 1.55 1.16
-4.35 1.55 1.16
-4.39 1.58 1.15
-4.32 1.57 1.17
-4.32 1.58 1.17
-4.25 1.58 1.18
-4.35 1.62 1.16
-4.44 1.66 1.14
-4.21 1.60 1.18
-4.37 1.67 1.15
-4.34 1.67 1.15
-4.62 -1.53 0.74
-5.30 -1.65 0.61
-4.59 -1.47 0.75
-5.07 -1.55 0.65
-4.87 -1.49 0.69
-4.83 -1.46 0.70
-4.67 -1.41 0.74
-4.81 -1.42 0.71
-2.15 -0.90 1.24
-1.97 -0.86 1.28
-1.99 -0.85 1.27
-4.33 -1.25 0.80
-4.22 -1.19 0.83
-4.28 -1.19 0.82
-4.43 -1.20 0.79
-5.36 -1.34 0.60
-4.95 -1.25 0.68
-5.66 -1.35 0.54
-5.59 -1.32 0.56
-5.41 -1.27 0.59
-6.45 -1.41 0.39
-5.87 -1.30 0.50
-5.49 -1.22 0.58
-5.47 -1.20 0.58
-5.40 -1.17 0.60
-5.44 -1.15 0.59
-5.42 -1.13 0.59
-5.42 -1.11 0.59
-5.24 -1.07 0.63
-5.39 -1.07 0.60
-5.56 -1.08 0.56
-5.41 -1.04 0.60
-5.43 -1.02 0.59
-5.17 -0.97 0.64
-5.15 -0.95 0.65
-4.79 -0.88 0.72
-4.75 -0.86 0.73
-4.76 -0.85 0.73
-4.86 -0.84 0.71
-4.73 -0.81 0.73
-4.67 -0.78 0.74
-4.67 -0.77 0.74
-4.98 -0.78 0.68
-4.70 -0.73 0.74
-4.86 -0.73 0.71
-4.77 -0.71 0.72
-4.61 -0.67 0.75
-4.45 -0.64 0.79
-4.86 -0.66 0.71
-4.58 -0.62 0.76
-4.50 -0.60 0.78
-4.34 -0.57 0.81
-4.29 -0.55 0.82
-4.33 -0.53 0.81
-4.17 -0.50 0.84
-4.34 -0.50 0.81
-4.54 -0.50 0.77
-4.33 -0.47 0.81
-4.36 -0.45 0.81
-4.39 -0.44 0.80
-4.36 -0.42 0.81
-4.17 -0.39 0.84
-4.04 -0.37 0.87
-4.15 -0.36 0.85
-4.13 -0.34 0.85
-4.25 -0.33 0.83
-4.28 -0.32 0.82
-4.17 -0.29 0.84
-4.83 -0.31 0.71
-4.73 -0.28 0.73
-4.65 -0.26 0.75
-5.28 -0.19 1.06
-5.26 -0.17 1.06
-5.41 -0.16 1.04
-7.97 -0.22 0.53
-7.64 -0.19 0.59
-7.71 -0.17 0.58
-4.96 -0.10 1.12
-5.16 -0.09 1.08
-4.93 -0.08 1.13
-8.46 -0.11 0.43
-7.96 -0.08 0.53
-5.54 -0.04 1.01
-8.06 -0.04 0.51
-6.21 -0.02 0.87
-5.92 -0.00 0.42
-5.88 0.02 0.43
-6.15 0.04 0.38
-5.83 0.06 0.44
-6.17 0.08 0.37
-5.56 0.09 0.50
-3.66 0.09 0.89
-6.04 0.14 0.40
-5.78 0.15 0.45
-5.94 0.18 0.42
-5.95 0.20 0.42
-5.92 0.22 0.42
-5.94 0.24 0.42
-6.17 0.27 0.37
-3.74 0.21 0.87
-3.64 0.22 0.89
-3.70 0.24 0.88
-3.67 0.25 0.88
-3.76 0.27 0.86
-3.60 0.28 0.90
-7.93 0.40 0.46
-7.69 0.41 0.51
-8.52 0.47 0.34
-8.36 0.48 0.37
-7.52 0.45 0.54
-7.54 0.49 0.54
-7.67 0.52 0.51
-7.38 0.52 0.57
-7.87 0.57 0.47
-7.80 0.59 0.48
-7.64 0.59 0.52
-7.70 0.62 0.50
-7.85 0.67 0.47
-7.82 0.69 0.48
-7.82 0.71 0.48
-7.98 0.74 0.44
-8.00 0.76 0.44
-7.80 0.76 0.48
-7.84 0.79 0.47
-3.80 0.42 1.31
-7.87 0.87 0.46
-8.06 0.91 0.42
-8.18 0.94 0.39
-4.04 0.50 1.25
-8.41 1.01 0.34
-4.24 0.56 1.21
-8.25 1.08 0.37
-8.57 1.14 0.31
-8.40 1.16 0.34
-8.38 1.18 0.34
-8.40 1.20 0.34
-8.25 1.20 0.37
-8.25 1.22 0.37
-8.29 1.25 0.36
-8.24 1.27 0.37
-3.96 0.73 1.26
-4.21 0.83 1.20
-3.94 0.79 1.26
-3.77 0.78 1.29
-3.88 0.83 1.27
-3.86 0.86 1.27
-4.13 0.93 1.21
-4.44 1.00 1.15
-4.21 0.97 1.19
-4.19 0.98 1.20
-4.11 0.97 1.21
-4.25 1.01 1.18
-4.06 0.99 1.22
-4.10 1.02 1.21
-3.93 0.99 1.25
-4.13 1.04 1.21
-4.23 1.08 1.18
-4.29 1.10 1.17
-4.30 1.12 1.17
-4.39 1.15 1.15
-4.18 1.12 1.19
-4.28 1.15 1.17
-4.40 1.19 1.14
-4.19 1.15 1.18
-4.27 1.20 1.17
-4.37 1.23 1.15
-4.41 1.26 1.14
-4.26 1.23 1.17
-4.25 1.24 1.17
-4.44 1.30 1.13
-4.46 1.32 1.12
-4.45 1.33 1.12
-4.48 1.35 1.11
-4.43 1.35 1.12
-4.42 1.36 1.12
-4.45 1.38 1.12
-4.39 1.38 1.13
-4.45 1.41 1.12
-4.39 1.40 1.13
-4.31 1.39 1.14
-4.37 1.42 1.13
-4.25 1.40 1.15
-4.28 1.42 1.15
-4.32 1.45 1.14
-4.28 1.45 1.15
-4.26 1.46 1.15
-4.29 1.48 1.14
-4.18 1.46 1.16
-4.45 1.55 1.11
-4.35 1.54 1.12
-2.00 -1.08 1.23
-4.76 -1.27 0.66
-1.40 -0.68 1.36
-4.83 -1.24 0.65
-5.15 -1.26 0.58
-4.74 -1.17 0.67
-1.18 -0.59 1.41
-1.14 -0.58 1.42
-6.11 -1.33 0.39
-1.25 -0.58 1.39
-1.14 -0.55 1.42
-1.36 -0.57 1.37
-1.20 -0.54 1.40
-5.58 -1.15 0.50
-1.47 -0.56 1.35
-1.30 -0.53 1.38
-5.44 -1.07 0.53
-4.85 -0.98 0.65
-4.92 -0.97 0.64
-5.08 -0.97 0.60
-5.20 -0.97 0.58
-4.97 -0.92 0.63
-4.67 -0.87 0.69
-4.78 -0.86 0.66
-1.40 -0.46 1.36
-5.43 -0.90 0.53
-4.86 -0.82 0.65
-4.60 -0.77 0.70
-5.25 -0.83 0.57
-5.25 -0.81 0.57
-5.11 -0.77 0.60
-4.94 -0.74 0.63
-4.80 -0.71 0.66
-4.77 -0.69 0.67
-4.79 -0.67 0.66
-4.82 -0.66 0.66
-4.50 -0.61 0.72
-4.68 -0.61 0.69
-4.04 -0.54 0.82
-4.37 -0.55 0.75
-4.45 -0.54 0.73
-3.46 -0.45 0.94
-4.09 -0.48 0.81
-4.33 -0.48 0.76
-3.94 -0.44 0.84
-4.08 -0.43 0.81
-3.77 -0.40 0.87
-4.02 -0.40 0.82
-3.96 -0.38 0.83
-4.29 -0.38 0.77
-4.22 -0.36 0.78
-4.55 -0.36 0.71
-4.84 -0.36 0.65
-4.83 -0.34 0.65
-4.28 -0.30 0.77
-4.63 -0.30 0.69
-4.74 -0.28 0.67
-4.50 -0.26 0.72
-5.05 -0.26 0.61
-4.74 -0.23 0.67
-4.80 -0.22 0.66
-4.96 -0.20 0.63
-5.83 -0.20 0.45
-4.94 -0.17 0.63
-5.49 -0.16 0.52
-6.05 -0.15 0.40
-5.83 -0.12 0.45
-6.21 -0.11 0.37
-6.00 -0.09 0.41
-5.82 -0.06 0.45
-5.90 -0.05 0.43
-5.76 -0.02 0.46
-5.75 -0.00 0.85
-5.59 0.01 0.89
-5.64 0.03 0.88
-5.76 0.04 0.85
-5.59 0.06 0.89
-5.74 0.07 0.85
-5.81 0.09 0.84
-5.95 0.11 0.81
-5.98 0.12 0.80
-5.83 0.13 0.83
-6.23 0.16 0.75
-6.12 0.17 0.77
-6.11 0.19 0.77
-6.07 0.20 0.78
-6.06 0.22 0.78
-6.19 0.24 0.75
-6.23 0.25 0.74
-6.27 0.27 0.74
-6.32 0.29 0.73
-6.22 0.30 0.74
-6.43 0.33 0.70
-6.48 0.35 0.69
-6.45 0.36 0.70
-6.55 0.38 0.67
-6.80 0.41 0.62
-6.81 0.43 0.62
-7.01 0.46 0.57
-7.32 0.50 0.50
-7.65 0.54 0.43
-7.43 0.54 0.48
-7.43 0.56 0.48
-5.20 0.42 0.96
-4.79 0.40 1.05
-7.65 0.64 0.43
-5.07 0.45 0.99
-4.73 0.43 1.06
-4.37 0.41 1.14
-4.68 0.45 1.07
-5.00 0.49 1.00
-4.62 0.47 1.08
-4.30 0.45 1.15
-4.08 0.44 1.20
-4.25 0.47 1.16
-4.70 0.53 1.06
-7.84 0.87 0.38
-7.82 0.89 0.39
-4.70 0.57 1.06
-4.89 0.60 1.02
-5.19 0.66 0.95
-4.45 0.60 1.11
-4.71 0.64 1.05
-4.86 0.67 1.02
-5.23 0.73 0.94
-4.96 0.71 1.00
-5.07 0.74 0.97
-4.96 0.74 1.00
-4.70 0.72 1.05
-4.92 0.76 1.00
-4.80 0.76 1.03
-5.00 0.80 0.99
-4.85 0.79 1.02
-6.23 1.01 0.72
-5.27 0.88 0.92
-4.88 0.83 1.01
-6.52 1.11 0.65
-6.83 1.17 0.58
-6.79 1.18 0.59
-6.65 1.18 0.62
-6.61 1.19 0.63
-6.79 1.24 0.59
-6.55 1.21 0.64
-6.51 1.22 0.65
-4.49 0.88 1.09
-4.48 0.89 1.09
-5.07 1.01 0.96
-4.39 0.90 1.11
-4.51 0.94 1.08
-6.50 1.33 0.64
-4.75 1.01 1.03
-6.06 1.28 0.74
-4.62 1.01 1.05
-4.53 1.00 1.07
-4.50 1.01 1.08
-4.49 1.02 1.08
-4.44 1.02 1.09
-4.34 1.01 1.11
-4.49 1.06 1.08
-4.73 1.12 1.02
-5.66 1.34 0.82
-4.36 1.07 1.10
-4.45 1.10 1.08
-4.39 1.10 1.10
-4.48 1.13 1.07
