# .PCD v0.7 - Point Cloud Data file format
VERSION 0.7
FIELDS x y z
SIZE 4 4 4
TYPE F F F
COUNT 1 1 1
WIDTH 2858
HEIGHT 1
VIEWPOINT 0 0 0 1 0 0 0
POINTS 2858
DATA ASCII
-8.94 -1.28 1.67
-9.23 -1.20 1.66
-9.14 -1.16 1.67
-8.51 -1.02 1.69
-8.42 -0.99 1.70
-8.50 -0.91 1.69
-3.85 -1.30 1.88
-3.54 -1.47 1.86
-3.44 -1.36 1.87
-3.40 -1.33 1.87
-3.45 -1.31 1.87
-3.59 -1.33 1.86
-3.37 -1.25 1.87
-3.45 -1.25 1.87
-3.67 -1.29 1.86
-3.49 -1.23 1.87
-3.62 -1.25 1.86
-3.56 -1.22 1.86
-3.94 -1.28 1.84
-3.64 -1.20 1.86
-3.57 -1.18 1.86
-3.71 -1.19 1.85
-3.66 -1.16 1.86
-3.75 -1.16 1.85
-3.74 -1.15 1.85
-3.67 -1.12 1.86
-3.65 -1.10 1.86
-3.65 -1.08 1.86
-3.75 -1.07 1.85
-3.27 -0.96 1.88
-9.63 -1.42 1.54
-9.73 -1.37 1.53
-9.40 -1.30 1.55
-5.65 -0.82 1.75
-5.91 -0.80 1.74
-7.04 -0.86 1.68
-6.11 -0.76 1.72
-6.03 -0.71 1.73
-7.30 -0.79 1.66
-7.62 -0.79 1.64
-7.76 -0.78 1.64
-7.59 -0.74 1.64
-7.02 -0.68 1.68
-6.52 -0.60 1.70
-2.64 0.36 2.00
-1.41 -1.57 1.96
-1.76 -1.18 1.94
-3.16 -1.22 1.86
-3.45 -1.21 1.84
-3.64 -1.22 1.83
-3.36 -1.13 1.85
-7.84 -0.78 1.59
-7.37 -0.73 1.62
-5.83 -0.45 1.70
-5.91 -0.42 1.70
-5.47 -0.38 1.72
-5.42 -0.35 1.73
-3.52 -1.34 1.81
-3.64 -1.35 1.80
-3.67 -1.27 1.80
-3.54 -1.23 1.81
-3.49 -1.20 1.81
-3.48 -1.17 1.81
-3.69 -1.17 1.80
-3.50 -1.10 1.81
-3.73 -1.13 1.80
-7.11 -0.98 1.59
-6.79 -0.91 1.61
-6.90 -0.87 1.60
-7.37 -0.89 1.57
-7.87 -0.89 1.54
-7.65 -0.84 1.55
-5.99 -0.67 1.66
-5.90 -0.62 1.66
-7.02 -0.68 1.59
-7.26 -0.67 1.58
-5.74 -0.55 1.67
-7.35 -0.63 1.57
-5.81 -0.49 1.67
-5.74 -0.45 1.67
-5.56 -0.42 1.68
-5.64 -0.40 1.68
-5.62 -0.23 1.68
-3.64 -1.59 1.77
-3.36 -1.35 1.79
-3.61 -1.27 1.77
-3.54 -1.24 1.78
-3.69 -1.25 1.77
-3.75 -1.25 1.76
-3.63 -1.21 1.77
-3.42 -1.11 1.79
-3.29 -1.02 1.79
-3.46 -1.03 1.78
-3.43 -1.01 1.78
-3.44 -1.00 1.78
-8.80 -1.51 1.42
-8.71 -1.47 1.43
-8.75 -1.45 1.43
-7.81 -1.03 1.49
-6.06 -0.81 1.61
-7.21 -0.90 1.53
-7.44 -0.90 1.51
-6.55 -0.80 1.57
-5.67 -0.70 1.63
-6.66 -0.76 1.57
-5.72 -0.66 1.63
-5.67 -0.64 1.63
-5.57 -0.61 1.64
-5.46 -0.59 1.65
-5.56 -0.57 1.64
-6.36 -0.61 1.59
-5.53 -0.53 1.64
-5.38 -0.50 1.65
-5.41 -0.49 1.65
-5.62 -0.48 1.63
-5.85 -0.47 1.62
-5.76 -0.45 1.62
-7.24 -0.51 1.53
-5.53 -0.40 1.64
-6.86 -0.44 1.55
-7.00 -0.42 1.54
-6.99 -0.40 1.54
-6.83 -0.37 1.55
-6.83 -0.35 1.55
-6.76 -0.24 1.56
-2.85 -1.63 1.79
-3.52 -1.64 1.74
-3.52 -1.63 1.74
-3.58 -1.63 1.74
-3.54 -1.60 1.74
-3.61 -1.61 1.74
-3.57 -1.58 1.74
-3.60 -1.58 1.74
-3.50 -1.53 1.75
-3.57 -1.54 1.74
-3.56 -1.52 1.74
-3.56 -1.50 1.74
-3.70 -1.52 1.73
-3.43 -1.43 1.75
-3.57 -1.44 1.74
-3.56 -1.43 1.74
-3.65 -1.43 1.74
-3.34 -1.35 1.76
-3.50 -1.37 1.75
-3.47 -1.35 1.75
-3.63 -1.37 1.74
-3.62 -1.35 1.74
-3.76 -1.37 1.73
-3.61 -1.32 1.74
-3.92 -1.37 1.72
-3.66 -1.30 1.74
-3.72 -1.30 1.73
-3.87 -1.31 1.72
-3.81 -1.28 1.73
-3.74 -1.25 1.73
-3.76 -1.24 1.73
-3.69 -1.21 1.73
-3.54 -1.17 1.74
-3.62 -1.17 1.74
-3.73 -1.17 1.73
-3.68 -1.15 1.73
-3.41 -1.09 1.75
-3.65 -1.11 1.74
-3.78 -1.12 1.73
-3.52 -1.06 1.75
-3.42 -1.03 1.75
-3.69 -1.06 1.73
-3.58 -1.03 1.74
-3.75 -1.04 1.73
-3.90 -1.05 1.72
-3.35 -0.95 1.76
-3.44 -0.93 1.75
-3.62 -0.94 1.74
-3.70 -0.94 1.73
-3.73 -0.93 1.73
-8.81 -1.51 1.37
-8.73 -1.48 1.37
-3.63 -0.80 1.74
-9.02 -1.46 1.35
-9.08 -1.44 1.35
-8.92 -1.39 1.36
-9.08 -1.38 1.35
-9.14 -1.36 1.34
-9.19 -1.34 1.34
-8.75 -1.26 1.37
-6.88 -0.96 1.50
-6.98 -0.93 1.50
-6.03 -0.81 1.56
-6.11 -0.80 1.56
-6.30 -0.80 1.54
-6.66 -0.81 1.52
-6.75 -0.79 1.51
-5.50 -0.67 1.60
-5.65 -0.66 1.59
-5.54 -0.63 1.60
-5.32 -0.60 1.61
-5.32 -0.58 1.61
-5.45 -0.57 1.60
-6.76 -0.64 1.51
-6.47 -0.60 1.53
-6.01 -0.55 1.56
-5.90 -0.50 1.57
-6.63 -0.52 1.52
-6.77 -0.50 1.51
-6.61 -0.47 1.52
-6.98 -0.47 1.49
-6.95 -0.45 1.49
-6.70 -0.41 1.51
-6.83 -0.40 1.50
-5.54 -0.32 1.60
-7.19 -0.36 1.48
-6.96 -0.33 1.49
-3.44 -1.59 1.72
-3.67 -1.57 1.70
-3.67 -1.52 1.70
-3.56 -1.47 1.71
-3.35 -1.34 1.73
-3.63 -1.29 1.71
-3.63 -1.27 1.71
-3.53 -1.24 1.72
-3.57 -1.21 1.71
-3.55 -1.19 1.71
-3.73 -1.22 1.70
-8.57 -1.59 1.33
-8.61 -1.43 1.32
-8.77 -1.42 1.31
-6.71 -0.97 1.47
-6.39 -0.89 1.49
-6.02 -0.83 1.52
-5.86 -0.80 1.53
-6.31 -0.82 1.50
-6.02 -0.77 1.52
-6.60 -0.80 1.48
-6.73 -0.79 1.47
-6.84 -0.78 1.46
-6.64 -0.74 1.47
-6.44 -0.70 1.49
-6.80 -0.71 1.46
-6.87 -0.69 1.46
-6.62 -0.65 1.47
-6.75 -0.64 1.46
-7.05 -0.63 1.44
-6.67 -0.59 1.47
-6.80 -0.57 1.46
-6.39 -0.53 1.49
-7.00 -0.54 1.45
-6.44 -0.49 1.49
-6.36 -0.46 1.49
-6.93 -0.47 1.45
-6.90 -0.44 1.45
-6.68 -0.39 1.47
-6.51 -0.36 1.48
-7.21 -0.34 1.43
-6.99 -0.31 1.44
-6.97 -0.29 1.45
-7.03 -0.24 1.44
-6.95 -0.20 1.45
-6.74 -0.17 1.46
-6.90 -0.15 1.45
-6.68 -0.04 1.46
-6.20 0.29 1.63
-6.22 0.31 1.63
-4.52 0.26 1.77
-5.62 0.57 1.68
-5.62 0.58 1.68
-5.39 0.58 1.69
-1.63 -1.29 1.83
-1.52 -1.20 1.84
-3.35 -1.68 1.69
-3.48 -1.67 1.68
-3.51 -1.66 1.68
-3.56 -1.66 1.67
-3.50 -1.63 1.68
-3.73 -1.67 1.66
-3.43 -1.58 1.68
-3.57 -1.60 1.67
-3.57 -1.58 1.67
-3.57 -1.57 1.67
-3.39 -1.51 1.69
-3.42 -1.50 1.69
-3.62 -1.54 1.67
-3.70 -1.54 1.66
-3.76 -1.54 1.66
-3.48 -1.46 1.68
-3.75 -1.49 1.66
-3.54 -1.43 1.68
-3.64 -1.43 1.67
-3.61 -1.40 1.67
-3.43 -1.34 1.69
-3.57 -1.36 1.67
-3.62 -1.34 1.67
-3.54 -1.31 1.68
-3.55 -1.29 1.68
-3.63 -1.29 1.67
-3.63 -1.28 1.67
-3.32 -1.20 1.70
-3.35 -1.19 1.69
-3.54 -1.22 1.68
-3.21 -1.14 1.70
-3.42 -1.16 1.69
-3.60 -1.18 1.67
-3.56 -1.16 1.68
-3.32 -1.10 1.70
-3.44 -1.11 1.69
-3.40 -1.09 1.69
-3.45 -1.08 1.69
-3.54 -1.08 1.68
-3.77 -1.11 1.66
-3.89 -1.11 1.65
-3.59 -1.05 1.67
-3.97 -1.09 1.64
-3.70 -1.03 1.66
-4.03 -1.07 1.64
-3.88 -1.03 1.65
-3.95 -1.01 1.64
-4.02 -1.01 1.64
-3.61 -0.91 1.67
-3.57 -0.89 1.67
-3.59 -0.88 1.67
-3.09 -0.78 1.71
-3.73 -0.86 1.66
-3.64 -0.80 1.67
-4.15 -0.83 1.63
-6.03 -1.04 1.47
-5.96 -0.99 1.48
-5.91 -0.97 1.48
-6.04 -0.96 1.47
-6.03 -0.94 1.47
-6.20 -0.94 1.46
-6.21 -0.92 1.46
-6.21 -0.90 1.46
-6.11 -0.87 1.46
-6.16 -0.85 1.46
-5.64 -0.78 1.50
-5.69 -0.76 1.50
-5.83 -0.76 1.49
-5.67 -0.72 1.50
-5.92 -0.72 1.48
-6.02 -0.71 1.47
-6.01 -0.69 1.47
-6.76 -0.73 1.41
-6.43 -0.68 1.44
-6.62 -0.67 1.42
-6.88 -0.67 1.40
-6.49 -0.62 1.43
-6.62 -0.61 1.42
-6.65 -0.59 1.42
-5.78 -0.51 1.49
-6.81 -0.55 1.40
-5.79 -0.47 1.49
-6.48 0.04 1.58
-6.31 0.05 1.59
-6.59 0.07 1.57
-6.83 0.12 1.55
-6.41 0.20 1.58
-6.26 0.23 1.59
-6.43 0.25 1.58
-3.60 -1.66 1.64
-3.45 -1.61 1.65
-3.32 -1.56 1.66
-3.36 -1.52 1.66
-3.42 -1.53 1.65
-3.30 -1.16 1.67
-3.48 -1.02 1.65
-7.79 -1.60 1.27
-6.63 -1.25 1.37
-6.51 -1.21 1.38
-6.35 -1.17 1.40
-6.50 -1.16 1.38
-6.17 -1.10 1.41
-6.08 -1.07 1.42
-6.15 -1.06 1.41
-6.15 -0.97 1.41
-6.00 -0.91 1.43
-6.25 -0.92 1.41
-6.23 -0.90 1.41
-6.14 -0.87 1.42
-6.02 -0.81 1.43
-6.12 -0.80 1.42
-5.89 -0.76 1.44
-5.97 -0.75 1.43
-6.11 -0.74 1.42
-5.97 -0.71 1.43
-6.14 -0.70 1.41
-6.50 -0.71 1.38
-6.61 -0.69 1.37
-6.91 -0.69 1.35
-6.89 -0.67 1.35
-6.85 -0.64 1.35
-6.50 -0.60 1.38
-6.54 -0.58 1.38
-6.51 -0.56 1.38
-6.33 -0.52 1.40
-6.24 -0.50 1.40
-5.59 -0.44 1.46
-6.35 -0.46 1.39
-5.58 -0.40 1.46
-5.87 -0.40 1.44
-5.90 -0.38 1.43
-5.99 -0.36 1.43
-6.55 -0.36 1.38
-6.47 -0.34 1.38
-6.41 -0.31 1.39
-6.64 -0.30 1.37
-6.72 -0.28 1.36
-6.51 -0.25 1.38
-6.72 -0.22 1.36
-6.55 -0.19 1.37
-6.73 -0.17 1.36
-6.56 -0.12 1.37
-6.71 0.00 1.51
-6.48 0.02 1.53
-6.65 0.04 1.52
-6.79 0.06 1.51
-6.57 0.09 1.53
-7.37 0.12 1.45
-6.47 0.15 1.53
-6.31 0.16 1.55
-6.21 0.18 1.56
-6.12 0.19 1.57
-6.39 0.23 1.54
-6.41 0.25 1.54
-6.27 0.26 1.55
-6.44 0.31 1.53
-3.22 -1.63 1.63
-3.32 -1.65 1.62
-3.41 -1.66 1.62
-3.43 -1.65 1.61
-3.35 -1.58 1.62
-3.60 -1.63 1.60
-3.43 -1.58 1.61
-3.62 -1.61 1.60
-3.55 -1.58 1.60
-3.58 -1.57 1.60
-3.60 -1.56 1.60
-3.50 -1.52 1.61
-3.35 -1.47 1.62
-3.60 -1.51 1.60
-3.23 -1.26 1.64
-3.32 -1.27 1.63
-3.45 -1.28 1.61
-3.41 -1.26 1.62
-3.25 -1.21 1.63
-3.25 -1.20 1.63
-3.13 -1.16 1.65
-3.08 -1.13 1.65
-3.09 -1.12 1.65
-3.17 -1.13 1.64
-3.14 -1.11 1.65
-3.20 -1.10 1.64
-3.66 -1.18 1.60
-3.13 -1.06 1.65
-3.53 -1.11 1.61
-4.03 -1.12 1.56
-3.73 -1.05 1.59
-3.75 -1.04 1.59
-3.85 -1.04 1.58
-3.90 -1.03 1.57
-3.53 -0.96 1.61
-7.51 -1.51 1.23
-6.50 -1.25 1.33
-6.25 -1.20 1.35
-6.28 -1.18 1.35
-6.52 -1.19 1.33
-6.39 -1.15 1.34
-6.03 -1.08 1.37
-6.02 -1.06 1.37
-6.16 -1.06 1.36
-6.09 -1.03 1.37
-6.92 -1.10 1.29
-6.83 -1.07 1.30
-6.75 -1.04 1.30
-6.79 -1.02 1.30
-6.44 -0.96 1.33
-6.28 -0.92 1.35
-6.36 -0.91 1.34
-6.32 -0.89 1.35
-6.25 -0.86 1.35
-6.12 -0.82 1.36
-6.08 -0.80 1.37
-6.30 -0.80 1.35
-6.11 -0.76 1.36
-6.19 -0.75 1.36
-6.16 -0.72 1.36
-6.14 -0.70 1.36
-6.34 -0.70 1.34
-6.49 -0.69 1.33
-6.22 -0.64 1.35
-6.54 -0.65 1.32
-6.24 -0.60 1.35
-6.23 -0.58 1.35
-6.11 -0.55 1.36
-5.89 -0.52 1.38
-6.10 -0.51 1.36
-5.98 -0.48 1.37
-5.75 -0.45 1.40
-5.66 -0.43 1.40
-5.60 -0.40 1.41
-5.98 -0.40 1.37
-6.08 -0.39 1.37
-5.92 -0.36 1.38
-5.96 -0.34 1.38
-5.98 -0.32 1.37
-6.28 -0.31 1.35
-5.74 -0.27 1.40
-6.17 -0.27 1.35
-5.98 -0.24 1.37
-6.49 -0.21 1.32
-6.79 -0.12 1.51
-6.90 -0.08 1.50
-6.56 -0.06 1.53
-6.66 -0.03 1.52
-6.79 -0.01 1.51
-4.82 0.00 1.44
-4.56 0.02 1.46
-4.83 0.04 1.43
-4.23 0.05 1.49
-4.58 0.09 1.46
-4.46 0.10 1.47
-4.47 0.12 1.47
-4.17 0.13 1.50
-4.54 0.16 1.46
-4.29 0.17 1.49
-5.95 0.17 1.55
-6.74 0.21 1.47
-6.20 0.24 1.52
-6.33 0.26 1.51
-6.23 0.27 1.52
-10.32 1.55 1.09
-9.98 1.55 1.12
-10.08 1.64 1.11
-1.66 -1.25 1.76
-1.68 -1.24 1.76
-3.55 -1.68 1.57
-1.80 -1.19 1.74
-1.56 -1.11 1.77
-1.25 -1.02 1.80
-3.55 -1.62 1.57
-1.54 -1.07 1.77
-1.83 -1.14 1.74
-3.48 -1.56 1.57
-3.55 -1.56 1.57
-3.48 -1.53 1.57
-2.01 -1.14 1.72
-3.58 -1.52 1.56
-3.67 -1.53 1.56
-3.56 -1.49 1.57
-3.46 -1.45 1.58
-3.33 -1.37 1.59
-3.27 -1.33 1.60
-3.17 -1.29 1.61
-1.31 -0.86 1.80
-3.19 -1.27 1.61
-3.23 -1.26 1.60
-3.19 -1.24 1.61
-3.37 -1.26 1.59
-3.28 -1.23 1.60
-3.24 -1.21 1.60
-3.24 -1.19 1.60
-3.09 -1.15 1.62
-3.01 -1.12 1.62
-2.98 -1.10 1.63
-2.98 -1.09 1.63
-3.09 -1.09 1.62
-3.23 -1.11 1.60
-3.45 -1.13 1.58
-3.35 -1.04 1.59
-3.43 -1.04 1.58
-3.52 -1.04 1.57
-3.72 -1.06 1.55
-3.50 -1.01 1.58
-3.63 -1.02 1.56
-3.62 -1.00 1.56
-3.77 -1.01 1.55
-3.36 -0.93 1.59
-3.49 -0.92 1.58
-3.50 -0.90 1.58
-6.68 -1.34 1.26
-3.62 -0.88 1.56
-3.27 -0.82 1.60
-6.48 -1.25 1.28
-3.56 -0.83 1.57
-3.48 -0.81 1.58
-6.87 -1.23 1.24
-6.60 -1.18 1.26
-5.85 -1.06 1.34
-6.24 -1.09 1.30
-5.96 -1.03 1.33
-6.61 -1.09 1.26
-6.59 -1.07 1.27
-6.64 -1.05 1.26
-6.67 -1.03 1.26
-6.52 -0.99 1.27
-6.33 -0.95 1.29
-6.50 -0.95 1.27
-6.45 -0.92 1.28
-6.41 -0.89 1.28
-6.60 -0.89 1.26
-6.32 -0.84 1.29
-6.35 -0.82 1.29
-6.37 -0.80 1.29
-6.34 -0.78 1.29
-6.68 -0.79 1.26
-6.43 -0.74 1.28
-6.14 -0.70 1.31
-5.96 -0.67 1.33
-6.34 -0.67 1.29
-5.49 -0.59 1.37
-7.09 -0.68 1.21
-6.27 -0.61 1.30
-6.16 -0.58 1.31
-6.18 -0.56 1.30
-6.60 -0.56 1.26
-6.22 -0.52 1.30
-6.87 -0.53 1.24
-5.90 -0.46 1.33
-5.66 -0.43 1.36
-5.72 -0.41 1.35
-7.02 -0.45 1.22
-6.15 -0.39 1.31
-6.14 -0.37 1.31
-5.99 -0.34 1.32
-5.96 -0.32 1.33
-6.25 -0.31 1.30
-6.20 -0.29 1.30
-5.95 -0.26 1.33
-6.01 -0.24 1.32
-5.97 -0.22 1.32
-6.23 -0.20 1.30
-6.57 -0.19 1.26
-6.09 -0.16 1.31
-9.00 -0.16 1.02
-9.17 -0.13 1.00
-6.30 -0.08 1.29
-4.68 -0.03 1.45
-5.06 -0.01 1.41
-6.66 0.00 1.43
-6.65 0.02 1.43
-6.67 0.04 1.43
-6.52 0.05 1.44
-6.56 0.07 1.44
-6.44 0.08 1.45
-6.44 0.10 1.45
-6.14 0.11 1.48
-6.04 0.13 1.49
-6.04 0.16 1.49
-6.22 0.19 1.47
-6.35 0.21 1.46
-6.38 0.23 1.46
-6.10 0.24 1.49
-6.24 0.26 1.47
-6.29 0.31 1.46
-5.59 0.30 1.54
-6.43 0.38 1.45
-6.31 0.58 1.46
-6.25 0.61 1.46
-3.28 0.47 1.78
-9.88 1.57 1.06
-10.19 1.64 1.03
-4.40 0.81 1.65
-6.86 1.40 1.38
-3.14 -1.69 1.57
-2.94 -1.60 1.59
-3.33 -1.67 1.55
-2.98 -1.56 1.58
-3.25 -1.59 1.56
-3.37 -1.56 1.54
-3.33 -1.52 1.55
-3.30 -1.50 1.55
-3.33 -1.49 1.55
-3.31 -1.47 1.55
-3.49 -1.50 1.53
-3.43 -1.47 1.54
-3.54 -1.48 1.53
-3.62 -1.49 1.52
-3.44 -1.43 1.54
-3.44 -1.42 1.54
-3.33 -1.38 1.55
-3.15 -1.32 1.57
-3.19 -1.31 1.57
-3.13 -1.29 1.57
-3.12 -1.27 1.57
-3.22 -1.28 1.56
-3.12 -1.24 1.57
-3.11 -1.23 1.57
-3.16 -1.22 1.57
-3.12 -1.20 1.57
-3.19 -1.20 1.57
-3.25 -1.20 1.56
-3.20 -1.18 1.57
-3.17 -1.15 1.57
-3.01 -1.11 1.59
-2.96 -1.09 1.59
-3.18 -1.12 1.57
-3.13 -1.09 1.57
-3.12 -1.08 1.57
-3.13 -1.06 1.57
-3.02 -1.03 1.59
-3.03 -1.02 1.58
-3.07 -1.01 1.58
-3.22 -1.02 1.56
-3.14 -1.00 1.57
-3.11 -0.98 1.58
-3.36 -1.01 1.55
-3.45 -1.01 1.54
-3.53 -1.01 1.53
-3.82 -1.04 1.50
-3.62 -0.99 1.52
-3.69 -0.99 1.51
-3.53 -0.95 1.53
-3.58 -0.94 1.53
-3.59 -0.93 1.52
-3.52 -0.90 1.53
-3.57 -0.89 1.53
-3.59 -0.88 1.52
-3.66 -0.88 1.52
-3.65 -0.86 1.52
-3.57 -0.84 1.53
-3.62 -0.83 1.52
-3.78 -0.83 1.50
-6.65 -1.19 1.20
-6.54 -1.15 1.21
-3.59 -0.76 1.52
-6.34 -1.08 1.23
-3.68 -0.75 1.51
-6.24 -1.03 1.24
-6.19 -1.00 1.25
-6.24 -0.98 1.24
-6.18 -0.96 1.25
-5.95 -0.91 1.27
-5.97 -0.89 1.27
-6.09 -0.89 1.26
-6.10 -0.87 1.26
-6.26 -0.86 1.24
-6.21 -0.83 1.24
-6.40 -0.83 1.22
-6.33 -0.80 1.23
-6.36 -0.78 1.23
-6.32 -0.76 1.23
-6.21 -0.73 1.24
-6.43 -0.73 1.22
-5.25 -0.61 1.35
-5.43 -0.61 1.33
-5.24 -0.57 1.35
-5.39 -0.57 1.33
-5.35 -0.54 1.33
-6.03 -0.57 1.26
-5.56 -0.52 1.31
-5.85 -0.52 1.28
-5.82 -0.50 1.28
-6.51 -0.52 1.21
-6.10 -0.47 1.25
-5.56 -0.42 1.31
-5.66 -0.41 1.30
-5.10 -0.36 1.36
-5.56 -0.36 1.31
-5.70 -0.35 1.30
-5.48 -0.32 1.32
-5.78 -0.31 1.29
-7.05 -0.26 1.39
-6.90 -0.24 1.41
-6.69 -0.22 1.43
-6.67 -0.20 1.43
-6.78 -0.19 1.42
-6.71 -0.17 1.43
-6.78 -0.15 1.42
-6.74 -0.13 1.42
-6.84 -0.12 1.41
-6.85 -0.10 1.41
-6.75 -0.08 1.42
-6.71 -0.06 1.43
-6.54 -0.05 1.44
-6.72 -0.03 1.42
-6.62 -0.01 1.43
-4.72 0.02 1.35
-4.92 0.04 1.33
-2.28 0.68 1.86
-0.39 -0.83 1.85
-2.63 -1.03 1.60
-2.61 -0.96 1.60
-3.02 -0.88 1.55
-6.72 -1.32 1.13
-5.95 -1.20 1.22
-6.54 -1.26 1.15
-6.18 -1.18 1.19
-6.52 -1.19 1.15
-6.65 -1.14 1.14
-6.39 -1.08 1.17
-6.51 -1.08 1.16
-6.76 -1.08 1.13
-6.43 -1.03 1.16
-6.56 -1.02 1.15
-6.47 -0.97 1.16
-6.79 -0.98 1.12
-6.89 -0.96 1.11
-6.29 -0.84 1.18
-6.07 -0.80 1.20
-6.33 -0.80 1.18
-6.55 -0.69 1.15
-6.27 -0.65 1.18
-6.71 -0.66 1.13
-5.30 -0.54 1.29
-5.27 -0.52 1.30
-5.44 -0.43 1.28
-6.88 -0.49 1.11
-5.53 -0.40 1.26
-5.63 -0.39 1.25
-5.90 -0.38 1.22
-6.33 -0.38 1.17
-5.25 -0.29 1.29
-5.55 -0.23 1.26
-4.73 -0.07 1.35
-4.69 -0.05 1.36
-4.53 -0.03 1.37
-4.63 -0.01 1.36
-10.04 0.05 0.93
-10.40 0.08 0.89
-10.30 0.11 0.90
-10.34 0.13 0.89
-1.22 -1.55 1.71
-1.33 -1.58 1.70
-5.66 -1.12 1.19
-5.87 -0.95 1.17
-6.56 -1.00 1.08
-7.03 -1.03 1.03
-6.85 -0.99 1.05
-6.73 -0.93 1.06
-5.82 -0.82 1.17
-5.95 -0.71 1.16
-5.73 -0.67 1.18
-6.37 -0.68 1.11
-6.90 -0.70 1.04
-6.92 -0.68 1.04
-6.15 -0.60 1.13
-5.69 -0.47 1.19
-7.80 -0.45 1.20
-6.72 -0.17 1.33
-6.61 -0.15 1.34
-10.46 -0.18 0.88
-6.99 -0.08 1.30
-10.05 -0.10 0.93
-10.17 -0.07 0.91
-4.46 0.02 1.28
-6.36 0.03 1.32
-6.57 0.05 1.30
-6.40 0.07 1.32
-6.47 0.08 1.31
-6.50 0.10 1.31
-6.51 0.12 1.30
-6.56 0.14 1.30
-5.66 0.26 1.41
-6.74 0.81 1.26
-6.96 1.28 1.22
-6.79 1.27 1.24
-6.77 1.32 1.24
-1.22 -1.61 1.68
-1.32 -1.62 1.67
-1.19 -1.53 1.69
-1.42 -1.59 1.66
-1.24 -1.14 1.70
-1.41 -1.08 1.67
-2.98 -1.43 1.47
-2.98 -1.35 1.47
-3.45 -1.45 1.41
-3.33 -1.40 1.43
-3.24 -1.35 1.44
-3.16 -1.32 1.45
-3.17 -1.27 1.45
-3.35 -1.29 1.43
-3.27 -1.23 1.44
-3.13 -1.19 1.46
-3.11 -1.16 1.46
-3.35 -1.19 1.43
-3.18 -1.14 1.45
-3.02 -1.08 1.47
-2.91 -1.05 1.49
-3.03 -1.06 1.47
-2.88 -1.00 1.49
-2.93 -1.00 1.48
-3.23 -1.04 1.44
-3.12 -0.99 1.46
-3.36 -1.01 1.43
-3.50 -1.00 1.41
-3.46 -0.98 1.42
-3.46 -0.96 1.42
-3.63 -0.96 1.40
-3.64 -0.95 1.39
-3.69 -0.94 1.39
-3.57 -0.89 1.40
-3.49 -0.87 1.41
-5.80 -1.18 1.12
-3.50 -0.83 1.41
-5.65 -1.10 1.14
-5.45 -1.05 1.16
-3.59 -0.78 1.40
-3.56 -0.76 1.40
-3.46 -0.73 1.42
-3.44 -0.70 1.42
-5.84 -0.96 1.11
-5.51 -0.90 1.16
-5.43 -0.86 1.17
-6.11 -0.91 1.08
-6.20 -0.90 1.07
-3.20 -0.58 1.45
-3.28 -0.56 1.44
-5.45 -0.74 1.16
-5.45 -0.71 1.16
-5.53 -0.69 1.15
-5.81 -0.70 1.12
-5.77 -0.67 1.12
-5.76 -0.63 1.12
-5.79 -0.61 1.12
-5.44 -0.55 1.16
-5.18 -0.51 1.20
-5.19 -0.50 1.20
-5.48 -0.50 1.16
-5.23 -0.46 1.19
-5.34 -0.45 1.18
-5.36 -0.43 1.17
-5.54 -0.40 1.15
-6.05 -0.41 1.08
-5.37 -0.36 1.17
-4.84 -0.30 1.24
-5.33 -0.30 1.18
-5.24 -0.28 1.19
-5.00 -0.23 1.22
-4.74 -0.21 1.25
-4.77 -0.19 1.25
-4.67 -0.17 1.26
-4.77 -0.16 1.25
-5.01 -0.12 1.21
-4.75 -0.08 1.25
-4.62 -0.07 1.26
-4.58 -0.05 1.27
-4.51 -0.01 1.28
-7.44 0.00 1.13
-7.42 0.02 1.13
-7.16 0.04 1.17
-7.51 0.06 1.12
-6.92 0.07 1.20
-6.74 0.09 1.22
-6.95 0.11 1.20
-6.75 0.12 1.22
-6.66 0.14 1.23
-6.50 0.15 1.26
-6.20 0.16 1.29
-7.56 0.21 1.11
-6.08 0.19 1.31
-5.92 0.20 1.33
-5.65 0.20 1.37
-6.00 0.23 1.32
-5.80 0.24 1.35
-5.88 0.26 1.34
-5.76 0.27 1.35
-5.83 0.28 1.34
-5.79 0.30 1.35
-5.96 0.32 1.32
-5.95 0.34 1.32
-5.75 0.34 1.35
-5.75 0.35 1.35
-6.68 0.56 1.22
-6.48 0.56 1.25
-6.80 0.64 1.21
-7.15 0.69 1.16
-6.60 1.24 1.21
-6.91 1.52 1.16
-2.83 -1.55 1.45
-2.84 -1.53 1.45
-1.30 -1.04 1.66
-3.06 -1.45 1.42
-2.89 -1.38 1.44
-3.01 -1.40 1.43
-2.79 -1.33 1.46
-3.03 -1.36 1.43
-3.21 -1.39 1.40
-3.32 -1.40 1.39
-3.47 -1.42 1.37
-3.17 -1.34 1.41
-3.17 -1.33 1.41
-3.08 -1.29 1.42
-3.08 -1.28 1.42
-3.24 -1.30 1.40
-3.24 -1.28 1.40
-3.09 -1.24 1.42
-3.14 -1.23 1.41
-3.18 -1.23 1.41
-3.17 -1.21 1.41
-3.17 -1.20 1.41
-3.20 -1.19 1.41
-3.17 -1.17 1.41
-3.13 -1.15 1.41
-3.04 -1.12 1.43
-3.16 -1.13 1.41
-2.95 -1.07 1.44
-3.03 -1.07 1.43
-3.01 -1.06 1.43
-2.79 -1.00 1.46
-2.99 -1.03 1.43
-2.94 -1.00 1.44
-2.99 -1.00 1.43
-3.17 -1.02 1.41
-3.14 -1.00 1.41
-3.20 -0.99 1.41
-3.30 -1.00 1.39
-3.36 -0.99 1.38
-3.51 -1.00 1.36
-3.32 -0.96 1.39
-3.36 -0.95 1.38
-3.39 -0.94 1.38
-3.48 -0.94 1.37
-3.55 -0.94 1.36
-3.43 -0.90 1.38
-3.54 -0.91 1.36
-3.93 -0.95 1.31
-5.15 -1.11 1.14
-3.59 -0.87 1.35
-3.54 -0.85 1.36
-3.43 -0.82 1.38
-3.51 -0.81 1.37
-3.88 -0.85 1.32
-3.54 -0.79 1.36
-5.46 -1.01 1.10
-4.10 -0.83 1.29
-5.56 -0.99 1.09
-3.38 -0.71 1.38
-5.45 -0.94 1.10
-5.40 -0.91 1.11
-5.34 -0.89 1.12
-3.25 -0.64 1.40
-5.35 -0.85 1.12
-3.15 -0.60 1.41
-3.23 -0.59 1.40
-5.64 -0.82 1.08
-5.40 -0.78 1.11
-5.40 -0.76 1.11
-5.48 -0.75 1.10
-5.61 -0.74 1.08
-5.43 -0.70 1.11
-5.55 -0.70 1.09
-5.80 -0.70 1.06
-5.65 -0.66 1.08
-5.68 -0.65 1.07
-5.35 -0.60 1.12
-5.38 -0.59 1.11
-5.30 -0.56 1.12
-5.70 -0.57 1.07
-5.88 -0.56 1.05
-5.72 -0.53 1.07
-5.48 -0.50 1.10
-5.33 -0.47 1.12
-5.26 -0.45 1.13
-4.85 -0.41 1.18
-4.82 -0.39 1.19
-5.02 -0.38 1.16
-5.42 -0.38 1.11
-6.77 -0.42 0.93
-5.54 -0.35 1.09
-5.76 -0.34 1.06
-5.42 -0.30 1.11
-5.69 -0.29 1.07
-4.86 -0.25 1.18
-5.05 -0.23 1.15
-4.88 -0.21 1.18
-4.83 -0.19 1.18
-4.72 -0.17 1.20
-4.75 -0.16 1.19
-4.73 -0.14 1.20
-4.73 -0.12 1.20
-6.81 -0.10 1.22
-6.74 -0.08 1.23
-6.56 -0.06 1.25
-6.92 -0.05 1.20
-6.69 -0.03 1.23
-7.00 -0.02 1.19
-4.34 0.00 1.20
-4.95 0.02 1.11
-1.15 0.02 1.65
-4.80 0.05 1.13
-4.52 0.07 1.17
-4.51 0.09 1.17
-4.46 0.10 1.18
-4.54 0.12 1.17
-4.47 0.14 1.18
-4.56 0.15 1.16
-4.65 0.17 1.15
-8.23 0.23 0.96
-5.95 0.21 1.28
-5.82 0.28 1.30
-5.72 0.29 1.31
-5.76 0.31 1.31
-9.87 0.54 0.73
-5.73 0.35 1.31
-4.60 0.44 1.47
-6.85 1.16 1.13
-6.82 1.19 1.13
-1.57 -1.66 1.58
-1.34 -1.42 1.62
-2.48 -1.38 1.46
-2.87 -1.41 1.41
-2.42 -1.27 1.47
-2.56 -1.29 1.45
-2.56 -1.28 1.45
-2.94 -1.31 1.40
-3.16 -1.35 1.37
-3.00 -1.30 1.39
-2.92 -1.26 1.40
-2.83 -1.23 1.41
-3.04 -1.27 1.38
-2.93 -1.21 1.40
-2.96 -1.20 1.40
-3.11 -1.22 1.38
-3.10 -1.21 1.38
-2.96 -1.17 1.40
-3.06 -1.17 1.38
-2.86 -1.12 1.41
-2.82 -1.08 1.42
-2.81 -1.07 1.42
-2.73 -1.04 1.43
-2.72 -1.02 1.43
-2.76 -1.02 1.43
-2.76 -1.01 1.43
-2.78 -1.00 1.42
-3.00 -1.03 1.39
-2.83 -0.98 1.42
-3.07 -1.01 1.38
-3.05 -0.99 1.39
-3.12 -0.99 1.38
-3.23 -1.00 1.36
-3.18 -0.98 1.37
-3.31 -0.98 1.35
-3.34 -0.97 1.35
-3.25 -0.94 1.36
-3.37 -0.95 1.34
-3.44 -0.95 1.33
-3.38 -0.92 1.34
-3.33 -0.90 1.35
-3.44 -0.90 1.33
-3.30 -0.87 1.35
-3.39 -0.87 1.34
-3.54 -0.87 1.32
-3.51 -0.85 1.32
-3.29 -0.81 1.35
-3.19 -0.78 1.37
-3.33 -0.79 1.35
-3.24 -0.76 1.36
-3.88 -0.83 1.27
-5.59 -1.03 1.03
-5.31 -0.98 1.07
-5.63 -1.00 1.02
-3.31 -0.67 1.35
-3.22 -0.65 1.36
-2.90 -0.60 1.41
-2.81 -0.58 1.42
-6.27 -0.90 0.93
-3.15 -0.57 1.37
-5.29 -0.77 1.07
-3.14 -0.54 1.37
-5.40 -0.74 1.05
-5.56 -0.73 1.03
-5.88 -0.74 0.99
-3.16 -0.49 1.37
-5.46 -0.67 1.05
-5.38 -0.64 1.06
-5.81 -0.66 1.00
-5.42 -0.61 1.05
-5.59 -0.60 1.03
-5.67 -0.59 1.02
-5.89 -0.58 0.98
-5.78 -0.56 1.00
-6.95 -0.61 0.83
-5.02 -0.47 1.11
-4.95 -0.45 1.12
-4.91 -0.43 1.12
-5.04 -0.42 1.10
-5.03 -0.40 1.11
-5.70 -0.41 1.01
-6.47 -0.43 0.90
-6.09 -0.39 0.96
-5.63 -0.35 1.02
-5.67 -0.33 1.01
-5.41 -0.30 1.05
-5.17 -0.28 1.08
-5.32 -0.26 1.06
-5.04 -0.23 1.10
-4.94 -0.21 1.12
-4.98 -0.20 1.11
-5.07 -0.18 1.10
-4.77 -0.16 1.14
-4.76 -0.14 1.14
-5.14 -0.13 1.09
-5.09 -0.11 1.09
-4.49 -0.08 1.18
-4.79 -0.07 1.14
-4.55 -0.05 1.17
-4.34 -0.03 1.20
-4.26 -0.01 1.21
-7.64 0.02 0.98
-7.48 0.06 1.01
-7.84 0.10 0.95
-7.68 0.12 0.98
-5.89 0.11 1.24
-5.60 0.13 1.28
-5.49 0.16 1.30
-7.69 0.25 0.97
-5.54 0.20 1.29
-8.81 0.33 0.81
-8.56 0.37 0.84
-5.62 0.28 1.28
-5.63 0.30 1.28
-5.85 0.33 1.24
-5.72 0.34 1.26
-6.06 0.39 1.21
-5.33 0.40 1.32
-5.22 0.41 1.33
-5.21 0.42 1.34
-6.70 0.56 1.11
-6.28 0.56 1.17
-6.24 0.59 1.18
-6.80 0.66 1.10
-5.55 0.56 1.28
-6.19 0.65 1.18
-5.59 0.62 1.27
-6.41 0.76 1.15
-5.73 0.70 1.25
-6.89 0.86 1.08
-6.91 1.10 1.06
-6.94 1.12 1.06
-6.90 1.13 1.07
-7.03 1.17 1.05
-6.98 1.18 1.05
-6.92 1.23 1.06
-6.98 1.25 1.05
-6.71 1.40 1.08
-1.71 -1.59 1.53
-1.89 -1.62 1.50
-1.93 -1.54 1.50
-2.54 -1.54 1.41
-2.65 -1.56 1.39
-2.68 -1.54 1.39
-2.69 -1.52 1.38
-2.92 -1.53 1.35
-3.08 -1.52 1.33
-3.01 -1.48 1.34
-2.55 -1.34 1.41
-2.79 -1.38 1.37
-2.83 -1.38 1.37
-2.82 -1.37 1.37
-2.67 -1.31 1.39
-2.78 -1.33 1.37
-2.81 -1.32 1.37
-3.02 -1.36 1.34
-2.84 -1.30 1.37
-2.96 -1.32 1.35
-2.79 -1.27 1.38
-2.85 -1.27 1.37
-3.00 -1.29 1.34
-3.03 -1.28 1.34
-2.91 -1.24 1.36
-2.89 -1.22 1.36
-2.77 -1.18 1.38
-2.91 -1.20 1.36
-3.13 -1.23 1.32
-3.01 -1.19 1.34
-2.96 -1.17 1.35
-3.02 -1.17 1.34
-3.10 -1.17 1.33
-2.98 -1.13 1.35
-2.90 -1.10 1.36
-2.92 -1.09 1.36
-2.87 -1.07 1.37
-2.83 -1.05 1.37
-2.92 -1.05 1.36
-2.99 -1.05 1.35
-2.90 -1.02 1.36
-3.02 -1.03 1.34
-2.97 -1.01 1.35
-3.08 -1.02 1.33
-3.28 -1.04 1.31
-3.24 -1.02 1.31
-3.16 -0.99 1.32
-3.05 -0.96 1.34
-3.20 -0.97 1.32
-3.40 -0.99 1.29
-3.42 -0.98 1.29
-3.49 -0.97 1.27
-3.44 -0.95 1.28
-3.46 -0.94 1.28
-3.60 -0.95 1.26
-3.45 -0.91 1.28
-3.53 -0.91 1.27
-3.57 -0.90 1.26
-3.42 -0.86 1.29
-3.40 -0.84 1.29
-3.37 -0.82 1.29
-3.46 -0.82 1.28
-3.38 -0.80 1.29
-3.37 -0.78 1.29
-3.25 -0.75 1.31
-3.23 -0.74 1.31
-3.21 -0.72 1.32
-3.09 -0.69 1.33
-3.25 -0.70 1.31
-3.27 -0.68 1.31
-3.49 -0.70 1.27
-3.38 -0.67 1.29
-3.23 -0.64 1.31
-3.19 -0.62 1.32
-3.24 -0.61 1.31
-3.23 -0.60 1.31
-3.23 -0.58 1.31
-3.25 -0.57 1.31
-3.15 -0.55 1.33
-3.25 -0.54 1.31
-3.37 -0.54 1.29
-3.26 -0.52 1.31
-3.28 -0.50 1.31
-3.30 -0.49 1.30
-3.34 -0.48 1.30
-3.37 -0.47 1.29
-3.31 -0.45 1.30
-5.37 -0.59 0.99
-5.23 -0.56 1.01
-5.81 -0.58 0.93
-5.39 -0.53 0.99
-5.44 -0.52 0.98
-5.36 -0.49 0.99
-5.27 -0.47 1.01
-4.96 -0.43 1.05
-5.06 -0.42 1.04
-5.02 -0.40 1.04
-4.94 -0.38 1.06
-4.98 -0.36 1.05
-5.16 -0.35 1.02
-7.08 -0.41 0.74
-5.31 -0.32 1.00
-4.83 -0.28 1.07
-5.44 -0.29 0.98
-5.98 -0.20 1.23
-6.10 -0.17 1.21
-6.20 -0.16 1.20
-6.44 -0.14 1.16
-6.89 -0.12 1.10
-6.69 -0.08 1.13
-6.93 -0.05 1.09
-7.59 -0.04 0.99
-7.47 -0.02 1.01
-2.93 0.04 1.32
-3.13 0.07 1.28
-3.30 0.13 1.26
-3.69 0.21 1.19
-3.52 0.22 1.22
-3.38 0.23 1.24
-3.03 0.24 1.30
-3.85 0.29 1.17
-8.75 0.44 0.75
-8.87 0.55 0.73
-4.69 0.33 1.38
-4.54 0.39 1.40
-7.03 1.13 1.00
-1.27 -1.65 1.56
-1.13 -1.58 1.58
-1.54 -1.61 1.52
-1.55 -1.51 1.52
-0.78 -1.17 1.65
-0.94 -1.21 1.63
-1.20 -1.14 1.59
-1.70 -1.11 1.51
-2.13 -1.18 1.44
-2.03 -1.13 1.46
-1.98 -1.11 1.47
-2.27 -1.17 1.42
-1.90 -1.07 1.48
-2.15 -1.12 1.44
-2.74 -1.22 1.35
-2.30 -1.07 1.42
-2.32 -1.06 1.42
-2.87 -1.14 1.33
-2.70 -1.10 1.36
-2.76 -1.10 1.35
-2.68 -1.07 1.36
-2.60 -1.04 1.37
-2.52 -1.01 1.39
-2.84 -1.06 1.33
-2.66 -1.01 1.36
-2.10 -0.88 1.45
-2.36 -0.91 1.41
-2.30 -0.88 1.42
-2.74 -0.95 1.35
-2.65 -0.92 1.37
-2.57 -0.89 1.38
-2.67 -0.90 1.36
-2.73 -0.90 1.35
-2.78 -0.89 1.35
-2.94 -0.91 1.32
-2.61 -0.84 1.37
-3.15 -0.91 1.29
-2.85 -0.85 1.33
-2.84 -0.84 1.34
-3.07 -0.86 1.30
-3.12 -0.85 1.29
-3.07 -0.83 1.30
-2.96 -0.80 1.32
-3.23 -0.82 1.28
-3.16 -0.79 1.29
-8.09 -1.42 0.51
-2.62 -0.68 1.37
-2.97 -0.71 1.32
-2.88 -0.69 1.33
-3.00 -0.66 1.31
-2.91 -0.63 1.33
-2.35 -0.54 1.41
-2.91 -0.59 1.33
-2.46 -0.53 1.40
-2.67 -0.54 1.36
-2.68 -0.52 1.36
-2.75 -0.52 1.35
-2.71 -0.50 1.36
-2.85 -0.50 1.34
-5.22 -0.67 0.96
-5.39 -0.66 0.94
-5.82 -0.68 0.87
-5.79 -0.66 0.87
-5.21 -0.59 0.97
-5.69 -0.61 0.89
-5.72 -0.59 0.89
-5.19 -0.54 0.97
-5.27 -0.52 0.96
-6.25 -0.57 0.80
-5.49 -0.50 0.92
-5.86 -0.50 0.86
-7.86 -0.59 0.55
-7.08 -0.53 0.67
-6.24 -0.46 0.80
-7.31 -0.47 0.64
-7.11 -0.41 0.67
-7.22 -0.40 0.65
-6.77 -0.35 0.72
-7.32 -0.35 0.63
-6.68 -0.26 0.73
-7.07 -0.25 0.67
-7.06 -0.23 0.67
-3.98 -0.06 1.15
-4.38 -0.05 1.09
-7.12 0.00 0.94
-7.11 0.02 0.94
-7.56 0.04 0.87
-7.61 0.06 0.86
-7.56 0.08 0.87
-7.53 0.10 0.88
-7.71 0.12 0.85
-7.77 0.14 0.84
-7.75 0.16 0.84
-7.93 0.18 0.81
-7.90 0.20 0.81
-7.93 0.22 0.81
-8.15 0.25 0.77
-8.33 0.27 0.74
-8.84 0.31 0.66
-8.84 0.33 0.66
-10.09 0.40 0.45
-8.50 0.36 0.71
-5.36 0.25 1.23
-5.37 0.26 1.23
-6.58 0.34 1.03
-4.68 0.26 1.34
-6.32 0.40 1.07
-6.64 0.46 1.01
-4.88 0.36 1.30
-5.19 0.39 1.25
-4.97 0.39 1.29
-5.11 0.41 1.26
-5.04 0.42 1.28
-5.16 0.44 1.26
-5.72 0.50 1.16
-4.70 0.43 1.33
-5.24 0.49 1.24
-6.47 0.61 1.04
-5.61 0.55 1.18
-6.59 0.67 1.02
-5.16 0.55 1.25
-5.20 0.57 1.24
-6.57 0.72 1.02
-6.66 0.75 1.00
-6.82 0.80 0.98
-5.16 0.63 1.25
-5.19 0.66 1.24
-5.37 0.73 1.21
-6.87 0.93 0.96
-6.98 0.96 0.94
-6.87 0.97 0.96
-7.08 1.01 0.93
-6.81 1.01 0.97
-7.27 1.09 0.89
-6.96 1.07 0.94
-7.14 1.11 0.91
-7.12 1.13 0.92
-7.43 1.19 0.86
-7.41 1.21 0.87
-7.19 1.19 0.90
-7.30 1.23 0.88
-7.21 1.24 0.90
-7.54 1.31 0.84
-7.70 1.35 0.81
-7.57 1.35 0.83
-7.26 1.55 0.88
-1.50 -1.64 1.49
-1.54 -1.59 1.48
-1.69 -1.63 1.46
-1.87 -1.68 1.43
-1.56 -1.54 1.48
-1.80 -1.62 1.44
-1.60 -1.51 1.48
-1.78 -1.21 1.46
-2.53 -1.37 1.33
-2.35 -1.31 1.36
-2.50 -1.28 1.34
-2.95 -1.36 1.26
-2.51 -1.20 1.34
-2.64 -1.22 1.32
-2.72 -1.23 1.30
-2.85 -1.24 1.28
-2.98 -1.26 1.26
-2.85 -1.22 1.28
-2.67 -1.16 1.31
-2.87 -1.19 1.28
-2.81 -1.17 1.29
-2.73 -1.14 1.30
-2.81 -1.14 1.29
-2.81 -1.13 1.29
-2.74 -1.10 1.30
-2.82 -1.10 1.29
-2.82 -1.09 1.29
-2.92 -1.10 1.27
-2.94 -1.09 1.27
-2.83 -1.05 1.29
-2.74 -1.02 1.30
-2.87 -1.03 1.28
-2.90 -1.03 1.28
-2.94 -1.02 1.27
-2.83 -0.99 1.29
-2.99 -1.00 1.26
-2.81 -0.96 1.29
-2.91 -0.96 1.27
-2.94 -0.95 1.27
-3.01 -0.95 1.26
-2.83 -0.91 1.29
-2.63 -0.86 1.32
-2.79 -0.88 1.29
-3.04 -0.90 1.25
-3.28 -0.93 1.21
-3.22 -0.90 1.22
-3.20 -0.89 1.23
-3.08 -0.85 1.25
-3.16 -0.85 1.23
-3.15 -0.84 1.24
-3.36 -0.85 1.20
-3.39 -0.84 1.20
-3.39 -0.83 1.20
-3.30 -0.80 1.21
-3.53 -0.82 1.17
-3.20 -0.76 1.23
-3.28 -0.76 1.21
-3.29 -0.75 1.21
-3.52 -0.76 1.18
-3.28 -0.72 1.21
-3.19 -0.69 1.23
-3.10 -0.67 1.25
-3.20 -0.66 1.23
-2.90 -0.62 1.28
-3.79 -0.70 1.13
-3.24 -0.63 1.22
-3.51 -0.64 1.18
-2.95 -0.57 1.27
-3.76 -0.64 1.14
-2.87 -0.53 1.28
-2.90 -0.52 1.28
-2.72 -0.49 1.31
-2.88 -0.50 1.28
-3.08 -0.50 1.25
-5.19 -0.67 0.90
-5.31 -0.66 0.88
-5.29 -0.64 0.88
-5.56 -0.64 0.84
-5.46 -0.61 0.86
-5.31 -0.58 0.88
-5.06 -0.55 0.92
-5.17 -0.54 0.90
-5.20 -0.52 0.90
-5.27 -0.51 0.89
-5.61 -0.51 0.83
-5.54 -0.49 0.84
-5.49 -0.46 0.85
-6.52 -0.38 1.05
-6.07 -0.34 1.12
-6.40 -0.34 1.07
-6.57 -0.33 1.04
-6.63 -0.32 1.03
-6.18 -0.28 1.10
-6.00 -0.26 1.13
-6.17 -0.25 1.10
-6.27 -0.24 1.09
-5.76 -0.20 1.17
-6.66 -0.22 1.02
-6.91 -0.21 0.98
-6.76 -0.19 1.01
-6.84 -0.17 0.99
-6.93 -0.16 0.98
-7.06 -0.14 0.96
-7.24 -0.13 0.93
-6.52 -0.10 1.04
-6.73 -0.08 1.01
-6.61 -0.07 1.03
-6.73 -0.05 1.01
-5.94 -0.03 1.14
-6.82 -0.02 0.99
-4.14 -0.00 1.02
-3.62 0.01 1.11
-3.83 0.03 1.07
-7.87 0.06 0.76
-7.78 0.08 0.77
-7.46 0.09 0.83
-7.73 0.12 0.78
-7.57 0.13 0.81
-3.95 0.08 1.43
-7.75 0.18 0.78
-7.65 0.19 0.79
-4.11 0.12 1.40
-7.86 0.24 0.76
-3.99 0.14 1.42
-3.83 0.14 1.45
-7.75 0.29 0.77
-4.07 0.17 1.41
-4.85 0.21 1.27
-3.95 0.19 1.43
-4.81 0.24 1.28
-4.00 0.21 1.42
-5.53 0.30 1.15
-4.20 0.24 1.38
-5.52 0.33 1.15
-4.25 0.27 1.37
-5.58 0.36 1.14
-4.35 0.30 1.36
-4.45 0.31 1.34
-4.90 0.36 1.26
-4.82 0.36 1.27
-5.38 0.42 1.18
-5.23 0.42 1.20
-5.26 0.43 1.20
-4.87 0.42 1.26
-5.19 0.46 1.21
-4.98 0.45 1.24
-4.92 0.46 1.25
-4.95 0.48 1.25
-4.91 0.49 1.25
-4.95 0.50 1.25
-5.04 0.52 1.23
-5.49 0.58 1.15
-5.06 0.55 1.23
-6.14 0.68 1.04
-5.00 0.57 1.24
-5.11 0.60 1.22
-5.15 0.61 1.21
-5.11 0.62 1.22
-5.17 0.64 1.20
-5.19 0.66 1.20
-5.83 0.75 1.09
-6.70 0.87 0.94
-6.76 0.90 0.93
-6.87 0.93 0.91
-6.77 0.95 0.92
-6.66 0.95 0.94
-6.99 1.01 0.88
-7.01 1.03 0.88
-7.04 1.06 0.87
-7.33 1.12 0.82
-7.09 1.10 0.86
-7.11 1.12 0.86
-7.07 1.14 0.87
-7.18 1.17 0.84
-7.39 1.22 0.81
-7.16 1.20 0.85
-7.38 1.26 0.81
-7.22 1.25 0.83
-7.47 1.31 0.79
-1.02 -1.64 1.53
-1.13 -1.66 1.51
-1.37 -1.69 1.47
-1.18 -1.60 1.51
-1.54 -1.68 1.44
-1.62 -1.68 1.43
-1.46 -1.59 1.46
-1.59 -1.62 1.44
-1.68 -1.63 1.43
-1.76 -1.63 1.41
-1.85 -1.65 1.40
-1.48 -1.50 1.46
-1.22 -1.36 1.51
-1.38 -1.28 1.49
-1.91 -1.37 1.40
-1.68 -1.28 1.44
-1.63 -1.26 1.45
-1.98 -1.34 1.39
-1.86 -1.29 1.41
-1.95 -1.31 1.39
-2.14 -1.35 1.36
-2.11 -1.33 1.36
-2.12 -1.32 1.36
-2.24 -1.35 1.34
-2.19 -1.32 1.35
-2.41 -1.37 1.31
-2.40 -1.36 1.31
-2.29 -1.31 1.33
-2.59 -1.38 1.28
-2.47 -1.34 1.30
-2.73 -1.39 1.26
-2.11 -1.22 1.37
-2.78 -1.38 1.25
-2.64 -1.33 1.27
-2.67 -1.33 1.27
-2.35 -1.23 1.33
-2.45 -1.24 1.31
-2.31 -1.20 1.33
-1.97 -1.10 1.39
-2.46 -1.21 1.31
-2.50 -1.21 1.30
-2.68 -1.24 1.27
-2.62 -1.21 1.28
-2.69 -1.21 1.27
-2.73 -1.21 1.26
-2.62 -1.17 1.28
-2.61 -1.16 1.28
-2.46 -1.11 1.31
-2.57 -1.12 1.29
-2.45 -1.08 1.31
-2.54 -1.09 1.29
-2.59 -1.09 1.29
-2.56 -1.07 1.29
-2.51 -1.05 1.30
-2.50 -1.03 1.30
-2.45 -1.01 1.31
-2.69 -1.05 1.27
-2.57 -1.01 1.29
-2.57 -1.00 1.29
-2.60 -0.99 1.29
-2.68 -0.99 1.27
-2.71 -0.99 1.27
-2.64 -0.96 1.28
-2.56 -0.93 1.29
-2.54 -0.92 1.30
-2.68 -0.93 1.27
-2.51 -0.89 1.30
-2.64 -0.90 1.28
-2.59 -0.88 1.29
-2.58 -0.86 1.29
-2.58 -0.85 1.29
-2.66 -0.85 1.28
-2.84 -0.87 1.25
-2.91 -0.86 1.23
-2.93 -0.86 1.23
-2.97 -0.85 1.22
-2.94 -0.83 1.23
-2.93 -0.82 1.23
-2.96 -0.81 1.23
-2.94 -0.79 1.23
-2.84 -0.76 1.25
-2.35 -0.68 1.33
-2.68 -0.72 1.27
-2.65 -0.70 1.28
-3.16 -0.75 1.19
-3.00 -0.72 1.22
-3.41 -0.76 1.15
-3.21 -0.72 1.18
-3.40 -0.73 1.15
-3.25 -0.70 1.18
-3.27 -0.68 1.17
-3.38 -0.68 1.15
-3.30 -0.66 1.17
-3.37 -0.65 1.16
-2.98 -0.60 1.22
-2.94 -0.58 1.23
-2.95 -0.57 1.23
-2.58 -0.52 1.29
-2.73 -0.52 1.27
-3.21 -0.55 1.18
-4.18 -0.63 1.02
-4.40 -0.63 0.98
-4.94 -0.66 0.88
-5.04 -0.65 0.87
-5.31 -0.66 0.82
-4.87 -0.60 0.90
-5.10 -0.60 0.86
-5.11 -0.59 0.85
-5.14 -0.57 0.85
-5.04 -0.55 0.87
-5.01 -0.52 0.87
-5.20 -0.52 0.84
-5.24 -0.50 0.83
-5.39 -0.49 0.81
-5.37 -0.47 0.81
-5.55 -0.47 0.78
-5.50 -0.44 0.79
-6.13 -0.46 0.68
-6.06 -0.43 0.69
-6.17 -0.42 0.67
-5.90 -0.38 0.72
-6.34 -0.38 0.64
-6.43 -0.37 0.63
-6.35 -0.34 0.64
-5.12 -0.28 0.85
-5.38 -0.27 0.81
-2.60 -0.16 1.28
-2.65 -0.15 1.28
-2.67 -0.14 1.27
-4.90 -0.18 0.89
-4.54 -0.15 0.95
-4.68 -0.14 0.92
-4.19 -0.11 1.01
-4.14 -0.10 1.02
-3.33 -0.07 1.16
-3.95 -0.06 1.05
-3.22 -0.04 1.18
-4.17 -0.03 1.01
-4.02 -0.02 1.04
-7.32 0.00 0.79
-7.89 0.02 0.69
-8.12 0.04 0.64
-7.88 0.06 0.69
-7.78 0.08 0.70
-7.75 0.10 0.71
-8.28 0.12 0.61
-8.20 0.14 0.63
-7.71 0.15 0.72
-8.03 0.18 0.66
-8.24 0.21 0.62
-8.13 0.22 0.64
-7.84 0.24 0.69
-7.71 0.25 0.71
-7.76 0.27 0.71
-7.65 0.29 0.72
-7.77 0.31 0.70
-7.83 0.33 0.69
-7.71 0.35 0.71
-7.72 0.37 0.71
-7.83 0.39 0.69
-7.90 0.42 0.68
-7.77 0.43 0.70
-7.78 0.45 0.70
-7.80 0.47 0.69
-8.04 0.50 0.65
-7.96 0.52 0.66
-7.28 0.50 0.79
-6.67 0.47 0.90
-7.35 0.54 0.77
-6.62 0.50 0.90
-8.06 0.63 0.64
-5.12 0.42 1.17
-6.63 0.56 0.90
-6.77 0.58 0.87
-6.48 0.58 0.93
-5.12 0.48 1.17
-5.40 0.52 1.12
-5.48 0.54 1.11
-6.42 0.64 0.94
-6.45 0.66 0.93
-6.53 0.68 0.91
-6.34 0.68 0.95
-6.39 0.70 0.94
-6.55 0.74 0.91
-6.78 0.78 0.87
-5.23 0.62 1.15
-6.99 0.83 0.83
-7.10 0.88 0.81
-7.09 0.90 0.81
-7.01 0.93 0.82
-7.07 0.95 0.81
-6.96 0.96 0.83
-6.87 0.96 0.84
-6.86 0.98 0.84
-6.84 1.01 0.85
-6.78 1.04 0.86
-6.65 1.04 0.88
-6.98 1.10 0.82
-7.03 1.13 0.81
-7.06 1.15 0.80
-7.19 1.19 0.78
-7.33 1.23 0.75
-7.32 1.27 0.75
-7.31 1.29 0.75
-5.21 0.95 1.14
-1.79 -1.69 1.37
-1.83 -1.66 1.36
-1.68 -1.37 1.40
-2.55 -1.53 1.24
-2.64 -1.53 1.22
-2.65 -1.52 1.22
-3.01 -1.61 1.16
-2.57 -1.47 1.24
-2.58 -1.46 1.24
-2.43 -1.40 1.26
-2.27 -1.34 1.29
-2.86 -1.50 1.19
-2.65 -1.42 1.23
-2.46 -1.36 1.26
-2.76 -1.43 1.20
-2.46 -1.34 1.26
-2.91 -1.44 1.18
-2.90 -1.43 1.18
-2.97 -1.43 1.17
-2.96 -1.42 1.17
-3.15 -1.45 1.14
-2.81 -1.35 1.20
-2.75 -1.32 1.21
-2.83 -1.33 1.19
-2.79 -1.30 1.20
-2.68 -1.26 1.22
-2.59 -1.23 1.24
-2.92 -1.29 1.18
-2.78 -1.25 1.21
-2.80 -1.24 1.20
-2.55 -1.17 1.25
-2.62 -1.17 1.24
-2.72 -1.18 1.22
-2.63 -1.15 1.23
-2.63 -1.14 1.24
-2.62 -1.12 1.24
-2.57 -1.10 1.25
-2.73 -1.12 1.22
-2.66 -1.09 1.23
-2.67 -1.08 1.23
-2.71 -1.08 1.22
-2.63 -1.05 1.24
-2.72 -1.06 1.22
-2.73 -1.04 1.22
-2.80 -1.04 1.21
-2.63 -1.00 1.24
-2.65 -0.99 1.23
-2.71 -0.99 1.22
-2.77 -0.99 1.21
-2.84 -0.99 1.20
-2.66 -0.94 1.23
-2.77 -0.95 1.21
-3.00 -0.98 1.17
-2.96 -0.95 1.18
-3.09 -0.96 1.15
-2.97 -0.93 1.18
-3.07 -0.93 1.16
-3.16 -0.93 1.14
-3.15 -0.92 1.15
-3.06 -0.89 1.16
-2.99 -0.87 1.17
-2.94 -0.85 1.18
-3.12 -0.86 1.15
-3.20 -0.86 1.14
-3.20 -0.84 1.13
-3.17 -0.83 1.14
-3.18 -0.81 1.14
-3.25 -0.81 1.13
-3.42 -0.82 1.10
-3.40 -0.80 1.10
-3.51 -0.80 1.08
-3.46 -0.78 1.09
-3.58 -0.78 1.07
-3.67 -0.78 1.05
-3.53 -0.75 1.08
-3.57 -0.73 1.07
-3.64 -0.73 1.06
-3.57 -0.71 1.07
-3.46 -0.68 1.09
-3.58 -0.68 1.07
-3.50 -0.65 1.08
-3.43 -0.63 1.10
-3.82 -0.66 1.02
-4.04 -0.66 0.98
-5.09 -0.75 0.79
-4.91 -0.72 0.83
-4.33 -0.64 0.93
-4.67 -0.66 0.87
-4.66 -0.64 0.87
-4.83 -0.64 0.84
-4.64 -0.60 0.88
-5.02 -0.62 0.81
-4.85 -0.59 0.84
-5.00 -0.58 0.81
-4.79 -0.55 0.85
-4.83 -0.53 0.84
-4.97 -0.52 0.82
-5.04 -0.51 0.80
-5.05 -0.49 0.80
-5.16 -0.48 0.78
-5.14 -0.46 0.78
-5.07 -0.44 0.80
-5.20 -0.43 0.77
-5.30 -0.41 0.75
-5.18 -0.39 0.78
-5.58 -0.39 0.70
-5.86 -0.38 0.65
-5.45 -0.35 0.73
-5.69 -0.34 0.68
-5.47 -0.31 0.72
-5.07 -0.27 0.80
-5.26 -0.26 0.76
-4.94 -0.23 0.82
-5.01 -0.22 0.81
-3.00 -0.15 1.17
-5.03 -0.18 0.80
-4.86 -0.16 0.83
-4.65 -0.14 0.87
-4.74 -0.12 0.85
-7.73 -0.12 0.72
-7.40 -0.09 0.78
-7.42 -0.07 0.77
-7.64 -0.06 0.73
-7.43 -0.04 0.77
-7.16 -0.02 0.82
-3.98 0.01 0.93
-4.19 0.03 0.89
-3.38 0.04 1.05
-3.15 0.05 1.09
-3.33 0.07 1.05
-3.35 0.08 1.05
-3.30 0.10 1.06
-3.21 0.11 1.08
-3.22 0.12 1.07
-3.41 0.14 1.04
-4.15 0.12 1.32
-3.83 0.12 1.38
-3.89 0.13 1.37
-4.06 0.15 1.33
-4.25 0.17 1.30
-3.86 0.16 1.37
-4.22 0.19 1.30
-5.44 0.25 1.07
-4.46 0.22 1.26
-3.88 0.20 1.37
-4.52 0.25 1.25
-4.27 0.25 1.29
-4.43 0.27 1.26
-4.51 0.28 1.25
-4.34 0.28 1.28
-5.21 0.35 1.11
-4.87 0.34 1.18
-4.72 0.34 1.21
-4.96 0.37 1.16
-4.98 0.39 1.15
-4.89 0.39 1.17
-4.95 0.41 1.16
-5.05 0.43 1.14
-4.97 0.44 1.16
-5.11 0.46 1.13
-5.15 0.48 1.12
-5.14 0.49 1.12
-6.19 0.60 0.92
-6.50 0.64 0.86
-6.43 0.65 0.88
-6.44 0.67 0.87
-5.12 0.56 1.12
-5.12 0.57 1.12
-5.33 0.60 1.08
-5.09 0.59 1.13
-5.10 0.61 1.13
-5.15 0.63 1.12
-5.24 0.65 1.10
-5.34 0.68 1.08
-5.24 0.68 1.10
-5.21 0.69 1.10
-6.77 0.90 0.80
-5.24 0.73 1.09
-5.43 0.77 1.06
-5.37 0.78 1.07
-4.83 0.74 1.17
-5.05 0.93 1.12
-4.98 0.93 1.13
-6.70 1.31 0.80
-2.97 0.77 1.51
-3.05 0.80 1.49
-3.38 1.09 1.41
-2.88 0.99 1.51
-1.53 -1.65 1.38
-1.42 -1.54 1.40
-1.39 -1.51 1.41
-1.57 -1.56 1.37
-1.37 -1.48 1.41
-1.54 -1.52 1.38
-1.44 -1.46 1.40
-1.57 -1.49 1.38
-1.65 -1.50 1.36
-1.43 -1.20 1.41
-1.64 -1.25 1.37
-1.54 -1.21 1.39
-1.76 -1.25 1.35
-1.54 -1.18 1.39
-1.73 -1.22 1.36
-1.76 -1.21 1.35
-1.88 -1.23 1.33
-2.08 -1.28 1.29
-2.09 -1.27 1.29
-2.25 -1.29 1.26
-1.95 -1.20 1.32
-2.34 -1.29 1.24
-2.33 -1.27 1.24
-2.06 -1.19 1.30
-2.51 -1.30 1.21
-2.15 -1.18 1.28
-2.42 -1.24 1.23
-2.34 -1.20 1.24
-2.23 -1.16 1.27
-2.31 -1.17 1.25
-2.24 -1.14 1.26
-2.31 -1.15 1.25
-2.44 -1.15 1.23
-2.29 -1.11 1.26
-2.35 -1.11 1.24
-2.46 -1.12 1.22
-2.36 -1.09 1.24
-2.33 -1.07 1.25
-2.21 -1.03 1.27
-2.41 -1.05 1.23
-2.39 -1.03 1.24
-2.51 -1.05 1.21
-2.47 -1.03 1.22
-2.75 -1.07 1.17
-2.58 -1.02 1.20
-2.59 -1.01 1.20
-2.54 -0.98 1.21
-2.56 -0.97 1.21
-2.42 -0.93 1.23
-2.49 -0.93 1.22
-2.59 -0.94 1.20
-2.68 -0.94 1.18
-2.52 -0.90 1.21
-2.64 -0.90 1.19
-2.58 -0.88 1.20
-2.71 -0.88 1.18
-2.85 -0.90 1.15
-2.91 -0.89 1.14
-2.68 -0.84 1.19
-3.54 -0.97 1.02
-2.88 -0.85 1.15
-2.87 -0.82 1.15
-2.87 -0.81 1.15
-2.77 -0.78 1.17
-2.60 -0.74 1.20
-2.75 -0.75 1.17
-2.69 -0.73 1.18
-2.81 -0.73 1.16
-2.67 -0.69 1.19
-3.01 -0.72 1.12
-3.02 -0.71 1.12
-3.30 -0.73 1.07
-3.24 -0.71 1.08
-3.52 -0.73 1.03
-3.56 -0.72 1.02
-3.43 -0.67 1.04
-3.60 -0.68 1.01
-3.68 -0.67 1.00
-3.38 -0.63 1.05
-3.88 -0.66 0.96
-3.87 -0.65 0.96
-4.19 -0.65 0.90
-4.46 -0.65 0.85
-4.85 -0.67 0.77
-4.65 -0.64 0.81
-4.77 -0.63 0.79
-4.91 -0.63 0.76
-4.50 -0.57 0.84
-4.93 -0.59 0.76
-4.54 -0.53 0.83
-4.66 -0.52 0.81
-4.83 -0.51 0.78
-5.00 -0.51 0.75
-5.12 -0.50 0.72
-5.19 -0.48 0.71
-5.24 -0.45 0.70
-5.11 -0.42 0.72
-5.81 -0.42 0.59
-6.00 -0.41 0.56
-5.49 -0.37 0.65
-5.88 -0.36 0.58
-2.87 -0.22 1.15
-5.19 -0.30 0.71
-5.17 -0.26 0.71
-2.94 -0.17 1.13
-2.91 -0.16 1.14
-2.87 -0.14 1.15
-2.89 -0.13 1.14
-4.75 -0.16 0.79
-4.89 -0.13 0.76
-4.70 -0.11 0.80
-3.36 -0.07 1.05
-3.12 -0.06 1.10
-2.85 -0.04 1.15
-4.47 -0.04 0.84
-4.26 -0.02 0.88
-8.23 -0.00 0.47
-8.81 0.02 0.36
-8.39 0.04 0.44
-8.40 0.06 0.44
-8.60 0.09 0.40
-8.36 0.10 0.44
-7.32 0.13 0.65
-8.67 0.17 0.38
-3.96 0.09 1.31
-7.00 0.18 0.71
-7.00 0.19 0.71
-6.84 0.21 0.74
-7.13 0.23 0.69
-7.02 0.25 0.71
-7.31 0.28 0.65
-7.24 0.29 0.66
-7.18 0.31 0.67
-7.27 0.33 0.66
-7.13 0.34 0.68
-7.12 0.36 0.68
-6.89 0.37 0.73
-7.23 0.40 0.66
-7.25 0.42 0.66
-7.22 0.44 0.66
-7.23 0.46 0.66
-7.00 0.46 0.70
-7.00 0.48 0.70
-7.15 0.51 0.67
-6.99 0.51 0.71
-7.03 0.53 0.70
-6.70 0.53 0.76
-5.04 0.42 1.09
-4.94 0.42 1.11
-5.86 0.51 0.93
-5.54 0.50 0.99
-5.95 0.55 0.91
-5.71 0.54 0.96
-5.34 0.52 1.03
-5.27 0.53 1.04
-6.54 0.67 0.79
-7.00 0.73 0.70
-5.17 0.56 1.06
-6.35 0.70 0.82
-5.28 0.60 1.04
-5.59 0.65 0.97
-6.27 0.74 0.84
-5.10 0.62 1.07
-6.64 0.81 0.76
-6.53 0.82 0.79
-6.65 0.85 0.76
-6.38 0.83 0.81
-6.59 0.88 0.77
-5.82 0.80 0.92
-5.33 0.75 1.02
-5.40 0.77 1.01
-5.39 0.78 1.01
-5.82 0.86 0.92
-5.53 0.83 0.98
-6.45 0.98 0.79
-6.04 0.93 0.88
-5.55 0.88 0.97
-5.53 0.89 0.98
-4.92 0.81 1.10
-6.14 1.01 0.85
-4.97 0.85 1.09
-4.93 0.85 1.09
-4.94 0.87 1.09
-4.76 0.85 1.13
-4.93 0.89 1.09
-5.08 0.93 1.06
-6.29 1.15 0.82
-5.24 0.99 1.03
-6.52 1.23 0.77
-6.27 1.20 0.82
-5.10 1.01 1.05
-4.82 0.97 1.11
-6.68 1.32 0.73
-4.84 1.00 1.10
-6.13 1.26 0.84
-5.59 1.17 0.95
-5.06 1.08 1.06
-4.88 1.09 1.09
-5.00 1.12 1.07
-5.35 1.21 0.99
-5.49 1.26 0.96
-5.25 1.22 1.01
-6.21 1.45 0.82
-5.48 1.34 0.96
-6.21 1.56 0.81
-1.89 -1.49 1.27
-1.76 -1.42 1.30
-1.71 -1.39 1.31
-1.79 -1.39 1.30
-1.77 -1.33 1.30
-1.91 -1.36 1.28
-2.13 -1.40 1.23
-2.14 -1.38 1.23
-2.41 -1.44 1.18
-2.09 -1.33 1.24
-2.51 -1.44 1.16
-2.01 -1.28 1.26
-2.29 -1.33 1.20
-2.33 -1.32 1.19
-2.37 -1.32 1.19
-2.49 -1.33 1.16
-3.19 -1.49 1.02
-2.65 -1.33 1.13
-2.48 -1.26 1.17
-2.86 -1.34 1.09
-2.69 -1.28 1.13
-2.68 -1.25 1.13
-2.81 -1.26 1.10
-2.68 -1.20 1.13
-2.81 -1.22 1.10
-2.51 -1.14 1.16
-2.53 -1.12 1.16
-2.34 -1.05 1.20
-2.59 -1.08 1.15
-2.58 -1.07 1.15
-2.53 -1.04 1.16
-2.59 -1.03 1.15
-2.69 -1.02 1.13
-2.84 -1.03 1.10
-2.75 -1.00 1.12
-2.81 -1.00 1.11
-2.79 -0.97 1.11
-2.77 -0.94 1.12
-2.72 -0.90 1.13
-2.83 -0.91 1.10
-3.01 -0.93 1.07
-3.05 -0.90 1.06
-3.12 -0.90 1.05
-2.95 -0.86 1.08
-2.91 -0.83 1.09
-3.02 -0.83 1.07
-3.07 -0.83 1.06
-2.94 -0.78 1.08
-2.95 -0.76 1.08
-3.21 -0.76 1.03
-3.26 -0.76 1.02
-3.50 -0.77 0.97
-3.43 -0.73 0.99
-3.45 -0.72 0.98
-3.61 -0.73 0.95
-3.87 -0.73 0.90
-3.76 -0.70 0.92
-4.11 -0.72 0.85
-3.77 -0.65 0.92
-3.70 -0.63 0.93
-3.81 -0.63 0.91
-3.68 -0.58 0.94
-4.07 -0.61 0.86
-4.57 -0.63 0.76
-4.75 -0.63 0.72
-4.97 -0.63 0.68
-4.91 -0.59 0.69
-5.00 -0.58 0.68
-5.00 -0.56 0.68
-5.00 -0.55 0.67
-4.93 -0.52 0.69
-4.84 -0.50 0.71
-4.83 -0.48 0.71
-4.77 -0.44 0.72
-4.78 -0.42 0.72
-4.87 -0.41 0.70
-4.89 -0.39 0.70
-5.11 -0.39 0.65
-5.00 -0.36 0.67
-4.98 -0.34 0.68
-5.15 -0.33 0.64
-5.31 -0.32 0.61
-4.85 -0.29 0.70
-6.39 -0.24 0.84
-6.67 -0.24 0.78
-5.70 -0.19 0.97
-6.04 -0.18 0.91
-5.79 -0.16 0.96
-5.78 -0.15 0.96
-6.29 -0.14 0.86
-6.72 -0.14 0.77
-7.12 -0.13 0.69
-7.08 -0.11 0.70
-7.20 -0.09 0.68
-7.31 -0.07 0.65
-7.33 -0.06 0.65
-7.32 -0.04 0.65
-7.91 -0.02 0.54
-4.47 -0.00 0.72
-4.52 0.01 0.71
-3.54 0.03 0.91
-3.01 0.04 1.02
-3.11 0.05 1.00
-3.24 0.07 0.97
-3.18 0.08 0.99
-3.11 0.09 1.00
-3.19 0.11 0.98
-3.15 0.12 0.99
-3.12 0.13 1.00
-2.99 0.14 1.02
-2.54 0.15 1.12
-2.71 0.16 1.08
-2.62 0.17 1.10
-2.94 0.20 1.03
-3.19 0.22 0.98
-3.09 0.23 1.00
-3.04 0.24 1.01
-2.62 0.23 1.10
-4.19 0.22 1.23
-7.19 0.38 0.61
-7.46 0.41 0.56
-8.04 0.46 0.44
-7.08 0.43 0.63
-4.19 0.27 1.23
-6.88 0.45 0.67
-7.03 0.48 0.64
-7.05 0.50 0.64
-7.02 0.51 0.64
-4.72 0.37 1.12
-4.72 0.38 1.12
-4.79 0.40 1.10
-4.69 0.40 1.12
-5.15 0.45 1.03
-5.34 0.48 0.99
-5.02 0.47 1.05
-5.00 0.48 1.06
-5.07 0.50 1.04
-4.83 0.49 1.09
-6.00 0.61 0.85
-6.43 0.67 0.76
-5.06 0.55 1.04
-4.78 0.53 1.10
-4.87 0.56 1.08
-5.06 0.59 1.04
-5.10 0.61 1.03
-5.05 0.61 1.04
-5.20 0.64 1.01
-5.27 0.67 0.99
-5.33 0.69 0.98
-5.39 0.71 0.97
-4.87 0.67 1.07
-4.42 0.66 1.17
-4.91 0.74 1.06
-4.57 0.72 1.13
-4.48 0.73 1.15
-4.40 0.73 1.17
-4.46 0.75 1.15
-4.49 0.77 1.15
-4.34 0.76 1.18
-4.39 0.78 1.17
-4.42 0.80 1.16
-4.57 0.84 1.13
-2.88 0.66 1.48
-3.06 0.71 1.44
-3.19 0.76 1.41
-3.00 0.73 1.45
-3.19 0.78 1.41
-2.98 0.74 1.45
-2.98 0.75 1.45
-2.97 0.75 1.45
-2.93 0.76 1.46
-2.96 0.77 1.45
-2.97 0.79 1.45
-3.24 0.90 1.39
-2.86 0.82 1.47
-2.86 0.98 1.46
-1.49 -1.29 1.33
-1.20 -1.19 1.39
-1.15 -1.16 1.40
-1.35 -1.22 1.36
-1.55 -1.27 1.32
-1.45 -1.23 1.34
-1.35 -1.19 1.36
-1.64 -1.27 1.30
-1.41 -1.19 1.35
-1.57 -1.22 1.32
-1.40 -1.16 1.35
-1.63 -1.22 1.30
-1.55 -1.18 1.32
-1.61 -1.19 1.31
-1.58 -1.17 1.32
-1.48 -1.13 1.34
-1.76 -1.20 1.28
-1.40 -1.09 1.35
-1.70 -1.16 1.29
-1.61 -1.12 1.31
-1.51 -1.09 1.33
-1.47 -1.07 1.34
-1.57 -1.08 1.32
-1.69 -1.11 1.29
-1.66 -1.09 1.30
-1.79 -1.11 1.28
-1.97 -1.14 1.24
-2.07 -1.16 1.22
-1.83 -1.09 1.27
-1.80 -1.07 1.27
-2.03 -1.11 1.23
-1.86 -1.06 1.26
-1.75 -1.03 1.28
-1.83 -1.03 1.27
-1.86 -1.03 1.26
-1.93 -1.03 1.25
-1.80 -0.99 1.28
-1.96 -1.02 1.24
-2.19 -1.06 1.19
-2.04 -1.02 1.22
-2.05 -1.01 1.22
-2.08 -1.00 1.22
-2.23 -1.02 1.19
-2.26 -1.02 1.18
-2.26 -1.01 1.18
-2.30 -1.00 1.17
-2.47 -1.03 1.14
-2.42 -1.00 1.15
-2.41 -0.99 1.15
-2.49 -0.99 1.13
-2.36 -0.96 1.16
-2.87 -1.04 1.05
-2.47 -0.95 1.14
-2.45 -0.94 1.14
-2.45 -0.93 1.14
-2.43 -0.91 1.15
-2.56 -0.92 1.12
-2.53 -0.90 1.13
-2.51 -0.89 1.13
-2.60 -0.89 1.11
-2.46 -0.85 1.14
-2.55 -0.86 1.12
-2.48 -0.83 1.14
-2.36 -0.80 1.16
-2.44 -0.80 1.15
-2.49 -0.80 1.14
-2.33 -0.76 1.17
-2.45 -0.77 1.15
-2.61 -0.78 1.11
-2.70 -0.78 1.09
-2.76 -0.78 1.08
-2.75 -0.76 1.08
-2.83 -0.76 1.07
-2.79 -0.74 1.08
-2.78 -0.73 1.08
-2.73 -0.71 1.09
-2.82 -0.71 1.07
-2.58 -0.67 1.12
-2.34 -0.62 1.17
-2.63 -0.65 1.11
-2.72 -0.65 1.09
-2.04 -0.55 1.23
-2.95 -0.65 1.04
-2.03 -0.53 1.23
-2.57 -0.58 1.12
-2.35 -0.54 1.17
-4.14 -0.72 0.80
-2.24 -0.51 1.19
-1.98 -0.47 1.24
-4.01 -0.66 0.82
-3.68 -0.61 0.89
-4.16 -0.64 0.79
-3.95 -0.61 0.84
-4.34 -0.63 0.75
-4.32 -0.61 0.76
-1.67 -0.37 1.31
-1.61 -0.35 1.32
-5.14 -0.63 0.59
-5.01 -0.60 0.62
-3.07 -0.43 1.02
-5.07 -0.57 0.60
-4.93 -0.54 0.63
-4.97 -0.52 0.62
-5.07 -0.51 0.60
-5.16 -0.50 0.58
-5.30 -0.49 0.56
-4.96 -0.45 0.62
-5.05 -0.44 0.61
-5.05 -0.42 0.61
-5.15 -0.41 0.59
-5.03 -0.38 0.61
-5.06 -0.37 0.60
-4.94 -0.34 0.63
-2.89 -0.24 1.05
-2.75 -0.22 1.08
-5.03 -0.29 0.61
-2.84 -0.20 1.06
-2.97 -0.19 1.03
-2.72 -0.17 1.09
-4.74 -0.21 0.67
-4.87 -0.20 0.64
-4.78 -0.18 0.66
-2.56 -0.11 1.12
-4.92 -0.15 0.63
-4.83 -0.13 0.65
-2.83 -0.08 1.06
-3.00 -0.07 1.03
-2.97 -0.05 1.03
-3.42 -0.04 0.94
-3.43 -0.03 0.94
-3.60 -0.02 0.90
-7.49 -0.00 0.48
-7.42 0.02 0.49
-7.64 0.04 0.44
-7.35 0.07 0.51
-7.21 0.09 0.54
-7.01 0.11 0.58
-7.11 0.14 0.56
-7.13 0.16 0.55
-7.27 0.18 0.52
-7.16 0.22 0.54
-7.18 0.23 0.54
-7.20 0.25 0.53
-7.48 0.30 0.47
-6.97 0.30 0.58
-6.96 0.32 0.58
-7.15 0.36 0.54
-7.56 0.40 0.45
-4.73 0.27 1.06
-7.25 0.44 0.52
-6.78 0.43 0.62
-4.93 0.33 1.02
-4.86 0.35 1.03
-7.09 0.54 0.55
-6.11 0.50 0.76
-6.18 0.52 0.74
-5.75 0.50 0.84
-5.19 0.48 0.96
-5.64 0.54 0.86
-5.58 0.55 0.87
-5.21 0.54 0.95
-5.62 0.59 0.86
-5.27 0.57 0.94
-5.61 0.64 0.86
-5.66 0.66 0.85
-5.57 0.66 0.87
-5.29 0.66 0.93
-5.72 0.72 0.83
-4.87 0.64 1.02
-4.90 0.67 1.01
-5.10 0.70 0.97
-5.17 0.73 0.95
-4.71 0.69 1.05
-4.62 0.69 1.07
-4.69 0.72 1.05
-4.71 0.74 1.05
-4.44 0.72 1.11
-4.58 0.75 1.08
-4.46 0.76 1.10
-4.55 0.78 1.08
-4.65 0.81 1.06
-4.71 0.85 1.04
-4.73 0.86 1.04
-4.66 0.86 1.05
-4.67 0.89 1.05
-4.89 0.94 1.00
-4.79 0.94 1.02
-4.94 0.99 0.99
-4.91 1.00 0.99
-4.85 1.00 1.00
-4.89 1.03 0.99
-4.96 1.06 0.98
-5.13 1.11 0.94
-4.97 1.10 0.97
-4.96 1.12 0.97
-4.99 1.14 0.97
-4.83 1.13 1.00
-5.06 1.19 0.95
-3.14 0.79 1.37
-5.17 1.29 0.92
-5.32 1.37 0.88
-6.29 1.66 0.66
-6.35 1.69 0.65
-1.61 -1.15 1.26
-1.67 -1.16 1.25
-1.62 -1.14 1.26
-1.63 -1.13 1.26
-1.65 -1.12 1.26
-1.58 -1.09 1.27
-1.64 -1.10 1.26
-1.94 -1.17 1.19
-1.70 -1.10 1.24
-1.82 -1.11 1.22
-1.80 -1.10 1.22
-1.78 -1.08 1.23
-1.91 -1.11 1.20
-1.85 -1.08 1.21
-2.00 -1.10 1.18
-2.07 -1.11 1.16
-2.05 -1.09 1.17
-2.03 -1.08 1.17
-1.99 -1.06 1.18
-2.12 -1.08 1.16
-2.12 -1.06 1.16
-2.05 -1.04 1.17
-2.39 -1.10 1.10
-2.19 -1.05 1.14
-2.26 -1.05 1.13
-2.46 -1.08 1.08
-2.19 -1.01 1.14
-2.10 -0.98 1.16
-2.26 -1.00 1.13
-2.30 -1.00 1.12
-2.37 -1.00 1.10
-2.51 -1.02 1.07
-2.46 -1.00 1.08
-2.66 -1.02 1.04
-2.62 -1.00 1.05
-2.72 -1.01 1.03
-2.91 -1.03 0.99
-2.81 -1.00 1.01
-2.80 -0.98 1.01
-2.86 -0.98 1.00
-2.81 -0.96 1.01
-2.75 -0.93 1.02
-2.93 -0.95 0.98
-2.82 -0.92 1.01
-2.82 -0.91 1.01
-2.80 -0.89 1.01
-2.85 -0.89 1.00
-2.78 -0.86 1.02
-2.92 -0.87 0.99
-2.87 -0.85 1.00
-2.88 -0.84 1.00
-2.80 -0.81 1.01
-2.87 -0.81 1.00
-2.88 -0.80 1.00
-2.96 -0.80 0.98
-2.93 -0.78 0.99
-2.96 -0.77 0.98
-2.88 -0.75 1.00
-2.82 -0.73 1.01
-2.83 -0.72 1.01
-2.89 -0.71 0.99
-3.15 -0.73 0.94
-2.96 -0.69 0.98
-3.20 -0.71 0.93
-3.12 -0.68 0.95
-3.27 -0.69 0.91
-3.38 -0.69 0.89
-3.91 -0.73 0.77
-4.05 -0.73 0.74
-4.43 -0.76 0.66
-4.25 -0.72 0.70
-4.28 -0.71 0.69
-4.14 -0.68 0.73
-4.14 -0.66 0.72
-4.27 -0.66 0.70
-3.93 -0.61 0.77
-4.16 -0.61 0.72
-4.21 -0.60 0.71
-4.44 -0.61 0.66
-1.81 -0.37 1.23
-4.73 -0.60 0.60
-4.70 -0.58 0.60
-4.85 -0.57 0.57
-4.78 -0.55 0.59
-4.97 -0.54 0.55
-3.72 -0.44 0.82
-4.95 -0.51 0.55
-4.77 -0.48 0.59
-4.76 -0.46 0.59
-4.75 -0.44 0.59
-4.81 -0.43 0.58
-6.88 -0.40 0.61
-6.85 -0.38 0.62
-6.26 -0.32 0.75
-6.03 -0.29 0.79
-6.27 -0.29 0.74
-6.24 -0.25 0.75
-6.51 -0.25 0.69
-6.18 -0.22 0.76
-6.23 -0.19 0.75
-6.08 -0.17 0.78
-5.95 -0.15 0.81
-7.85 -0.14 0.40
-7.65 -0.04 0.44
-3.48 -0.00 0.81
-3.31 0.01 0.84
-3.21 0.02 0.87
-7.08 0.07 0.49
-7.21 0.09 0.47
-7.30 0.11 0.44
-7.23 0.12 0.46
-7.09 0.14 0.49
-7.14 0.16 0.48
-7.03 0.18 0.50
-7.00 0.19 0.51
-6.95 0.21 0.52
-6.99 0.23 0.51
-4.37 0.16 1.10
-4.21 0.16 1.14
-4.18 0.17 1.14
-4.21 0.19 1.14
-4.66 0.22 1.03
-4.42 0.22 1.09
-4.63 0.24 1.04
-4.57 0.25 1.05
-4.60 0.26 1.05
-4.56 0.27 1.05
-4.69 0.29 1.03
-4.56 0.30 1.05
-4.71 0.32 1.02
-4.89 0.34 0.98
-4.60 0.33 1.04
-4.93 0.37 0.97
-4.93 0.38 0.97
-5.35 0.43 0.87
-4.93 0.41 0.97
-4.86 0.42 0.98
-4.94 0.43 0.96
-5.21 0.47 0.90
-5.14 0.48 0.92
-4.99 0.48 0.95
-5.12 0.50 0.92
-5.22 0.52 0.90
-5.58 0.57 0.81
-5.28 0.56 0.88
-5.23 0.57 0.89
-5.03 0.56 0.94
-4.94 0.56 0.96
-5.17 0.60 0.91
-4.87 0.58 0.97
-4.68 0.57 1.02
-4.74 0.59 1.00
-4.78 0.61 0.99
-4.79 0.62 0.99
-4.80 0.64 0.99
-4.69 0.64 1.01
-4.55 0.63 1.04
-4.50 0.64 1.05
-4.45 0.64 1.06
-4.47 0.66 1.06
-4.42 0.66 1.07
-4.55 0.69 1.04
-4.46 0.69 1.06
-4.50 0.71 1.05
-4.51 0.72 1.05
-4.51 0.74 1.05
-4.64 0.77 1.01
-4.78 0.80 0.98
-4.69 0.80 1.00
-4.69 0.81 1.00
-4.45 0.79 1.06
-4.79 0.85 0.98
-4.58 0.83 1.02
-4.53 0.84 1.03
-4.50 0.85 1.04
-4.60 0.87 1.02
-4.48 0.87 1.04
-4.56 0.89 1.03
-4.62 0.91 1.01
-4.61 0.93 1.01
-4.76 0.97 0.98
-4.65 0.96 1.00
-4.68 0.98 0.99
-4.78 1.01 0.97
-3.15 0.71 1.34
-1.06 -1.69 1.32
-2.05 -1.00 1.13
-1.85 -0.95 1.18
-1.92 -0.95 1.16
-1.92 -0.94 1.16
-2.08 -0.96 1.12
-2.08 -0.95 1.12
-2.06 -0.93 1.13
-2.13 -0.94 1.11
-1.99 -0.90 1.15
-2.17 -0.92 1.11
-2.26 -0.93 1.08
