# .PCD v0.7 - Point Cloud Data file format
VERSION 0.7
FIELDS x y z
SIZE 4 4 4
TYPE F F F
COUNT 1 1 1
WIDTH 2868
HEIGHT 1
VIEWPOINT 0 0 0 1 0 0 0
POINTS 2868
DATA ASCII
-2.06 -0.85 1.70
-4.38 -1.26 1.45
-3.34 -1.06 1.56
-3.48 -1.07 1.54
-3.26 -1.01 1.57
-3.08 -0.97 1.59
-3.65 -1.05 1.53
-3.11 -0.95 1.58
-5.01 -1.25 1.38
-2.20 -0.77 1.68
-4.95 -1.20 1.39
-1.68 -0.67 1.74
-4.88 -1.15 1.40
-5.17 -1.18 1.37
-5.10 -1.15 1.37
-3.68 -0.92 1.52
-5.06 -1.11 1.38
-5.05 -1.09 1.38
-5.14 -1.08 1.37
-5.25 -1.08 1.36
-5.46 -1.09 1.34
-5.46 -1.07 1.34
-5.40 -1.04 1.34
-5.42 -1.02 1.34
-5.23 -0.98 1.36
-5.18 -0.96 1.37
-5.25 -0.94 1.36
-5.26 -0.93 1.36
-5.06 -0.89 1.38
-5.08 -0.87 1.38
-4.98 -0.84 1.39
-5.07 -0.83 1.38
-5.08 -0.82 1.38
-4.96 -0.78 1.39
-4.95 -0.76 1.39
-4.98 -0.75 1.39
-4.95 -0.73 1.39
-4.78 -0.69 1.41
-4.63 -0.66 1.42
-4.99 -0.68 1.39
-7.46 -0.88 1.12
-4.54 -0.60 1.43
-4.64 -0.59 1.42
-4.52 -0.57 1.43
-5.11 -0.60 1.37
-2.11 -0.35 1.69
-4.92 -0.55 1.39
-7.13 -0.68 1.16
-7.12 -0.66 1.16
-4.66 -0.48 1.42
-7.10 -0.61 1.16
-6.82 -0.57 1.19
-6.87 -0.55 1.19
-6.86 -0.53 1.19
-4.75 -0.39 1.41
-6.63 -0.47 1.21
-6.50 -0.44 1.22
-6.59 -0.43 1.21
-4.57 -0.32 1.43
-6.42 -0.38 1.23
-6.55 -0.36 1.22
-6.32 -0.33 1.24
-7.90 -0.30 1.29
-8.00 -0.28 1.28
-8.34 -0.27 1.25
-7.33 -0.22 1.36
-7.80 -0.21 1.30
-8.70 -0.22 1.21
-7.30 -0.16 1.36
-6.99 -0.11 1.39
-6.96 -0.09 1.39
-6.62 -0.07 1.43
-6.88 -0.05 1.40
-7.04 -0.04 1.38
-6.95 -0.02 1.39
-5.89 0.05 1.23
-5.46 0.08 1.28
-5.87 0.15 1.23
-5.53 0.24 1.27
-6.41 0.35 1.17
-6.56 0.38 1.15
-6.18 0.39 1.19
-6.10 0.40 1.20
-2.26 -1.31 1.64
-1.51 -1.03 1.73
-1.91 -1.01 1.68
-2.01 -1.02 1.67
-1.75 -0.94 1.70
-2.14 -1.00 1.66
-1.67 -0.88 1.71
-1.76 -0.88 1.70
-1.75 -0.87 1.70
-1.82 -0.88 1.69
-1.98 -0.90 1.68
-1.62 -0.82 1.72
-1.61 -0.80 1.72
-1.76 -0.82 1.70
-1.79 -0.82 1.70
-1.76 -0.80 1.70
-1.72 -0.78 1.71
-1.62 -0.76 1.72
-1.69 -0.76 1.71
-1.76 -0.76 1.70
-1.83 -0.76 1.69
-2.12 -0.80 1.66
-1.55 -0.69 1.72
-1.67 -0.70 1.71
-1.75 -0.70 1.70
-1.55 -0.65 1.73
-5.41 -1.06 1.29
-5.36 -1.01 1.30
-5.18 -0.97 1.32
-5.57 -1.00 1.27
-5.06 -0.90 1.33
-5.09 -0.89 1.33
-5.09 -0.76 1.33
-5.26 -0.74 1.31
-7.42 -0.75 1.07
-7.58 -0.69 1.05
-7.10 -0.61 1.10
-12.46 -0.92 0.50
-7.04 -0.56 1.11
-7.02 -0.49 1.11
-6.85 -0.46 1.13
-6.77 -0.44 1.14
-6.61 -0.41 1.15
-6.44 -0.38 1.17
-6.55 -0.36 1.16
-6.25 -0.29 1.19
-6.35 -0.27 1.18
-6.15 -0.24 1.20
-6.25 -0.22 1.19
-6.05 -0.20 1.22
-6.00 -0.17 1.22
-5.91 -0.15 1.23
-5.85 -0.13 1.24
-5.74 -0.11 1.25
-5.88 -0.09 1.23
-5.80 -0.07 1.24
-5.37 -0.05 1.29
-6.54 -0.00 1.34
-6.86 0.02 1.30
-7.00 0.05 1.29
-8.27 0.33 1.13
-8.00 0.42 1.16
-10.12 1.29 0.89
-1.53 -1.23 1.69
-2.12 -1.38 1.62
-2.14 -1.38 1.62
-2.26 -1.23 1.60
-2.49 -1.28 1.58
-2.45 -1.26 1.58
-2.28 -1.20 1.60
-2.37 -1.21 1.59
-1.97 -1.06 1.64
-2.51 -1.17 1.58
-2.44 -1.14 1.58
-2.33 -1.11 1.60
-2.16 -1.04 1.62
-1.80 -0.93 1.66
-2.00 -0.96 1.64
-1.82 -0.91 1.66
-1.83 -0.91 1.66
-1.71 -0.87 1.67
-1.57 -0.83 1.69
-1.91 -0.89 1.65
-1.70 -0.84 1.67
-1.78 -0.84 1.66
-1.88 -0.85 1.65
-2.06 -0.86 1.63
-2.15 -0.87 1.62
-1.89 -0.81 1.65
-2.83 -0.97 1.54
-2.04 -0.81 1.63
-1.99 -0.80 1.64
-2.02 -0.79 1.64
-1.88 -0.75 1.65
-1.81 -0.73 1.66
-1.57 -0.68 1.69
-1.60 -0.68 1.69
-1.56 -0.66 1.69
-1.46 -0.63 1.70
-1.52 -0.64 1.70
-1.59 -0.63 1.69
-1.57 -0.62 1.69
-5.47 -1.03 1.23
-5.21 -0.96 1.26
-5.31 -0.95 1.24
-5.21 -0.90 1.26
-5.11 -0.87 1.27
-5.06 -0.85 1.27
-4.97 -0.82 1.28
-5.20 -0.79 1.26
-4.98 -0.71 1.28
-6.13 -0.68 1.15
-12.68 -1.00 0.37
-6.95 -0.56 1.05
-6.97 -0.54 1.05
-7.71 -0.45 1.21
-7.79 -0.37 1.20
-7.70 -0.21 1.21
-6.63 -0.15 1.33
-6.80 -0.05 1.31
-6.81 -0.02 1.31
-5.41 0.01 1.17
-5.65 0.03 1.14
-6.87 0.05 1.26
-6.98 0.07 1.24
-7.04 0.09 1.23
-7.37 0.11 1.19
-5.10 0.10 1.48
-6.60 0.15 1.29
-6.75 0.22 1.27
-5.27 0.20 1.46
-7.90 0.32 1.12
-5.27 0.23 1.46
-4.99 0.23 1.49
-5.14 0.26 1.47
-5.14 0.28 1.47
-5.48 0.32 1.43
-5.64 0.34 1.41
-6.07 0.39 1.35
-5.52 0.38 1.42
-5.85 0.42 1.38
-6.07 0.45 1.35
-6.11 0.48 1.34
-6.17 0.50 1.34
-6.49 0.58 1.29
-6.66 0.64 1.27
-6.51 0.64 1.29
-6.72 0.70 1.26
-4.12 0.60 1.59
-4.02 0.64 1.60
-1.78 -1.46 1.63
-1.53 -1.37 1.66
-1.60 -1.38 1.65
-2.05 -1.45 1.59
-2.10 -1.44 1.59
-2.13 -1.43 1.58
-2.05 -1.38 1.60
-3.11 -1.67 1.46
-2.72 -1.54 1.51
-2.26 -1.40 1.57
-2.00 -1.27 1.60
-2.22 -1.31 1.58
-2.67 -1.42 1.52
-2.24 -1.29 1.57
-2.45 -1.34 1.55
-2.44 -1.32 1.55
-2.56 -1.34 1.53
-2.36 -1.28 1.56
-2.56 -1.32 1.53
-2.45 -1.28 1.55
-2.69 -1.32 1.52
-2.61 -1.29 1.53
-2.62 -1.28 1.53
-2.73 -1.29 1.51
-2.77 -1.29 1.51
-2.70 -1.26 1.52
-2.48 -1.20 1.55
-2.52 -1.19 1.54
-2.60 -1.20 1.53
-2.86 -1.25 1.50
-2.32 -1.11 1.57
-2.26 -1.08 1.57
-2.48 -1.12 1.55
-2.36 -1.08 1.56
-2.27 -1.05 1.57
-2.35 -1.06 1.56
-3.02 -1.19 1.48
-1.94 -0.95 1.62
-2.04 -0.96 1.60
-2.13 -0.96 1.59
-1.91 -0.91 1.62
-1.99 -0.91 1.61
-2.02 -0.91 1.61
-2.47 -0.99 1.55
-2.64 -1.00 1.53
-2.33 -0.93 1.57
-2.28 -0.91 1.57
-2.59 -0.96 1.53
-2.50 -0.93 1.54
-2.64 -0.94 1.53
-2.45 -0.90 1.55
-1.83 -0.77 1.63
-2.55 -0.89 1.54
-1.94 -0.77 1.62
-1.90 -0.76 1.62
-2.02 -0.76 1.61
-1.74 -0.71 1.64
-1.83 -0.71 1.63
-1.62 -0.67 1.66
-1.59 -0.65 1.66
-1.54 -0.63 1.67
-1.91 -0.68 1.62
-4.31 -1.03 1.32
-1.40 -0.58 1.68
-4.66 -1.05 1.27
-4.99 -1.04 1.23
-1.45 -0.54 1.68
-4.97 -1.00 1.23
-4.96 -0.98 1.24
-5.06 -0.98 1.22
-5.21 -0.98 1.20
-5.14 -0.95 1.21
-5.04 -0.92 1.23
-4.95 -0.89 1.24
-4.99 -0.88 1.23
-4.89 -0.85 1.24
-4.90 -0.83 1.24
-5.02 -0.83 1.23
-4.92 -0.80 1.24
-4.97 -0.78 1.24
-5.03 -0.77 1.23
-4.94 -0.75 1.24
-5.05 -0.74 1.22
-5.26 -0.74 1.20
-5.27 -0.72 1.20
-4.94 -0.67 1.24
-4.85 -0.65 1.25
-5.10 -0.65 1.22
-4.99 -0.62 1.23
-5.28 -0.63 1.20
-5.82 -0.65 1.13
-5.44 -0.60 1.18
-5.90 -0.62 1.12
-6.16 -0.62 1.08
-6.05 -0.59 1.10
-6.39 -0.59 1.06
-6.76 -0.59 1.01
-6.78 -0.57 1.01
-6.77 -0.55 1.01
-6.69 -0.52 1.02
-6.70 -0.50 1.02
-6.70 -0.48 1.02
-1.44 -0.20 1.68
-6.73 -0.43 1.01
-6.60 -0.41 1.03
-6.74 -0.39 1.01
-6.48 -0.36 1.04
-6.40 -0.33 1.05
-6.22 -0.31 1.07
-6.22 -0.29 1.07
-6.27 -0.27 1.07
-6.22 -0.24 1.07
-6.34 -0.23 1.06
-5.96 -0.20 1.11
-5.69 -0.17 1.14
-5.86 -0.15 1.12
-5.60 -0.13 1.15
-5.62 -0.11 1.15
-4.89 -0.08 1.24
-5.90 -0.07 1.11
-4.48 -0.04 1.29
-4.51 -0.03 1.29
-5.01 -0.01 1.22
-6.68 -0.00 1.23
-6.64 0.02 1.23
-6.80 0.03 1.21
-6.87 0.05 1.20
-6.82 0.07 1.21
-7.02 0.09 1.18
-7.11 0.11 1.17
-7.13 0.12 1.17
-7.35 0.15 1.14
-7.01 0.16 1.18
-7.17 0.18 1.16
-7.10 0.21 1.17
-5.25 0.17 1.42
-7.88 0.27 1.06
-7.69 0.29 1.09
-6.67 0.27 1.22
-5.02 0.22 1.45
-7.66 0.34 1.09
-7.85 0.37 1.07
-7.87 0.39 1.06
-5.96 0.32 1.32
-5.63 0.32 1.36
-6.02 0.35 1.31
-5.92 0.36 1.32
-5.90 0.38 1.33
-5.89 0.39 1.33
-5.61 0.39 1.37
-6.08 0.43 1.30
-6.03 0.44 1.31
-6.12 0.47 1.29
-6.31 0.50 1.27
-6.24 0.51 1.28
-6.47 0.56 1.25
-6.62 0.59 1.23
-6.55 0.60 1.23
-6.53 0.61 1.24
-6.51 0.63 1.24
-6.78 0.67 1.20
-6.70 0.68 1.21
-6.65 0.69 1.22
-6.77 0.72 1.20
-6.82 0.74 1.19
-6.95 0.77 1.18
-7.44 0.84 1.11
-7.32 0.87 1.12
-5.40 0.67 1.39
-5.14 0.68 1.42
-4.65 0.63 1.49
-4.95 0.70 1.44
-4.40 0.64 1.52
-4.48 0.66 1.51
-5.00 0.76 1.44
-2.70 -1.66 1.47
-2.04 -1.44 1.56
-2.13 -1.45 1.55
-2.39 -1.51 1.51
-2.17 -1.43 1.54
-2.17 -1.41 1.54
-2.83 -1.59 1.46
-3.40 -1.68 1.38
-2.59 -1.44 1.49
-3.19 -1.60 1.41
-2.85 -1.49 1.45
-3.04 -1.53 1.43
-2.63 -1.40 1.48
-2.84 -1.44 1.46
-2.72 -1.40 1.47
-2.66 -1.37 1.48
-2.66 -1.36 1.48
-2.48 -1.30 1.51
-2.86 -1.38 1.46
-2.81 -1.36 1.46
-2.90 -1.37 1.45
-2.85 -1.34 1.46
-2.82 -1.32 1.46
-2.82 -1.31 1.46
-2.76 -1.28 1.47
-2.71 -1.25 1.48
-2.76 -1.25 1.47
-2.69 -1.22 1.48
-2.85 -1.25 1.46
-2.99 -1.27 1.44
-2.65 -1.17 1.49
-3.79 -1.42 1.33
-3.71 -1.38 1.34
-3.89 -1.41 1.32
-3.82 -1.38 1.33
-3.98 -1.39 1.31
-2.46 -1.06 1.51
-3.11 -1.18 1.42
-2.52 -1.05 1.50
-2.63 -1.06 1.49
-2.35 -0.99 1.53
-2.56 -1.02 1.50
-2.47 -0.99 1.51
-2.16 -0.91 1.55
-2.70 -1.01 1.48
-2.74 -1.00 1.48
-2.84 -1.01 1.46
-3.57 -1.13 1.36
-2.79 -0.97 1.47
-3.82 -1.14 1.33
-4.20 -1.19 1.28
-4.30 -1.20 1.27
-4.18 -1.16 1.28
-3.85 -1.09 1.33
-3.94 -1.09 1.32
-3.55 -1.01 1.37
-3.12 -0.92 1.43
-4.28 -1.09 1.27
-4.32 -1.08 1.27
-4.45 -1.09 1.25
-4.41 -1.06 1.25
-4.43 -1.05 1.25
-4.26 -1.01 1.27
-4.64 -1.05 1.22
-4.45 -1.00 1.25
-4.64 -1.01 1.22
-4.56 -0.98 1.23
-4.64 -0.98 1.22
-4.71 -0.97 1.21
-4.81 -0.96 1.20
-4.83 -0.95 1.20
-4.74 -0.92 1.21
-4.83 -0.91 1.20
-5.15 -0.93 1.16
-4.92 -0.89 1.19
-4.90 -0.87 1.19
-4.89 -0.85 1.19
-4.86 -0.83 1.19
-4.74 -0.80 1.21
-4.81 -0.79 1.20
-4.74 -0.76 1.21
-4.79 -0.75 1.20
-4.77 -0.73 1.21
-4.85 -0.72 1.20
-5.09 -0.72 1.16
-4.87 -0.69 1.19
-5.21 -0.70 1.15
-5.14 -0.67 1.16
-4.93 -0.64 1.18
-5.04 -0.63 1.17
-5.14 -0.62 1.16
-4.98 -0.59 1.18
-5.07 -0.58 1.17
-5.26 -0.57 1.14
-6.13 -0.62 1.02
-6.01 -0.59 1.04
-6.20 -0.58 1.02
-6.46 -0.57 0.98
-6.49 -0.55 0.98
-6.55 -0.54 0.97
-6.63 -0.52 0.96
-6.62 -0.50 0.96
-6.84 -0.49 0.93
-5.02 -0.37 1.17
-4.70 -0.34 1.21
-6.61 -0.41 0.96
-6.75 -0.39 0.94
-6.39 -0.36 0.99
-6.58 -0.34 0.96
-6.40 -0.31 0.99
-6.16 -0.28 1.02
-6.21 -0.26 1.01
-6.18 -0.24 1.01
-6.36 -0.23 0.99
-6.30 -0.20 1.00
-6.14 -0.18 1.02
-6.17 -0.16 1.02
-5.88 -0.13 1.05
-7.19 -0.11 1.16
-6.96 -0.09 1.19
-6.85 -0.07 1.21
-6.90 -0.05 1.20
-6.79 -0.04 1.21
-6.81 -0.02 1.21
-4.09 0.01 1.24
-3.88 0.02 1.27
-1.37 0.02 1.63
-3.96 0.05 1.26
-4.01 0.07 1.25
-3.82 0.08 1.28
-3.82 0.10 1.28
-3.65 0.11 1.30
-3.82 0.13 1.28
-4.01 0.15 1.25
-4.13 0.17 1.23
-7.30 0.20 1.09
-7.20 0.22 1.10
-4.70 0.16 1.46
-7.01 0.26 1.13
-6.85 0.27 1.15
-6.89 0.33 1.14
-6.59 0.35 1.19
-5.93 0.33 1.28
-6.12 0.36 1.25
-5.82 0.35 1.29
-6.02 0.38 1.27
-5.88 0.39 1.28
-5.62 0.39 1.32
-5.55 0.40 1.33
-5.93 0.44 1.28
-5.97 0.49 1.27
-6.50 0.56 1.19
-6.46 0.57 1.20
-7.08 0.68 1.11
-6.93 0.70 1.13
-6.90 0.73 1.13
-7.06 0.78 1.11
-7.16 0.85 1.09
-7.36 0.89 1.06
-7.40 0.92 1.06
-7.53 0.99 1.04
-4.92 1.55 1.37
-1.54 -1.61 1.59
-1.53 -1.50 1.60
-1.60 -1.32 1.59
-2.48 -1.45 1.47
-3.14 -1.62 1.37
-2.44 -1.41 1.47
-2.69 -1.47 1.44
-2.75 -1.47 1.43
-2.07 -1.27 1.53
-2.41 -1.35 1.48
-2.36 -1.33 1.49
-2.42 -1.33 1.48
-2.37 -1.30 1.49
-2.34 -1.28 1.49
-2.31 -1.26 1.49
-2.29 -1.25 1.50
-2.33 -1.24 1.49
-2.48 -1.27 1.47
-2.47 -1.25 1.47
-2.55 -1.26 1.46
-2.37 -1.21 1.49
-2.57 -1.24 1.46
-2.62 -1.24 1.45
-2.65 -1.24 1.45
-2.45 -1.18 1.48
-2.48 -1.17 1.47
-2.58 -1.18 1.46
-2.24 -1.09 1.51
-2.49 -1.14 1.47
-2.33 -1.09 1.49
-2.30 -1.07 1.50
-2.15 -1.02 1.52
-1.97 -0.97 1.55
-1.87 -0.94 1.56
-2.13 -0.99 1.52
-2.41 -1.03 1.48
-2.23 -0.98 1.51
-2.34 -1.00 1.49
-1.94 -0.90 1.55
-2.17 -0.94 1.52
-1.98 -0.89 1.55
-2.02 -0.89 1.54
-2.18 -0.90 1.52
-2.03 -0.86 1.54
-2.10 -0.87 1.53
-2.76 -0.98 1.44
-3.50 -1.10 1.33
-2.58 -0.92 1.46
-2.26 -0.85 1.51
-2.43 -0.87 1.48
-3.44 -1.03 1.34
-1.89 -0.75 1.56
-1.76 -0.72 1.58
-1.95 -0.74 1.55
-1.87 -0.72 1.56
-1.83 -0.70 1.57
-1.83 -0.69 1.57
-1.78 -0.67 1.57
-1.84 -0.67 1.57
-1.64 -0.63 1.59
-4.28 -1.01 1.22
-4.06 -0.96 1.25
-4.40 -0.99 1.21
-4.21 -0.95 1.23
-4.42 -0.96 1.20
-4.51 -0.96 1.19
-4.52 -0.94 1.19
-4.66 -0.94 1.17
-4.68 -0.93 1.17
-4.68 -0.91 1.17
-4.75 -0.90 1.16
-4.99 -0.91 1.12
-4.85 -0.88 1.14
-4.68 -0.84 1.17
-4.82 -0.84 1.15
-4.76 -0.82 1.16
-4.71 -0.79 1.16
-4.51 -0.75 1.19
-4.72 -0.76 1.16
-4.57 -0.73 1.18
-4.78 -0.73 1.15
-4.85 -0.72 1.14
-4.97 -0.71 1.13
-4.99 -0.70 1.12
-5.16 -0.69 1.10
-5.12 -0.67 1.11
-5.07 -0.65 1.11
-5.19 -0.64 1.09
-5.05 -0.61 1.11
-5.40 -0.62 1.07
-5.12 -0.58 1.10
-5.02 -0.55 1.12
-4.90 -0.53 1.14
-4.90 -0.51 1.14
-6.22 -0.58 0.95
-6.83 -0.60 0.86
-6.42 -0.55 0.92
-6.27 -0.52 0.94
-6.57 -0.52 0.90
-6.11 -0.47 0.97
-6.01 -0.44 0.98
-5.04 -0.37 1.12
-5.62 -0.38 1.03
-6.51 -0.40 0.91
-7.00 -0.40 0.84
-6.72 -0.37 0.88
-6.31 -0.33 0.94
-6.39 -0.31 0.92
-6.23 -0.29 0.95
-6.08 -0.26 0.97
-6.23 -0.24 0.95
-6.14 -0.22 0.96
-6.24 -0.20 0.94
-6.42 -0.19 0.92
-6.12 -0.16 0.96
-6.15 -0.14 0.96
-4.29 -0.09 1.22
-4.16 -0.07 1.24
-3.88 -0.06 1.27
-6.08 -0.06 0.96
-6.07 -0.03 0.97
-4.06 -0.01 1.25
-6.60 -0.00 1.13
-6.90 0.02 1.09
-6.36 0.03 1.17
-6.49 0.05 1.15
-6.53 0.06 1.14
-6.36 0.08 1.17
-6.62 0.10 1.13
-6.34 0.11 1.17
-6.63 0.13 1.13
-6.68 0.15 1.12
-6.66 0.17 1.12
-6.70 0.18 1.12
-6.52 0.20 1.14
-6.56 0.21 1.13
-6.55 0.23 1.14
-6.51 0.25 1.14
-6.60 0.27 1.13
-6.36 0.27 1.16
-6.26 0.28 1.18
-6.06 0.29 1.21
-6.17 0.31 1.19
-5.94 0.32 1.23
-6.05 0.34 1.21
-6.04 0.35 1.21
-5.84 0.36 1.24
-5.85 0.37 1.24
-5.92 0.39 1.23
-5.86 0.40 1.23
-6.04 0.43 1.21
-6.20 0.46 1.18
-6.11 0.47 1.20
-6.14 0.48 1.19
-6.25 0.51 1.18
-6.16 0.52 1.19
-6.35 0.55 1.16
-6.20 0.55 1.18
-6.57 0.60 1.13
-6.40 0.60 1.15
-6.68 0.64 1.11
-6.64 0.66 1.11
-6.66 0.68 1.11
-6.84 0.71 1.08
-6.74 0.72 1.10
-6.84 0.75 1.08
-6.87 0.77 1.08
-6.72 0.77 1.10
-6.79 0.79 1.09
-6.91 0.82 1.07
-8.23 1.20 0.86
-7.78 1.18 0.93
-5.62 1.04 1.25
-5.75 1.09 1.23
-5.69 1.13 1.24
-5.68 1.14 1.24
-5.73 1.16 1.23
-5.63 1.16 1.24
-5.38 1.17 1.28
-5.48 1.22 1.26
-5.36 1.21 1.28
-5.40 1.23 1.27
-5.30 1.23 1.29
-5.21 1.25 1.30
-5.33 1.31 1.28
-5.40 1.46 1.26
-5.96 1.66 1.17
-6.00 1.69 1.17
-5.88 1.69 1.18
-3.06 -1.63 1.34
-3.27 -1.66 1.31
-3.23 -1.62 1.31
-3.24 -1.61 1.31
-2.54 -1.40 1.42
-2.47 -1.37 1.43
-2.46 -1.36 1.43
-2.47 -1.35 1.43
-2.34 -1.30 1.45
-2.59 -1.35 1.41
-2.43 -1.30 1.43
-2.63 -1.34 1.40
-2.48 -1.29 1.43
-2.65 -1.32 1.40
-2.51 -1.27 1.42
-2.71 -1.31 1.39
-2.75 -1.30 1.39
-2.60 -1.25 1.41
-2.61 -1.24 1.41
-2.74 -1.26 1.39
-2.86 -1.28 1.37
-2.78 -1.25 1.38
-2.65 -1.20 1.40
-2.70 -1.20 1.40
-2.48 -1.14 1.43
-2.58 -1.15 1.42
-2.56 -1.13 1.42
-2.39 -1.08 1.44
-2.42 -1.08 1.44
-2.45 -1.07 1.44
-2.70 -1.11 1.40
-2.73 -1.10 1.39
-3.84 -1.32 1.23
-3.72 -1.28 1.25
-3.42 -1.20 1.29
-3.37 -1.18 1.30
-3.05 -1.10 1.35
-3.25 -1.13 1.32
-3.60 -1.18 1.27
-3.50 -1.15 1.28
-2.84 -1.01 1.38
-3.73 -1.16 1.25
-3.42 -1.09 1.29
-3.19 -1.03 1.33
-3.62 -1.09 1.26
-3.73 -1.10 1.25
-3.94 -1.12 1.22
-3.80 -1.08 1.24
-3.74 -1.05 1.25
-3.71 -1.03 1.25
-3.63 -1.01 1.26
-3.48 -0.97 1.28
-3.55 -0.96 1.27
-3.50 -0.94 1.28
-3.49 -0.93 1.28
-3.68 -0.94 1.26
-3.91 -0.96 1.22
-3.88 -0.94 1.23
-3.96 -0.93 1.21
-3.98 -0.92 1.21
-4.04 -0.91 1.20
-4.14 -0.91 1.19
-4.22 -0.91 1.18
-4.31 -0.90 1.16
-4.56 -0.92 1.13
-4.57 -0.90 1.12
-4.81 -0.91 1.09
-4.75 -0.89 1.10
-4.80 -0.88 1.09
-4.73 -0.85 1.10
-4.75 -0.83 1.10
-4.74 -0.82 1.10
-4.68 -0.77 1.11
-4.63 -0.75 1.12
-4.67 -0.74 1.11
-4.74 -0.73 1.10
-4.88 -0.72 1.08
-4.84 -0.70 1.08
-4.79 -0.68 1.09
-4.73 -0.66 1.10
-5.12 -0.67 1.04
-5.12 -0.66 1.04
-5.13 -0.64 1.04
-5.14 -0.62 1.04
-4.92 -0.58 1.07
-4.97 -0.57 1.06
-4.69 -0.53 1.11
-4.87 -0.51 1.08
-4.83 -0.47 1.09
-4.86 -0.46 1.08
-4.85 -0.44 1.08
-5.15 -0.44 1.04
-5.11 -0.42 1.04
-5.29 -0.41 1.02
-5.37 -0.39 1.00
-5.13 -0.36 1.04
-4.85 -0.33 1.08
-4.94 -0.32 1.07
-4.98 -0.30 1.06
-7.01 -0.36 0.76
-4.55 -0.25 1.12
-8.76 -0.31 0.81
-7.12 -0.23 1.06
-6.97 -0.21 1.08
-7.06 -0.20 1.07
-7.08 -0.18 1.06
-6.95 -0.16 1.08
-6.90 -0.14 1.09
-6.73 -0.12 1.12
-6.62 -0.10 1.13
-6.74 -0.09 1.11
-6.77 -0.07 1.11
-6.71 -0.05 1.12
-6.66 -0.04 1.12
-6.64 -0.02 1.13
-6.53 0.03 0.76
-3.77 0.05 1.19
-5.97 0.09 0.85
-5.73 0.12 0.89
-5.91 0.15 0.86
-4.10 0.13 1.14
-5.83 0.19 0.87
-5.77 0.22 0.88
-5.59 0.28 1.24
-5.46 0.29 1.26
-5.09 0.29 1.32
-5.69 0.33 1.22
-5.45 0.33 1.26
-5.72 0.36 1.22
-5.55 0.37 1.24
-5.85 0.43 1.19
-5.49 0.46 1.25
-6.15 0.53 1.15
-1.35 -1.43 1.56
-1.59 -1.27 1.53
-1.58 -1.24 1.53
-1.55 -1.23 1.54
-1.16 -1.10 1.60
-2.08 -1.33 1.45
-1.99 -1.27 1.47
-2.08 -1.27 1.46
-2.22 -1.30 1.43
-2.10 -1.24 1.45
-2.10 -1.22 1.45
-2.11 -1.20 1.45
-1.97 -1.15 1.48
-1.95 -1.13 1.48
-2.27 -1.19 1.43
-2.10 -1.13 1.46
-2.35 -1.18 1.42
-2.17 -1.12 1.45
-2.30 -1.14 1.42
-2.11 -1.08 1.45
-2.27 -1.10 1.43
-2.24 -1.07 1.44
-2.10 -1.02 1.46
-2.26 -1.05 1.43
-2.35 -1.05 1.42
-2.33 -1.04 1.42
-2.35 -1.02 1.42
-1.72 -0.87 1.52
-2.50 -1.01 1.40
-2.68 -1.04 1.37
-2.42 -0.97 1.41
-1.73 -0.83 1.52
-1.86 -0.83 1.50
-1.80 -0.80 1.51
-1.95 -0.82 1.48
-1.86 -0.79 1.50
-1.84 -0.76 1.50
-1.76 -0.73 1.51
-1.65 -0.69 1.53
-1.86 -0.72 1.50
-1.70 -0.67 1.52
-1.66 -0.65 1.53
-1.66 -0.64 1.53
-1.65 -0.63 1.53
-1.75 -0.62 1.51
-1.78 -0.62 1.51
-2.93 -0.77 1.33
-1.35 -0.54 1.58
-2.11 -0.63 1.46
-4.54 -0.93 1.08
-4.94 -0.94 1.02
-4.75 -0.90 1.05
-5.04 -0.90 1.00
-4.79 -0.85 1.04
-4.65 -0.80 1.06
-4.89 -0.79 1.03
-4.87 -0.76 1.03
-4.73 -0.73 1.05
-4.90 -0.72 1.03
-5.06 -0.70 1.00
-4.86 -0.65 1.03
-5.27 -0.65 0.97
-5.66 -0.48 0.91
-6.77 -0.46 0.73
-6.83 -0.42 0.72
-6.72 -0.39 0.74
-7.63 -0.38 0.60
-7.27 -0.35 0.65
-6.49 -0.25 0.77
-6.45 -0.17 0.78
-6.53 -0.15 0.77
-6.62 -0.10 0.75
-3.90 -0.06 1.17
-6.32 -0.06 0.80
-6.78 -0.04 0.73
-6.62 -0.02 0.75
-6.55 -0.00 1.03
-6.55 0.01 1.03
-6.38 0.03 1.06
-6.43 0.05 1.05
-6.24 0.06 1.08
-6.36 0.08 1.06
-6.11 0.09 1.10
-6.13 0.11 1.10
-6.06 0.12 1.11
-6.04 0.14 1.11
-5.87 0.15 1.14
-6.13 0.17 1.10
-6.10 0.18 1.10
-6.12 0.20 1.10
-6.06 0.21 1.11
-6.06 0.23 1.11
-6.12 0.25 1.10
-6.19 0.27 1.09
-5.92 0.27 1.13
-5.49 0.27 1.20
-5.81 0.30 1.15
-6.01 0.32 1.11
-6.05 0.34 1.11
-6.02 0.35 1.11
-5.93 0.36 1.13
-5.90 0.37 1.13
-6.01 0.40 1.11
-6.03 0.41 1.11
-6.20 0.44 1.08
-6.13 0.45 1.09
-6.47 0.49 1.04
-6.34 0.50 1.06
-6.17 0.50 1.08
-6.21 0.52 1.08
-6.27 0.54 1.07
-6.52 0.58 1.02
-6.11 0.56 1.09
-5.86 0.55 1.13
-6.18 0.60 1.08
-6.31 0.63 1.06
-6.47 0.66 1.03
-6.22 0.65 1.07
-6.46 0.69 1.03
-6.77 0.74 0.98
-6.67 0.75 1.00
-6.44 0.74 1.03
-3.81 0.47 1.47
-6.71 0.80 0.99
-6.63 0.81 1.00
-6.61 0.82 1.00
-6.65 0.85 1.00
-6.76 0.88 0.98
-6.90 0.91 0.95
-7.07 0.95 0.92
-6.95 0.95 0.94
-6.78 0.95 0.97
-5.58 1.17 1.16
-5.65 1.20 1.14
-5.71 1.22 1.13
-5.79 1.36 1.11
-5.43 1.50 1.16
-1.85 -1.57 1.44
-1.82 -1.46 1.45
-1.75 -1.41 1.46
-1.74 -1.37 1.46
-1.82 -1.38 1.45
-1.92 -1.39 1.43
-1.97 -1.40 1.43
-2.26 -1.48 1.38
-2.27 -1.47 1.38
-2.46 -1.51 1.35
-2.84 -1.61 1.28
-3.06 -1.66 1.25
-3.06 -1.62 1.25
-2.57 -1.47 1.33
-2.28 -1.37 1.38
-2.27 -1.36 1.38
-2.53 -1.42 1.34
-2.33 -1.35 1.37
-2.08 -1.27 1.41
-2.21 -1.29 1.39
-2.19 -1.27 1.39
-2.26 -1.28 1.38
-2.28 -1.28 1.38
-2.37 -1.29 1.36
-2.57 -1.33 1.33
-2.58 -1.32 1.33
-2.51 -1.29 1.34
-2.53 -1.28 1.34
-2.68 -1.30 1.31
-2.76 -1.31 1.30
-2.60 -1.26 1.33
-2.75 -1.28 1.30
-2.54 -1.22 1.34
-2.72 -1.25 1.31
-2.41 -1.16 1.36
-2.50 -1.17 1.35
-2.39 -1.13 1.37
-2.32 -1.10 1.38
-2.44 -1.12 1.36
-2.30 -1.08 1.38
-2.42 -1.09 1.36
-2.54 -1.11 1.34
-2.55 -1.09 1.34
-2.50 -1.07 1.35
-2.67 -1.09 1.32
-2.68 -1.08 1.32
-2.94 -1.12 1.28
-3.41 -1.20 1.20
-3.67 -1.24 1.16
-3.25 -1.15 1.22
-4.05 -1.28 1.09
-2.49 -0.97 1.35
-2.93 -1.04 1.28
-4.10 -1.25 1.09
-4.00 -1.21 1.10
-3.88 -1.17 1.12
-3.85 -1.15 1.13
-1.96 -0.80 1.44
-2.20 -0.83 1.40
-1.90 -0.77 1.45
-1.96 -0.77 1.44
-2.00 -0.77 1.43
-1.91 -0.74 1.45
-1.73 -0.70 1.48
-1.76 -0.69 1.47
-1.69 -0.67 1.48
-1.76 -0.67 1.47
-1.96 -0.69 1.44
-1.81 -0.66 1.46
-1.93 -0.67 1.44
-2.95 -0.80 1.28
-3.05 -0.80 1.26
-3.99 -0.92 1.11
-3.90 -0.89 1.12
-2.24 -0.66 1.39
-2.59 -0.69 1.34
-4.48 -0.92 1.03
-1.60 -0.54 1.50
-4.77 -0.93 0.98
-4.96 -0.93 0.95
-5.17 -0.94 0.92
-5.15 -0.92 0.92
-1.42 -0.47 1.53
-5.11 -0.88 0.92
-5.02 -0.85 0.94
-5.08 -0.84 0.93
-4.84 -0.79 0.97
-5.08 -0.80 0.93
-4.96 -0.77 0.95
-5.09 -0.76 0.93
-5.24 -0.76 0.90
-5.08 -0.73 0.93
-4.97 -0.70 0.95
-5.03 -0.69 0.94
-5.12 -0.68 0.92
-5.08 -0.65 0.93
-5.11 -0.64 0.92
-5.09 -0.62 0.93
-5.12 -0.60 0.92
-5.07 -0.58 0.93
-4.84 -0.55 0.97
-4.86 -0.53 0.96
-4.92 -0.51 0.96
-4.90 -0.50 0.96
-4.98 -0.48 0.95
-5.25 -0.48 0.90
-5.41 -0.47 0.88
-5.98 -0.49 0.78
-7.95 -0.46 0.81
-8.06 -0.45 0.79
-8.08 -0.43 0.78
-8.59 -0.43 0.70
-8.88 -0.42 0.65
-8.84 -0.40 0.66
-8.93 -0.38 0.64
-8.95 -0.36 0.64
-7.15 -0.27 0.94
-7.62 -0.27 0.86
-9.24 -0.30 0.59
-7.42 -0.23 0.89
-7.11 -0.20 0.94
-7.14 -0.18 0.94
-6.78 -0.16 1.00
-6.62 -0.14 1.02
-6.34 -0.11 1.07
-6.56 -0.10 1.03
-6.67 -0.09 1.01
-6.75 -0.07 1.00
-6.53 -0.05 1.04
-6.65 -0.04 1.02
-6.32 -0.02 1.07
-3.46 0.00 1.14
-3.56 0.02 1.13
-3.67 0.03 1.11
-6.09 0.04 1.06
-5.57 0.05 1.15
-5.71 0.07 1.12
-5.79 0.09 1.11
-6.03 0.10 1.07
-6.17 0.12 1.04
-5.93 0.13 1.08
-5.94 0.15 1.08
-6.25 0.17 1.03
-6.18 0.19 1.04
-5.57 0.18 1.15
-6.00 0.21 1.07
-5.77 0.22 1.11
-5.90 0.24 1.09
-5.70 0.24 1.12
-5.58 0.25 1.14
-5.36 0.26 1.18
-5.75 0.29 1.11
-5.77 0.31 1.11
-5.71 0.32 1.12
-5.85 0.34 1.09
-5.41 0.33 1.17
-5.66 0.36 1.13
-5.71 0.38 1.12
-5.30 0.37 1.19
-5.61 0.40 1.13
-6.00 0.44 1.06
-5.81 0.44 1.10
-5.64 0.45 1.13
-5.95 0.48 1.07
-5.87 0.49 1.09
-5.77 0.50 1.10
-5.85 0.52 1.09
-5.63 0.52 1.13
-5.86 0.55 1.09
-5.74 0.56 1.11
-5.99 0.59 1.06
-6.14 0.62 1.04
-6.06 0.65 1.05
-3.83 0.44 1.44
-3.84 0.45 1.43
-6.25 0.72 1.01
-6.42 0.75 0.98
-6.48 0.77 0.97
-6.45 0.79 0.98
-6.48 0.81 0.97
-6.53 0.83 0.96
-6.47 0.84 0.97
-6.61 0.87 0.95
-4.09 0.57 1.39
-6.48 0.89 0.97
-6.83 0.99 0.91
-6.99 1.03 0.88
-5.34 0.90 1.16
-5.32 1.38 1.14
-5.26 1.42 1.15
-5.85 1.69 1.04
-5.10 1.52 1.17
-1.56 -1.65 1.45
-0.79 -1.28 1.59
-1.82 -1.64 1.41
-1.76 -1.60 1.42
-1.89 -1.64 1.40
-1.71 -1.56 1.43
-1.82 -1.59 1.41
-1.77 -1.53 1.42
-1.80 -1.53 1.42
-1.87 -1.54 1.40
-1.94 -1.53 1.39
-1.79 -1.47 1.42
-1.82 -1.47 1.41
-1.60 -1.38 1.45
-1.76 -1.42 1.43
-1.66 -1.38 1.44
-1.61 -1.35 1.45
-1.75 -1.39 1.43
-1.92 -1.43 1.40
-2.37 -1.55 1.32
-1.56 -1.29 1.46
-1.63 -1.30 1.45
-2.48 -1.55 1.30
-2.46 -1.53 1.31
-2.09 -1.40 1.37
-2.15 -1.41 1.36
-2.80 -1.60 1.25
-2.77 -1.57 1.25
-2.19 -1.39 1.35
-2.84 -1.57 1.24
-2.28 -1.39 1.34
-2.38 -1.41 1.32
-2.18 -1.34 1.36
-2.16 -1.32 1.36
-2.12 -1.30 1.37
-2.15 -1.29 1.37
-2.23 -1.30 1.35
-2.17 -1.28 1.36
-2.18 -1.27 1.36
-2.23 -1.27 1.35
-2.21 -1.25 1.35
-2.28 -1.26 1.34
-2.31 -1.25 1.34
-2.36 -1.25 1.33
-2.37 -1.25 1.33
-2.33 -1.22 1.34
-2.37 -1.22 1.33
-2.38 -1.21 1.33
-2.35 -1.19 1.33
-2.38 -1.19 1.33
-2.23 -1.14 1.35
-2.23 -1.13 1.35
-2.26 -1.12 1.35
-2.24 -1.11 1.35
-2.18 -1.08 1.36
-2.26 -1.09 1.35
-2.18 -1.06 1.37
-2.04 -1.01 1.39
-2.22 -1.04 1.36
-2.39 -1.07 1.33
-2.26 -1.03 1.35
-2.40 -1.05 1.33
-2.39 -1.03 1.33
-2.61 -1.06 1.29
-2.12 -0.95 1.38
-2.32 -0.98 1.34
-2.28 -0.96 1.35
-3.47 -1.18 1.14
-1.80 -0.85 1.43
-3.58 -1.18 1.12
-3.55 -1.16 1.13
-1.91 -0.83 1.41
-1.88 -0.82 1.42
-1.69 -0.77 1.45
-1.71 -0.76 1.45
-1.63 -0.74 1.46
-1.74 -0.75 1.44
-1.64 -0.72 1.46
-1.59 -0.70 1.47
-1.68 -0.71 1.45
-1.53 -0.67 1.48
-1.61 -0.68 1.47
-1.57 -0.66 1.47
-1.54 -0.65 1.48
-1.56 -0.64 1.47
-1.45 -0.61 1.49
-1.51 -0.61 1.48
-1.48 -0.60 1.49
-1.48 -0.59 1.49
-2.74 -0.76 1.27
-1.82 -0.62 1.43
-1.68 -0.59 1.45
-3.89 -0.88 1.07
-3.98 -0.87 1.06
-4.19 -0.88 1.02
-4.38 -0.89 0.99
-4.69 -0.91 0.94
-4.65 -0.89 0.94
-4.71 -0.88 0.93
-5.12 -0.91 0.86
-5.26 -0.91 0.84
-5.19 -0.89 0.85
-5.24 -0.87 0.84
-5.01 -0.83 0.88
-4.82 -0.79 0.92
-4.70 -0.76 0.94
-4.86 -0.76 0.91
-4.53 -0.71 0.96
-4.89 -0.73 0.90
-5.10 -0.73 0.87
-5.15 -0.71 0.86
-5.23 -0.70 0.84
-5.07 -0.67 0.87
-4.92 -0.64 0.90
-1.78 -0.36 1.44
-1.65 -0.34 1.46
-4.97 -0.59 0.89
-5.02 -0.58 0.88
-5.02 -0.56 0.88
-5.22 -0.55 0.85
-4.98 -0.52 0.89
-5.02 -0.50 0.88
-4.95 -0.48 0.89
-4.97 -0.46 0.89
-2.31 -0.29 1.34
-5.02 -0.43 0.88
-3.11 -0.31 1.21
-3.08 -0.29 1.21
-3.07 -0.28 1.21
-3.26 -0.28 1.18
-3.13 -0.26 1.20
-2.67 -0.22 1.28
-4.35 -0.28 0.99
-4.22 -0.26 1.02
-4.22 -0.24 1.02
-2.08 -0.15 1.38
-3.98 -0.20 1.06
-4.22 -0.19 1.02
-3.95 -0.17 1.06
-3.81 -0.15 1.09
-3.79 -0.13 1.09
-4.16 -0.12 1.02
-3.49 -0.10 1.14
-3.71 -0.09 1.10
-3.49 -0.07 1.14
-3.65 -0.06 1.11
-3.51 -0.04 1.13
-3.47 -0.03 1.14
-3.52 -0.01 1.13
-6.64 -0.00 0.91
-6.55 0.01 0.92
-6.29 0.03 0.97
-6.26 0.04 0.97
-6.26 0.06 0.97
-6.11 0.07 1.00
-6.00 0.09 1.02
-5.72 0.10 1.07
-6.07 0.12 1.01
-6.30 0.14 0.97
-6.15 0.15 0.99
-6.09 0.17 1.00
-5.98 0.18 1.02
-6.15 0.20 0.99
-6.05 0.21 1.01
-6.20 0.23 0.98
-6.00 0.24 1.02
-5.91 0.25 1.03
-5.99 0.27 1.02
-5.89 0.28 1.04
-6.02 0.30 1.01
-5.88 0.31 1.04
-5.85 0.33 1.04
-5.58 0.33 1.09
-5.67 0.35 1.07
-5.87 0.37 1.04
-5.52 0.37 1.10
-6.14 0.42 0.99
-5.58 0.40 1.09
-6.00 0.44 1.01
-5.91 0.45 1.03
-5.96 0.47 1.02
-6.04 0.49 1.00
-5.98 0.50 1.01
-5.93 0.51 1.02
-5.86 0.52 1.03
-5.87 0.54 1.03
-6.12 0.57 0.99
-6.06 0.59 1.00
-6.24 0.62 0.96
-6.39 0.65 0.94
-5.94 0.62 1.02
-6.42 0.68 0.93
-6.13 0.67 0.98
-6.08 0.68 0.99
-6.47 0.74 0.92
-6.47 0.76 0.92
-6.29 0.75 0.95
-6.46 0.79 0.92
-6.27 0.78 0.95
-6.13 0.78 0.98
-5.91 0.77 1.02
-6.05 0.80 0.99
-6.05 0.82 0.99
-6.09 0.84 0.98
-6.26 0.88 0.95
-6.17 0.88 0.97
-6.32 0.92 0.94
-6.50 0.96 0.90
-6.42 0.97 0.92
-6.54 1.00 0.90
-6.57 1.02 0.89
-6.73 1.06 0.86
-7.14 1.14 0.78
-6.83 1.11 0.84
-6.80 1.13 0.84
-7.12 1.20 0.78
-5.51 0.96 1.08
-5.75 1.01 1.04
-5.31 0.95 1.12
-5.41 0.98 1.10
-5.50 1.01 1.08
-5.43 1.02 1.09
-5.41 1.03 1.10
-5.31 1.03 1.11
-5.71 1.11 1.04
-5.78 1.14 1.02
-5.74 1.15 1.03
-5.66 1.15 1.05
-5.51 1.13 1.07
-5.51 1.15 1.07
-5.65 1.19 1.04
-5.49 1.17 1.07
-5.77 1.25 1.02
-5.80 1.27 1.01
-5.65 1.25 1.04
-5.60 1.26 1.05
-5.68 1.31 1.03
-5.59 1.30 1.05
-5.52 1.32 1.06
-5.73 1.38 1.02
-5.41 1.32 1.08
-5.49 1.36 1.06
-5.68 1.43 1.03
-5.56 1.42 1.05
-5.49 1.42 1.06
-5.65 1.47 1.03
-5.58 1.47 1.04
-5.48 1.46 1.06
-5.55 1.49 1.05
-5.68 1.54 1.02
-5.68 1.62 1.02
-5.56 1.62 1.04
-1.69 -1.55 1.40
-1.97 -1.63 1.34
-2.21 -1.67 1.30
-2.01 -1.50 1.34
-1.87 -1.43 1.37
-2.97 -1.68 1.17
-3.07 -1.68 1.15
-2.97 -1.63 1.17
-2.85 -1.58 1.19
-2.87 -1.57 1.19
-2.90 -1.56 1.18
-2.85 -1.53 1.19
-2.51 -1.42 1.26
-2.29 -1.35 1.30
-2.49 -1.39 1.26
-2.68 -1.43 1.23
-2.59 -1.39 1.24
-2.58 -1.38 1.25
-2.69 -1.39 1.23
-2.85 -1.42 1.20
-2.71 -1.37 1.22
-2.75 -1.37 1.22
-2.81 -1.37 1.20
-2.78 -1.35 1.21
-2.85 -1.36 1.20
-2.91 -1.36 1.19
-2.79 -1.31 1.21
-2.94 -1.34 1.18
-2.73 -1.27 1.22
-2.83 -1.28 1.20
-2.58 -1.21 1.25
-2.45 -1.17 1.27
-2.49 -1.17 1.27
-2.51 -1.16 1.26
-2.55 -1.15 1.26
-2.57 -1.15 1.25
-2.91 -1.21 1.19
-2.80 -1.17 1.21
-3.14 -1.23 1.15
-2.80 -1.15 1.21
-2.90 -1.15 1.19
-3.25 -1.21 1.13
-3.44 -1.24 1.10
-3.55 -1.25 1.08
-3.79 -1.28 1.03
-3.85 -1.27 1.02
-4.00 -1.29 1.00
-3.59 -1.19 1.07
-3.75 -1.21 1.04
-3.67 -1.18 1.06
-3.74 -1.18 1.04
-3.90 -1.19 1.01
-3.78 -1.15 1.04
-3.73 -1.13 1.05
-3.82 -1.13 1.03
-3.89 -1.13 1.02
-3.71 -1.08 1.05
-3.94 -1.10 1.01
-3.94 -1.09 1.01
-1.75 -0.71 1.41
-3.89 -1.05 1.02
-3.78 -1.02 1.04
-3.59 -0.97 1.07
-3.62 -0.96 1.07
-3.67 -0.95 1.06
-3.47 -0.91 1.10
-3.62 -0.92 1.07
-3.67 -0.91 1.06
-3.67 -0.89 1.06
-3.93 -0.91 1.01
-3.95 -0.90 1.01
-3.96 -0.89 1.01
-4.07 -0.89 0.99
-4.39 -0.91 0.93
-4.18 -0.87 0.97
-4.20 -0.85 0.97
-4.12 -0.83 0.98
-4.82 -0.90 0.85
-4.41 -0.83 0.93
-4.53 -0.83 0.91
-4.54 -0.81 0.91
-4.45 -0.79 0.92
-4.78 -0.80 0.86
-4.56 -0.76 0.90
-4.95 -0.79 0.83
-4.98 -0.77 0.82
-4.74 -0.73 0.87
-5.01 -0.74 0.82
-4.78 -0.70 0.86
-5.01 -0.70 0.82
-5.13 -0.70 0.80
-5.23 -0.69 0.78
-5.27 -0.67 0.77
-5.30 -0.65 0.77
-5.31 -0.64 0.77
-5.12 -0.60 0.80
-5.00 -0.57 0.82
-4.97 -0.55 0.83
-5.20 -0.55 0.79
-5.37 -0.55 0.75
-5.32 -0.52 0.76
-5.34 -0.51 0.76
-5.26 -0.48 0.77
-5.10 -0.45 0.80
-5.18 -0.44 0.79
-5.17 -0.42 0.79
-4.96 -0.39 0.83
-4.94 -0.37 0.83
-4.80 -0.35 0.86
-4.88 -0.33 0.84
-4.78 -0.31 0.86
-4.68 -0.29 0.88
-5.00 -0.29 0.82
-4.81 -0.26 0.85
-4.53 -0.23 0.90
-4.72 -0.22 0.87
-3.71 -0.18 1.05
-3.70 -0.16 1.05
-3.76 -0.15 1.04
-3.66 -0.13 1.06
-3.69 -0.12 1.05
-3.60 -0.10 1.07
-6.71 -0.11 0.89
-6.50 -0.09 0.93
-6.42 -0.07 0.95
-6.65 -0.05 0.90
-6.53 -0.04 0.93
-6.53 -0.02 0.93
-3.52 0.00 1.03
-3.36 0.02 1.06
-3.26 0.03 1.08
-3.58 0.05 1.02
-3.72 0.06 0.99
-3.63 0.08 1.01
-3.59 0.09 1.01
-4.02 0.11 0.93
-3.62 0.12 1.01
-3.62 0.14 1.01
-4.03 0.16 0.93
-5.50 0.15 1.06
-5.87 0.18 0.99
-5.58 0.18 1.04
-5.67 0.20 1.03
-5.39 0.20 1.08
-5.52 0.24 1.05
-5.74 0.26 1.01
-5.63 0.27 1.03
-5.58 0.28 1.04
-5.53 0.29 1.05
-5.51 0.31 1.05
-5.40 0.33 1.07
-5.36 0.34 1.08
-5.34 0.37 1.08
-5.10 0.36 1.13
-5.19 0.38 1.11
-5.83 0.44 0.99
-5.24 0.42 1.10
-5.19 0.42 1.11
-5.24 0.46 1.10
-5.94 0.53 0.97
-5.60 0.51 1.03
-5.43 0.51 1.06
-4.30 0.43 1.28
-5.30 0.53 1.09
-5.46 0.62 1.05
-3.92 0.46 1.35
-3.85 0.47 1.36
-3.86 0.48 1.36
-3.88 0.50 1.35
-4.38 0.57 1.26
-3.87 0.52 1.35
-6.79 0.89 0.79
-5.94 0.80 0.96
-6.83 0.95 0.78
-6.50 0.93 0.85
-6.60 0.96 0.83
-6.86 1.01 0.78
-6.54 0.98 0.84
-6.11 0.94 0.92
-6.17 0.96 0.91
-6.56 1.04 0.83
-7.32 1.19 0.68
-5.53 0.93 1.03
-8.07 1.41 0.53
-7.84 1.39 0.58
-5.11 0.95 1.10
-7.86 1.43 0.57
-5.52 1.07 1.02
-1.72 -1.68 1.35
-1.22 -1.44 1.45
-1.45 -1.51 1.40
-1.31 -1.44 1.43
-1.79 -1.61 1.34
-1.59 -1.52 1.38
-1.71 -1.55 1.36
-1.59 -1.50 1.38
-1.68 -1.52 1.36
-1.67 -1.50 1.36
-1.55 -1.45 1.39
-1.67 -1.46 1.37
-1.65 -1.44 1.37
-1.70 -1.45 1.36
-1.43 -1.34 1.42
-1.56 -1.38 1.39
-1.64 -1.39 1.37
-1.64 -1.38 1.38
-1.68 -1.38 1.37
-1.63 -1.36 1.38
-1.43 -1.28 1.42
-1.77 -1.38 1.35
-1.74 -1.35 1.36
-2.02 -1.43 1.30
-1.64 -1.30 1.38
-2.28 -1.49 1.25
-2.35 -1.50 1.24
-2.26 -1.46 1.26
-2.29 -1.45 1.25
-2.14 -1.40 1.28
-2.40 -1.46 1.23
-2.34 -1.43 1.24
-2.27 -1.40 1.26
-2.28 -1.39 1.26
-2.42 -1.42 1.23
-2.30 -1.37 1.25
-2.16 -1.32 1.28
-2.19 -1.32 1.28
-2.17 -1.30 1.28
-2.17 -1.29 1.28
-2.07 -1.25 1.30
-2.27 -1.29 1.26
-2.20 -1.26 1.28
-2.31 -1.28 1.26
-2.55 -1.33 1.21
-2.14 -1.21 1.29
-2.14 -1.20 1.29
-2.07 -1.17 1.30
-2.07 -1.16 1.30
-2.05 -1.14 1.31
-2.07 -1.13 1.30
-2.25 -1.17 1.27
-2.11 -1.12 1.30
-2.18 -1.13 1.28
-2.11 -1.10 1.30
-2.14 -1.09 1.29
-1.95 -1.04 1.33
-1.94 -1.02 1.33
-2.15 -1.06 1.29
-2.12 -1.04 1.30
-2.09 -1.03 1.30
-2.18 -1.03 1.28
-2.18 -1.02 1.28
-2.21 -1.02 1.28
-2.17 -1.00 1.29
-2.06 -0.96 1.31
-2.07 -0.95 1.31
-2.03 -0.93 1.31
-2.02 -0.92 1.32
-2.20 -0.94 1.28
-1.90 -0.87 1.34
-1.94 -0.87 1.33
-1.94 -0.86 1.33
-1.85 -0.83 1.35
-1.82 -0.82 1.35
-1.74 -0.79 1.37
-2.04 -0.84 1.31
-1.66 -0.76 1.39
-1.67 -0.75 1.38
-1.52 -0.71 1.41
-1.74 -0.74 1.37
-2.20 -0.81 1.28
-1.63 -0.70 1.39
-1.63 -0.69 1.39
-1.54 -0.66 1.41
-1.45 -0.64 1.43
-1.87 -0.70 1.35
-1.58 -0.64 1.40
-1.47 -0.61 1.42
-1.44 -0.60 1.43
-1.53 -0.60 1.41
-1.49 -0.59 1.42
-1.42 -0.57 1.43
-1.49 -0.57 1.42
-1.30 -0.53 1.46
-1.47 -0.55 1.42
-1.64 -0.56 1.39
-1.56 -0.54 1.41
-1.60 -0.54 1.40
-1.96 -0.57 1.33
-3.25 -0.72 1.09
-4.47 -0.85 0.86
-4.40 -0.83 0.87
-2.16 -0.55 1.29
-4.25 -0.78 0.90
-4.85 -0.83 0.78
-5.00 -0.83 0.76
-4.25 -0.73 0.90
-4.14 -0.70 0.92
-4.85 -0.76 0.79
-4.95 -0.75 0.77
-5.11 -0.75 0.74
-5.34 -0.75 0.69
-5.28 -0.73 0.70
-5.42 -0.72 0.68
-5.58 -0.72 0.65
-5.49 -0.69 0.66
-5.65 -0.68 0.63
-5.21 -0.63 0.72
-5.24 -0.61 0.71
-5.31 -0.60 0.70
-2.98 -0.41 1.14
-3.16 -0.41 1.10
-3.02 -0.38 1.13
-2.82 -0.36 1.17
-3.06 -0.36 1.12
-5.53 -0.50 0.66
-5.27 -0.46 0.71
-5.08 -0.43 0.74
-4.98 -0.41 0.76
-5.26 -0.41 0.71
-5.27 -0.39 0.71
-1.84 -0.20 1.35
-5.00 -0.30 0.76
-3.37 -0.22 1.06
-3.36 -0.21 1.06
-3.26 -0.19 1.08
-3.34 -0.18 1.07
-3.24 -0.16 1.08
-3.20 -0.15 1.09
-3.41 -0.14 1.05
-3.16 -0.12 1.10
-3.26 -0.11 1.08
-3.36 -0.10 1.06
-3.28 -0.08 1.08
-3.35 -0.07 1.06
-3.37 -0.05 1.06
-3.35 -0.04 1.06
-3.43 -0.03 1.05
-3.65 -0.01 1.01
-5.59 0.01 0.99
-5.77 0.03 0.95
-5.48 0.04 1.01
-5.48 0.07 1.01
-5.53 0.08 1.00
-5.54 0.10 1.00
-5.49 0.12 1.01
-5.47 0.14 1.01
-5.52 0.15 1.00
-5.61 0.17 0.98
-5.76 0.19 0.95
-5.42 0.19 1.02
-6.10 0.23 0.88
-5.80 0.25 0.94
-5.70 0.26 0.96
-5.94 0.28 0.91
-6.02 0.30 0.90
-5.92 0.31 0.92
-5.60 0.33 0.98
-5.58 0.35 0.98
-5.59 0.37 0.98
-5.98 0.41 0.90
-6.45 0.45 0.81
-5.76 0.42 0.94
-5.58 0.43 0.98
-5.58 0.44 0.98
-5.50 0.45 1.00
-5.71 0.48 0.95
-5.50 0.48 1.00
-5.54 0.50 0.99
-5.62 0.52 0.97
-5.62 0.53 0.97
-6.14 0.59 0.87
-5.91 0.59 0.91
-5.74 0.60 0.94
-5.81 0.62 0.93
-5.85 0.64 0.92
-5.97 0.67 0.90
-5.71 0.66 0.95
-5.63 0.66 0.96
-5.75 0.69 0.94
-6.87 0.84 0.71
-5.73 0.72 0.94
-5.85 0.75 0.92
-6.46 0.84 0.79
-6.95 0.92 0.69
-6.79 0.91 0.73
-6.86 0.94 0.71
-7.07 0.99 0.67
-7.44 1.05 0.59
-7.28 1.05 0.62
-7.34 1.08 0.61
-7.42 1.11 0.59
-7.32 1.11 0.61
-7.05 1.09 0.67
-6.78 1.07 0.72
-6.77 1.09 0.72
-6.99 1.14 0.68
-6.96 1.15 0.68
-6.54 1.10 0.77
-6.73 1.15 0.73
-7.25 1.25 0.62
-7.34 1.29 0.60
-5.86 1.08 0.90
-5.85 1.09 0.90
-5.55 1.05 0.96
-5.46 1.05 0.98
-5.57 1.09 0.95
-5.34 1.06 1.00
-5.75 1.15 0.92
-5.53 1.12 0.96
-5.56 1.14 0.95
-5.60 1.17 0.94
-5.43 1.15 0.98
-5.56 1.19 0.95
-5.51 1.19 0.96
-5.40 1.19 0.98
-5.38 1.20 0.99
-5.78 1.30 0.90
-5.39 1.23 0.98
-5.60 1.29 0.94
-5.58 1.30 0.94
-5.58 1.32 0.94
-5.66 1.35 0.92
-5.61 1.35 0.93
-5.58 1.36 0.94
-5.70 1.40 0.91
-5.49 1.39 0.95
-5.87 1.52 0.87
-6.06 1.59 0.83
-5.42 1.44 0.96
-5.47 1.47 0.95
-5.47 1.49 0.95
-5.43 1.49 0.96
-5.51 1.55 0.94
-5.31 1.51 0.98
-5.42 1.57 0.95
-5.30 1.55 0.98
-5.25 1.55 0.99
-5.27 1.57 0.98
-5.32 1.60 0.97
-5.36 1.63 0.96
-5.52 1.69 0.93
-2.07 -1.63 1.24
-1.99 -1.55 1.26
-2.64 -1.69 1.13
-2.69 -1.69 1.12
-2.73 -1.67 1.11
-2.59 -1.62 1.14
-2.35 -1.53 1.19
-2.45 -1.55 1.17
-2.47 -1.54 1.17
-2.49 -1.53 1.16
-2.35 -1.48 1.19
-2.44 -1.49 1.18
-2.40 -1.47 1.18
-2.60 -1.52 1.14
-2.60 -1.50 1.14
-2.55 -1.47 1.15
-2.48 -1.44 1.17
-2.41 -1.41 1.18
-2.37 -1.39 1.19
-2.43 -1.39 1.18
-2.41 -1.37 1.19
-2.41 -1.36 1.18
-2.51 -1.37 1.16
-2.41 -1.33 1.19
-2.34 -1.30 1.20
-2.46 -1.32 1.18
-2.50 -1.32 1.17
-2.36 -1.27 1.20
-2.40 -1.27 1.19
-2.49 -1.28 1.17
-2.31 -1.22 1.21
-2.40 -1.23 1.19
-2.13 -1.16 1.24
-2.19 -1.16 1.23
-2.23 -1.16 1.23
-2.09 -1.11 1.25
-2.37 -1.16 1.20
-2.91 -1.28 1.09
-2.25 -1.11 1.22
-2.33 -1.12 1.21
-2.50 -1.14 1.17
-2.34 -1.10 1.21
-2.26 -1.07 1.22
-2.40 -1.09 1.19
-2.21 -1.03 1.23
-2.40 -1.06 1.19
-2.81 -1.14 1.11
-2.57 -1.07 1.16
-2.39 -1.02 1.20
-3.10 -1.16 1.06
-2.67 -1.06 1.14
-3.15 -1.14 1.05
-2.59 -1.01 1.16
-2.48 -0.98 1.18
-3.53 -1.17 0.97
-3.47 -1.14 0.98
-3.43 -1.12 0.99
-3.64 -1.15 0.95
-3.67 -1.14 0.95
-3.65 -1.12 0.95
-3.97 -1.16 0.89
-3.97 -1.14 0.89
-3.71 -1.08 0.94
-3.34 -1.00 1.01
-3.80 -1.07 0.92
-3.95 -1.08 0.89
-3.53 -0.99 0.97
-3.27 -0.94 1.03
-3.45 -0.95 0.99
-3.58 -0.96 0.97
-3.88 -0.99 0.91
-3.86 -0.97 0.91
-3.93 -0.96 0.90
-4.00 -0.96 0.88
-3.90 -0.93 0.90
-3.97 -0.92 0.89
-4.01 -0.91 0.88
-3.76 -0.86 0.93
-4.10 -0.89 0.86
-3.92 -0.85 0.90
-4.95 -0.97 0.70
-3.89 -0.82 0.91
-3.84 -0.80 0.91
-3.91 -0.79 0.90
-3.87 -0.77 0.91
-3.97 -0.76 0.89
-4.10 -0.76 0.86
-4.65 -0.81 0.76
-4.65 -0.79 0.76
-4.76 -0.79 0.73
-4.91 -0.79 0.70
-4.75 -0.75 0.74
-5.02 -0.76 0.68
-4.97 -0.74 0.69
-5.05 -0.73 0.68
-5.11 -0.71 0.67
-4.74 -0.66 0.74
-4.57 -0.63 0.77
-5.07 -0.65 0.67
-5.62 -0.68 0.56
-5.60 -0.66 0.57
-5.42 -0.63 0.60
-4.97 -0.57 0.69
-4.91 -0.55 0.71
-4.98 -0.54 0.69
-4.41 -0.48 0.80
-4.09 -0.44 0.87
-3.90 -0.42 0.90
-4.59 -0.44 0.77
-4.79 -0.44 0.73
-5.45 -0.46 0.60
-5.67 -0.45 0.55
-5.53 -0.42 0.58
-5.55 -0.40 0.58
-5.67 -0.39 0.55
-5.80 -0.38 0.53
-3.62 -0.26 0.96
-3.92 -0.26 0.90
-3.63 -0.24 0.95
-7.25 -0.28 0.66
-7.35 -0.26 0.64
-7.19 -0.24 0.68
-7.11 -0.20 0.69
-7.08 -0.16 0.70
-7.10 -0.13 0.69
-6.99 -0.11 0.71
-6.99 -0.09 0.71
-5.51 -0.05 1.01
-6.30 -0.04 0.85
-6.38 -0.02 0.83
-3.46 0.00 0.94
-5.58 0.02 0.50
-3.68 0.03 0.89
-3.49 0.05 0.93
-3.58 0.06 0.91
-3.81 0.08 0.87
-3.88 0.09 0.85
-3.95 0.11 0.84
-4.22 0.13 0.78
-3.95 0.14 0.84
-4.57 0.17 0.71
-5.63 0.22 0.49
-4.12 0.19 0.80
-4.09 0.21 0.81
-4.07 0.22 0.81
-4.21 0.25 0.78
-4.31 0.27 0.76
-4.32 0.28 0.76
-3.98 0.28 0.82
-3.90 0.30 0.84
-5.01 0.25 1.06
-5.48 0.29 0.96
-5.03 0.28 1.05
-5.20 0.30 1.02
-5.65 0.34 0.92
-5.35 0.34 0.99
-4.87 0.32 1.08
-5.23 0.36 1.01
-5.29 0.38 1.00
-5.51 0.41 0.95
-5.73 0.44 0.90
-5.58 0.44 0.94
-5.48 0.45 0.96
-5.28 0.44 1.00
-5.47 0.47 0.96
-5.18 0.46 1.02
-5.39 0.49 0.97
-5.73 0.54 0.90
-5.73 0.55 0.90
-5.89 0.58 0.87
-5.37 0.55 0.97
-4.00 0.43 1.26
-5.52 0.59 0.94
-5.09 0.56 1.03
-5.65 0.63 0.91
-5.42 0.62 0.96
-5.56 0.65 0.93
-5.52 0.66 0.94
-3.69 0.47 1.32
-8.30 1.02 0.36
-5.59 0.71 0.92
-5.87 0.76 0.86
-6.00 0.80 0.84
-7.55 1.03 0.51
-4.12 0.61 1.23
-4.33 0.65 1.18
-4.24 0.65 1.20
-7.25 1.08 0.57
-7.25 1.10 0.57
-7.16 1.10 0.59
-6.91 1.09 0.64
-4.30 0.71 1.19
-6.82 1.14 0.65
-4.88 0.85 1.06
-6.96 1.20 0.62
-5.66 1.27 0.88
-7.02 1.64 0.59
-2.09 -1.47 1.21
-2.10 -1.47 1.21
-2.22 -1.49 1.18
-2.31 -1.51 1.16
-2.25 -1.48 1.18
-2.18 -1.44 1.19
-2.09 -1.40 1.21
-2.21 -1.43 1.19
-2.32 -1.45 1.16
-2.31 -1.43 1.17
-2.35 -1.43 1.16
-2.44 -1.45 1.14
-2.41 -1.43 1.15
-2.29 -1.38 1.17
-2.33 -1.38 1.16
-2.27 -1.35 1.18
-2.27 -1.34 1.18
-2.18 -1.30 1.20
-2.17 -1.29 1.20
-2.08 -1.25 1.22
-2.22 -1.27 1.19
-2.21 -1.26 1.19
-2.18 -1.24 1.20
-2.09 -1.21 1.22
-2.17 -1.22 1.20
-2.06 -1.18 1.22
-1.96 -1.14 1.25
-2.02 -1.14 1.23
-1.95 -1.11 1.25
-1.96 -1.11 1.25
-1.93 -1.09 1.25
-1.94 -1.08 1.25
-1.91 -1.06 1.26
-2.04 -1.08 1.23
-1.99 -1.06 1.24
-1.95 -1.04 1.25
-1.94 -1.02 1.25
-2.00 -1.03 1.24
-1.98 -1.01 1.24
-1.96 -0.99 1.25
-1.97 -0.99 1.25
-2.04 -0.99 1.23
-2.07 -0.99 1.23
-2.01 -0.96 1.24
-2.16 -0.98 1.21
-2.05 -0.95 1.23
-2.04 -0.93 1.23
-2.03 -0.92 1.24
-1.97 -0.90 1.25
-2.06 -0.90 1.23
-2.02 -0.89 1.24
-2.04 -0.88 1.23
-1.88 -0.84 1.27
-1.81 -0.81 1.28
-1.67 -0.78 1.31
-1.68 -0.77 1.31
-1.64 -0.75 1.32
-1.67 -0.75 1.31
-1.71 -0.74 1.30
-2.21 -0.82 1.20
-2.06 -0.78 1.23
-2.29 -0.81 1.18
-2.28 -0.80 1.19
-2.40 -0.80 1.16
-2.16 -0.75 1.21
-2.61 -0.81 1.12
-1.37 -0.61 1.37
-1.35 -0.60 1.38
-1.25 -0.57 1.40
-1.38 -0.58 1.37
-1.38 -0.57 1.37
-1.31 -0.55 1.39
-1.35 -0.55 1.38
-1.34 -0.54 1.38
-1.31 -0.53 1.39
-1.24 -0.51 1.40
-1.39 -0.52 1.37
-1.36 -0.50 1.38
-1.52 -0.52 1.34
-1.45 -0.50 1.36
-1.47 -0.49 1.36
-3.61 -0.73 0.91
-1.99 -0.53 1.25
-3.52 -0.69 0.93
-3.35 -0.66 0.97
-3.82 -0.67 0.87
-4.68 -0.72 0.69
-3.38 -0.58 0.96
-5.05 -0.72 0.62
-5.14 -0.71 0.60
-5.32 -0.71 0.56
-5.12 -0.68 0.60
-5.28 -0.67 0.57
-5.80 -0.70 0.47
-5.78 -0.67 0.47
-5.62 -0.64 0.50
-3.26 -0.43 0.99
-2.98 -0.40 1.04
-5.36 -0.55 0.55
-3.48 -0.40 0.94
-3.13 -0.35 1.01
-4.99 -0.45 0.63
-5.67 -0.47 0.49
-4.98 -0.39 0.63
-5.60 -0.41 0.50
-3.17 -0.24 1.00
-3.42 -0.24 0.95
-3.00 -0.18 1.04
-3.19 -0.16 1.00
-2.93 -0.14 1.05
-3.08 -0.13 1.02
-2.82 -0.11 1.07
-2.98 -0.10 1.04
-2.87 -0.09 1.06
-2.99 -0.08 1.04
-3.08 -0.07 1.02
-3.07 -0.05 1.02
-3.45 -0.04 0.94
-3.39 -0.03 0.95
-5.76 -0.02 0.47
-6.60 -0.00 0.66
-6.29 0.01 0.73
-6.22 0.03 0.74
-5.72 0.04 0.85
-7.44 0.09 0.48
-6.05 0.09 0.78
-5.99 0.12 0.79
-5.75 0.13 0.84
-5.86 0.15 0.82
-5.88 0.16 0.81
-5.60 0.17 0.87
-5.48 0.18 0.90
-5.48 0.19 0.90
-5.53 0.21 0.89
-5.31 0.21 0.94
-5.39 0.23 0.92
-5.37 0.24 0.92
-5.29 0.25 0.94
-5.45 0.28 0.91
-5.22 0.28 0.95
-5.19 0.29 0.96
-5.44 0.32 0.90
-5.42 0.33 0.91
-5.42 0.34 0.91
-5.45 0.36 0.90
-5.26 0.36 0.94
-5.43 0.39 0.90
-5.62 0.41 0.86
-5.53 0.42 0.88
-5.29 0.42 0.93
-5.58 0.46 0.87
-5.37 0.45 0.92
-5.46 0.47 0.90
-5.55 0.50 0.88
-5.57 0.51 0.87
-5.82 0.55 0.82
-5.93 0.57 0.79
-5.72 0.57 0.84
-5.81 0.59 0.82
-5.59 0.59 0.86
-5.83 0.63 0.81
-5.69 0.63 0.84
-5.97 0.67 0.78
-5.64 0.65 0.85
-5.78 0.68 0.82
-5.90 0.71 0.79
-5.88 0.72 0.80
-5.90 0.74 0.79
-5.92 0.76 0.79
-5.82 0.76 0.81
-5.64 0.75 0.85
-6.01 0.82 0.76
-6.36 0.88 0.69
-6.66 0.93 0.62
-7.35 1.04 0.47
-7.06 1.02 0.53
-7.24 1.06 0.49
-7.14 1.07 0.51
-7.10 1.08 0.52
-6.85 1.06 0.58
-6.49 1.03 0.65
-6.79 1.09 0.59
-6.68 1.09 0.61
-6.99 1.16 0.54
-6.90 1.16 0.56
-6.39 1.10 0.67
-6.45 1.12 0.66
-6.38 1.13 0.67
-6.79 1.22 0.58
-6.72 1.22 0.59
-6.62 1.22 0.62
-6.64 1.24 0.61
-6.74 1.28 0.59
-6.60 1.27 0.62
-6.59 1.29 0.62
-6.86 1.35 0.56
-6.78 1.36 0.57
-5.21 1.08 0.92
-5.60 1.17 0.83
-5.67 1.20 0.82
-5.44 1.17 0.87
-5.53 1.20 0.85
-5.40 1.19 0.87
-5.47 1.22 0.86
-5.58 1.25 0.83
-5.66 1.29 0.81
-5.62 1.31 0.82
-5.71 1.34 0.80
-5.74 1.37 0.79
-5.88 1.41 0.76
-5.69 1.39 0.80
-5.62 1.39 0.81
-5.52 1.38 0.84
-5.59 1.41 0.82
-5.57 1.42 0.82
-5.40 1.40 0.86
-5.31 1.39 0.88
-5.37 1.42 0.86
-5.05 1.40 0.93
-5.50 1.53 0.83
-5.27 1.48 0.88
-5.07 1.49 0.92
-5.24 1.55 0.88
-5.00 1.51 0.93
-5.34 1.64 0.86
-2.61 -1.52 1.04
-2.65 -1.52 1.04
-2.62 -1.50 1.04
-2.52 -1.45 1.07
-2.70 -1.49 1.03
-2.79 -1.51 1.01
-3.08 -1.57 0.94
-3.01 -1.54 0.96
-2.78 -1.46 1.01
-3.20 -1.56 0.92
-2.96 -1.49 0.97
-2.46 -1.34 1.08
-2.72 -1.39 1.03
-2.62 -1.35 1.05
-2.62 -1.34 1.05
-2.28 -1.24 1.12
-2.34 -1.24 1.11
-2.29 -1.22 1.12
-2.30 -1.21 1.12
-2.29 -1.20 1.12
-2.24 -1.17 1.14
-2.24 -1.16 1.14
-2.26 -1.15 1.13
-2.24 -1.14 1.14
-2.12 -1.10 1.16
-2.21 -1.11 1.14
-2.21 -1.09 1.14
-2.37 -1.12 1.11
-2.46 -1.13 1.09
-2.27 -1.07 1.13
-2.20 -1.04 1.15
-2.45 -1.09 1.09
-2.43 -1.07 1.10
-2.24 -1.02 1.14
-2.34 -1.03 1.12
-2.30 -1.01 1.13
-2.30 -0.99 1.13
-2.25 -0.97 1.14
-2.27 -0.96 1.13
-2.31 -0.96 1.12
-2.33 -0.95 1.12
-2.32 -0.94 1.12
-3.23 -1.10 0.93
-3.28 -1.09 0.92
-3.23 -1.07 0.93
-3.29 -1.07 0.91
-3.17 -1.03 0.94
-3.10 -1.01 0.95
-3.29 -1.03 0.91
-3.52 -1.05 0.87
-3.54 -1.04 0.86
-3.58 -1.03 0.85
-3.69 -1.04 0.83
-3.22 -0.94 0.93
-3.73 -1.01 0.82
-3.10 -0.90 0.96
-3.11 -0.89 0.95
-3.04 -0.86 0.97
-3.56 -0.92 0.86
-3.77 -0.94 0.81
-3.93 -0.95 0.78
-3.60 -0.89 0.85
-3.83 -0.90 0.80
-1.46 -0.56 1.31
-1.44 -0.55 1.31
-1.40 -0.53 1.32
-3.88 -0.85 0.79
-1.41 -0.52 1.32
-1.43 -0.51 1.32
-4.10 -0.83 0.74
-1.66 -0.52 1.27
-3.91 -0.78 0.78
-3.77 -0.74 0.81
-3.64 -0.71 0.84
-3.69 -0.70 0.83
-3.80 -0.70 0.81
-3.55 -0.66 0.86
-3.49 -0.64 0.87
-3.60 -0.63 0.85
-4.79 -0.74 0.60
-4.90 -0.73 0.57
-4.80 -0.70 0.59
-4.87 -0.69 0.58
-4.94 -0.68 0.56
-5.05 -0.67 0.54
-4.99 -0.65 0.55
-5.02 -0.63 0.54
-5.03 -0.62 0.54
-4.98 -0.59 0.55
-4.73 -0.56 0.61
-4.63 -0.53 0.63
-4.49 -0.51 0.66
-4.76 -0.51 0.60
-5.13 -0.51 0.52
-5.08 -0.49 0.53
-5.32 -0.49 0.48
-5.48 -0.48 0.45
-5.25 -0.45 0.49
-7.03 -0.41 0.57
-7.28 -0.41 0.52
-7.23 -0.39 0.53
-6.98 -0.36 0.59
-7.00 -0.34 0.58
-7.09 -0.33 0.56
-7.03 -0.31 0.57
-6.91 -0.28 0.60
-6.91 -0.27 0.60
-7.03 -0.25 0.57
-6.93 -0.23 0.59
-7.11 -0.22 0.56
-6.93 -0.20 0.59
-7.00 -0.18 0.58
-6.86 -0.16 0.61
-6.87 -0.14 0.61
-7.00 -0.13 0.58
-7.04 -0.11 0.57
-6.91 -0.09 0.60
-6.97 -0.08 0.58
-7.06 -0.06 0.56
-6.85 -0.04 0.61
-6.73 -0.02 0.63
-3.52 0.00 0.80
-5.00 0.02 0.47
-3.12 0.03 0.89
-5.64 0.04 0.81
-5.09 0.05 0.94
-4.99 0.06 0.96
-4.85 0.07 0.99
-5.06 0.09 0.94
-5.37 0.11 0.87
-5.15 0.11 0.92
-4.93 0.12 0.97
-5.07 0.14 0.94
-5.19 0.16 0.91
-5.08 0.17 0.94
-5.04 0.18 0.95
-5.10 0.19 0.93
-5.34 0.21 0.88
-5.31 0.23 0.88
-5.06 0.23 0.94
-5.04 0.24 0.94
-5.10 0.26 0.93
-4.98 0.27 0.96
-5.12 0.29 0.92
-5.05 0.29 0.94
-5.02 0.31 0.95
-4.97 0.32 0.96
-4.99 0.33 0.95
-5.06 0.35 0.94
-4.99 0.36 0.95
-4.92 0.36 0.97
-4.95 0.38 0.96
-4.97 0.39 0.95
-4.86 0.40 0.98
-4.94 0.42 0.96
-4.95 0.43 0.96
-4.93 0.44 0.96
-5.04 0.47 0.94
-5.33 0.50 0.87
-5.60 0.54 0.81
-5.33 0.53 0.87
-5.78 0.59 0.77
-5.65 0.59 0.79
-5.56 0.60 0.81
-5.89 0.64 0.74
-5.28 0.60 0.88
-5.48 0.63 0.83
-5.34 0.63 0.86
-3.89 0.48 1.19
-5.69 0.70 0.78
-5.49 0.69 0.83
-5.73 0.73 0.77
-6.04 0.78 0.70
-5.70 0.76 0.78
-5.28 0.72 0.87
-5.51 0.76 0.82
-5.14 0.73 0.90
-7.00 0.99 0.47
-7.01 1.01 0.47
-7.07 1.04 0.46
-7.07 1.06 0.46
-6.91 1.05 0.49
-7.03 1.09 0.47
-6.97 1.10 0.48
-6.95 1.11 0.48
-6.70 1.09 0.54
-6.70 1.11 0.54
-6.64 1.12 0.55
-6.35 1.09 0.62
-6.67 1.16 0.54
-6.28 1.11 0.63
-6.10 1.10 0.67
-6.35 1.16 0.61
-6.27 1.16 0.63
-6.19 1.16 0.65
-6.30 1.20 0.62
-6.41 1.23 0.59
-0.72 -1.66 1.39
-0.74 -1.66 1.39
-2.12 -1.01 1.12
-2.12 -1.00 1.12
-2.09 -0.98 1.13
-2.13 -0.98 1.12
-2.08 -0.96 1.13
-2.30 -0.99 1.08
-2.25 -0.97 1.09
-2.04 -0.92 1.14
-2.09 -0.92 1.13
-1.88 -0.86 1.18
-1.96 -0.87 1.16
-2.03 -0.87 1.14
-2.14 -0.88 1.12
-2.12 -0.86 1.12
-2.33 -0.89 1.08
-2.14 -0.85 1.12
-3.38 -1.05 0.84
-3.59 -1.07 0.79
-2.35 -0.85 1.07
-1.72 -0.73 1.21
-3.27 -0.98 0.86
-3.52 -1.01 0.81
-2.54 -0.83 1.03
-1.91 -0.72 1.17
-2.17 -0.75 1.11
-3.26 -0.91 0.87
-2.15 -0.72 1.12
-2.19 -0.72 1.11
-2.95 -0.82 0.94
-2.94 -0.80 0.94
-2.21 -0.68 1.11
-1.31 -0.55 1.31
-1.24 -0.53 1.32
-1.21 -0.51 1.33
-1.36 -0.53 1.30
-1.23 -0.50 1.33
-1.30 -0.50 1.31
-1.49 -0.51 1.27
-1.44 -0.50 1.28
-1.49 -0.49 1.27
-1.49 -0.48 1.27
-1.54 -0.48 1.26
-3.44 -0.69 0.83
-3.62 -0.69 0.79
-2.97 -0.61 0.94
-3.24 -0.62 0.87
-3.26 -0.61 0.87
-3.28 -0.60 0.87
-3.46 -0.60 0.83
-4.81 -0.72 0.52
-4.48 -0.67 0.60
-4.83 -0.69 0.52
-4.81 -0.67 0.52
-3.36 -0.52 0.85
-3.50 -0.52 0.82
-5.27 -0.65 0.42
-5.00 -0.61 0.48
-4.87 -0.58 0.51
-5.29 -0.60 0.41
-4.87 -0.55 0.51
-5.19 -0.55 0.44
-4.90 -0.52 0.50
-3.76 -0.42 0.76
-3.14 -0.37 0.90
-3.16 -0.36 0.89
-3.15 -0.34 0.89
-3.12 -0.33 0.90
-3.00 -0.31 0.93
-3.17 -0.30 0.89
-3.11 -0.28 0.90
-2.99 -0.27 0.93
-3.09 -0.26 0.91
-3.05 -0.24 0.91
-2.99 -0.23 0.93
-3.08 -0.22 0.91
-3.22 -0.21 0.88
-3.09 -0.19 0.91
-3.09 -0.18 0.91
-3.27 -0.17 0.86
-3.24 -0.15 0.87
-3.25 -0.14 0.87
-3.31 -0.13 0.86
-3.17 -0.11 0.89
-2.99 -0.09 0.93
-3.20 -0.01 0.88
-7.03 0.03 0.43
-7.14 0.05 0.40
-7.24 0.07 0.38
-7.23 0.08 0.38
-5.37 0.08 0.82
-5.28 0.13 0.84
-5.48 0.21 0.79
-5.69 0.24 0.74
-5.47 0.25 0.79
-5.19 0.25 0.86
-4.99 0.25 0.90
-5.08 0.27 0.88
-5.02 0.28 0.89
-5.91 0.34 0.68
-5.74 0.35 0.72
-5.01 0.32 0.89
-4.96 0.33 0.91
-4.89 0.34 0.92
-4.92 0.35 0.92
-5.21 0.38 0.85
-5.52 0.42 0.77
-5.59 0.44 0.76
-5.14 0.42 0.86
-4.99 0.42 0.90
-5.14 0.45 0.86
-5.13 0.46 0.86
-5.76 0.53 0.71
-5.30 0.50 0.82
-5.60 0.54 0.75
-5.29 0.53 0.82
-5.40 0.55 0.80
-5.41 0.57 0.79
-5.52 0.59 0.77
-5.65 0.64 0.73
-5.21 0.60 0.84
-5.43 0.65 0.78
-5.66 0.69 0.73
-6.05 0.76 0.63
-6.03 0.77 0.64
-6.16 0.80 0.61
-7.10 0.99 0.38
-6.99 1.03 0.41
-7.14 1.08 0.37
-6.94 1.07 0.41
-6.71 1.06 0.47
-6.83 1.09 0.44
-6.86 1.12 0.43
-6.90 1.14 0.42
-6.92 1.16 0.41
-7.02 1.20 0.39
-6.79 1.18 0.44
-6.65 1.17 0.47
-6.66 1.19 0.47
-6.57 1.19 0.49
-6.47 1.19 0.52
-6.50 1.22 0.51
-6.38 1.21 0.53
-6.41 1.23 0.53
-6.26 1.22 0.56
-6.52 1.29 0.50
-3.01 -1.08 0.87
-3.17 -1.10 0.83
-2.77 -1.01 0.92
-3.45 -1.13 0.76
-3.45 -1.11 0.76
-3.57 -1.12 0.74
-3.71 -1.13 0.70
-3.54 -1.08 0.74
-3.65 -1.09 0.72
-3.62 -1.07 0.72
-3.55 -1.04 0.74
-3.45 -1.01 0.76
-3.71 -1.04 0.71
-3.67 -1.02 0.71
-3.54 -0.98 0.74
-3.48 -0.96 0.76
-4.30 -1.07 0.57
-4.01 -1.01 0.63
-3.92 -0.98 0.66
-3.74 -0.94 0.70
-3.67 -0.91 0.72
-3.81 -0.92 0.68
-3.81 -0.90 0.68
-3.83 -0.89 0.68
-3.90 -0.88 0.66
-3.98 -0.88 0.64
-3.94 -0.86 0.65
-3.98 -0.85 0.64
-3.91 -0.82 0.66
-4.07 -0.83 0.62
-4.16 -0.82 0.60
-4.04 -0.79 0.63
-4.17 -0.79 0.60
-3.98 -0.75 0.64
-4.07 -0.75 0.62
-4.12 -0.74 0.61
-4.56 -0.77 0.51
-4.52 -0.75 0.52
-4.65 -0.74 0.49
-4.50 -0.71 0.52
-4.43 -0.69 0.54
-4.75 -0.70 0.46
-4.79 -0.69 0.46
-4.78 -0.67 0.46
-4.94 -0.66 0.42
-4.98 -0.65 0.41
-5.10 -0.64 0.38
-5.13 -0.63 0.38
-5.07 -0.55 0.39
-5.10 -0.42 0.38
-3.20 -0.30 0.83
-3.37 -0.30 0.79
-3.47 -0.29 0.76
-3.46 -0.27 0.76
-3.16 -0.25 0.83
-3.24 -0.24 0.82
-3.25 -0.22 0.81
-3.51 -0.22 0.75
-4.97 -0.20 0.41
-4.64 -0.17 0.49
-4.74 -0.16 0.46
-4.62 -0.14 0.49
-6.96 -0.13 0.45
-6.89 -0.11 0.46
-2.38 0.78 0.32
-14.35 1.64 2.24
-13.87 0.41 1.36
-15.08 0.34 1.06
-6.60 1.67 2.25
-10.27 -0.68 2.34
-10.07 -0.64 2.30
-6.49 1.52 2.21
-6.41 1.52 2.21
-5.93 1.68 2.20
-10.01 -0.29 2.23
-3.81 0.61 2.17
-10.18 -0.35 2.11
-6.59 1.65 2.08
-6.60 1.69 2.08
-6.53 1.69 2.08
-10.14 -0.54 2.05
-10.35 -0.53 2.05
-10.28 -0.50 2.05
-10.13 -0.47 2.05
-10.15 -0.45 2.05
-10.15 -0.42 2.05
-10.15 -0.32 2.05
-10.17 -0.29 2.05
-10.30 -0.27 2.05
-10.24 -0.25 2.05
-10.32 -0.22 2.05
-12.04 0.10 1.88
-10.04 -0.27 1.93
-9.96 -0.19 1.93
-7.31 -0.36 1.93
-7.17 -0.15 1.93
-8.64 0.33 1.90
-7.82 -0.60 1.88
-9.85 -0.53 1.87
-10.06 -0.52 1.87
-10.08 -0.49 1.87
-9.80 -0.46 1.87
-9.90 -0.44 1.87
-9.86 -0.41 1.87
-9.64 -0.35 1.88
-9.85 -0.34 1.87
-9.88 -0.29 1.87
-9.77 -0.21 1.87
-9.63 -0.19 1.88
-9.80 -0.16 1.87
-10.00 -0.14 1.87
-11.67 0.32 1.73
-8.53 0.34 1.85
-8.68 0.37 1.84
-7.26 -0.71 1.84
-7.73 -0.62 1.82
-7.75 -0.57 1.82
-7.31 -0.43 1.83
-9.79 -0.12 1.80
-8.38 0.34 1.82
-8.64 0.39 1.81
-8.41 0.40 1.82
-7.47 -0.61 1.79
-7.44 -0.58 1.79
-7.40 -0.48 1.79
-7.34 -0.46 1.79
-6.95 -0.37 1.81
-7.38 -0.36 1.79
-7.26 -0.24 1.80
-7.53 -0.22 1.78
-8.55 0.32 1.78
-8.40 0.36 1.78
-8.36 0.38 1.79
-8.41 0.47 1.78
-8.14 0.55 1.79
-8.45 0.62 1.78
-6.72 1.64 1.84
-7.41 -0.75 1.75
-7.72 -0.74 1.74
-7.33 -0.69 1.76
-7.58 -0.69 1.75
-7.41 -0.65 1.75
-7.57 -0.64 1.75
-7.47 -0.61 1.75
-7.55 -0.54 1.75
-7.42 -0.51 1.75
-7.53 -0.49 1.75
-7.47 -0.46 1.75
-7.23 -0.43 1.76
-7.57 -0.42 1.74
-9.69 -0.36 1.73
-9.77 -0.33 1.73
-9.50 -0.23 1.74
-9.50 -0.16 1.74
-9.53 -0.14 1.74
-12.07 -0.02 1.62
-5.26 0.45 1.90
-7.61 -0.74 1.71
-8.40 -0.69 1.67
-7.74 -0.60 1.70
-7.53 -0.54 1.71
-7.54 -0.51 1.71
-7.57 -0.47 1.71
-7.51 -0.44 1.71
-7.50 -0.42 1.71
-7.05 -0.35 1.73
-11.96 0.01 1.52
-11.83 0.03 1.53
-11.75 0.06 1.53
-11.89 0.09 1.53
-8.76 0.20 1.69
-8.67 0.22 1.70
-8.50 0.34 1.70
-8.42 0.38 1.71
-8.48 0.41 1.70
-8.22 0.41 1.72
-8.32 0.44 1.71
-8.12 0.45 1.72
-8.07 0.47 1.72
-8.18 0.52 1.72
-7.96 0.52 1.73
-8.09 0.57 1.72
-8.21 0.60 1.72
-8.16 0.62 1.72
-8.26 0.67 1.71
-3.70 0.41 1.96
-5.49 1.09 1.85
-4.10 1.14 1.92
