# .PCD v0.7 - Point Cloud Data file format
VERSION 0.7
FIELDS x y z
SIZE 4 4 4
TYPE F F F
COUNT 1 1 1
WIDTH 2818
HEIGHT 1
VIEWPOINT 0 0 0 1 0 0 0
POINTS 2818
DATA ASCII
-3.52 1.25 2.22
-12.91 0.02 2.02
-12.93 0.12 2.02
-12.85 0.21 2.02
-6.82 0.30 2.09
-6.48 0.32 2.09
-0.66 -0.44 2.15
-6.03 -0.02 2.10
-12.88 -0.01 2.02
-12.70 0.37 1.78
-2.14 -0.68 2.07
-15.64 0.79 1.69
-7.46 0.42 1.94
-11.87 -0.16 1.71
-12.98 0.43 1.69
-14.05 -0.08 1.65
-7.85 0.91 1.84
-7.67 1.07 1.85
-12.67 0.20 1.60
-13.18 0.41 1.58
-12.91 0.46 1.59
-12.99 0.50 1.58
-12.83 0.52 1.59
-13.04 0.59 1.58
-7.47 0.93 1.82
-7.73 0.98 1.81
-9.61 -0.27 1.74
-11.95 0.08 1.48
-12.19 0.08 1.52
-12.29 0.11 1.51
-12.19 0.20 1.52
-12.43 0.23 1.50
-12.56 0.45 1.49
-12.55 0.48 1.49
-13.39 0.61 1.45
-13.10 0.63 1.46
-13.51 0.68 1.44
-13.27 0.70 1.45
-13.48 0.74 1.44
-6.47 0.38 1.82
-7.27 0.59 1.77
-7.72 0.71 1.75
-7.80 0.73 1.74
-7.07 0.79 1.78
-7.44 0.85 1.76
-7.64 1.05 1.75
-3.61 1.28 1.95
-3.60 1.30 1.95
-10.29 -1.62 1.51
-10.93 -1.50 1.48
-10.61 -1.40 1.50
-11.61 -1.48 1.44
-10.48 -1.33 1.50
-9.89 -1.18 1.53
-9.86 -1.15 1.54
-7.17 -0.64 1.67
-9.19 -0.33 1.68
-9.18 -0.28 1.68
-9.25 -0.26 1.68
-10.72 -0.22 1.60
-13.78 -0.15 1.44
-14.40 0.16 1.34
-12.34 0.32 1.46
-12.55 0.45 1.44
-13.19 0.69 1.40
-13.40 0.77 1.39
-10.76 1.37 1.53
-3.34 0.99 1.95
-3.53 1.19 1.94
-3.57 1.27 1.93
-3.51 1.43 1.93
-7.09 -0.27 1.64
-13.71 -0.30 1.26
-12.18 0.14 1.41
-12.21 0.17 1.41
-12.38 0.20 1.40
-12.23 0.23 1.40
-12.20 0.25 1.41
-12.30 0.29 1.40
-12.46 0.32 1.39
-12.38 0.41 1.39
-12.52 0.45 1.38
-13.09 0.62 1.35
-12.96 0.65 1.36
-13.35 0.74 1.33
-13.38 0.77 1.33
-13.67 0.82 1.31
-13.45 0.84 1.32
-13.72 0.89 1.31
-13.96 1.21 1.29
-13.96 1.32 1.29
-10.46 -1.67 1.39
-10.49 -1.64 1.39
-10.14 -1.57 1.41
-10.37 -1.56 1.40
-10.47 -1.54 1.39
-10.55 -1.52 1.39
-10.67 -1.47 1.38
-10.38 -1.38 1.40
-9.88 -1.27 1.43
-9.94 -1.21 1.42
-9.65 -1.16 1.44
-9.63 -1.12 1.44
-10.19 -0.93 1.41
-9.93 -0.88 1.42
-7.79 -0.51 1.55
-7.61 -0.48 1.56
-7.52 -0.45 1.57
-7.63 -0.38 1.56
-7.13 -0.32 1.59
-6.92 -0.29 1.60
-7.04 -0.27 1.60
-7.00 -0.25 1.60
-7.41 -0.21 1.57
-15.63 -0.05 1.20
-8.04 0.00 1.48
-7.37 0.10 1.52
-12.63 0.36 1.31
-12.47 0.38 1.32
-12.49 0.41 1.32
-12.52 0.44 1.32
-12.36 0.47 1.33
-13.14 0.79 1.27
-13.19 0.82 1.27
-13.41 0.87 1.25
-13.44 0.90 1.25
-13.43 0.94 1.25
-13.54 1.01 1.24
-13.54 1.11 1.24
-14.11 1.29 1.20
-13.87 1.31 1.22
-13.96 1.35 1.21
-7.45 0.75 1.65
-7.55 1.03 1.64
-7.21 1.04 1.66
-6.94 1.11 1.68
-3.56 1.01 1.90
-10.31 -1.65 1.33
-10.55 -1.65 1.32
-10.39 -1.56 1.33
-10.30 -1.49 1.33
-6.17 -0.99 1.61
-10.42 -1.44 1.32
-10.56 -1.43 1.32
-9.94 -1.30 1.36
-9.80 -1.23 1.37
-9.96 -1.03 1.35
-7.23 -0.44 1.53
-7.51 -0.43 1.52
-7.24 -0.37 1.53
-6.99 -0.34 1.55
-7.46 -0.26 1.52
-8.58 -0.21 1.44
-7.24 -0.16 1.53
-8.72 -0.16 1.43
-8.78 -0.13 1.43
-7.03 -0.06 1.54
-8.62 -0.05 1.44
-12.14 0.04 1.28
-12.08 0.07 1.29
-5.74 0.05 1.74
-5.96 0.07 1.73
-9.03 0.12 1.51
-12.39 0.20 1.26
-8.58 0.22 1.54
-12.54 0.35 1.25
-12.53 0.38 1.25
-12.72 0.45 1.24
-12.87 0.61 1.22
-12.86 0.65 1.22
-12.92 0.68 1.22
-13.17 0.72 1.20
-7.64 0.45 1.60
-12.98 0.78 1.21
-13.62 0.85 1.17
-6.13 0.41 1.71
-6.30 0.44 1.70
-13.48 0.94 1.18
-6.96 0.51 1.65
-6.55 0.50 1.68
-13.43 1.04 1.18
-6.71 0.55 1.67
-13.71 1.16 1.16
-13.62 1.18 1.16
-14.20 1.27 1.12
-7.10 0.69 1.64
-7.24 0.72 1.63
-7.29 0.74 1.62
-7.43 0.77 1.61
-7.27 0.81 1.62
-6.99 0.84 1.64
-7.56 0.94 1.60
-7.54 0.96 1.60
-7.48 0.99 1.60
-7.43 1.00 1.61
-7.69 1.07 1.59
-7.75 1.10 1.58
-7.90 1.20 1.57
-7.74 1.22 1.58
-7.47 1.20 1.60
-7.58 1.35 1.59
-8.05 1.68 1.55
-10.17 -1.60 1.28
-10.04 -1.56 1.29
-10.17 -1.54 1.28
-6.25 -1.04 1.56
-9.99 -1.46 1.29
-6.02 -0.98 1.57
-9.89 -1.39 1.30
-9.84 -1.35 1.30
-9.72 -1.31 1.31
-6.10 -0.90 1.57
-9.95 -1.28 1.29
-9.78 -1.23 1.30
-9.73 -1.13 1.31
-9.68 -1.07 1.31
-9.77 -1.02 1.30
-9.91 -0.94 1.29
-9.76 -0.90 1.30
-9.57 -0.80 1.32
-7.64 -0.60 1.45
-7.31 -0.56 1.48
-7.42 -0.54 1.47
-8.34 -0.57 1.40
-8.29 -0.54 1.41
-7.86 -0.49 1.44
-7.63 -0.46 1.45
-7.07 -0.41 1.50
-7.03 -0.38 1.50
-7.96 -0.27 1.59
-9.01 -0.26 1.51
-9.24 -0.19 1.49
-9.39 -0.17 1.48
-9.22 -0.15 1.49
-8.94 -0.12 1.51
-12.04 -0.10 1.29
-8.52 -0.05 1.54
-11.96 -0.04 1.30
-7.42 0.00 1.42
-7.15 0.03 1.44
-7.36 0.05 1.42
-7.14 0.07 1.44
-7.94 0.10 1.38
-8.12 0.13 1.36
-7.17 0.30 1.43
-12.84 0.67 1.16
-13.42 0.80 1.11
-13.10 0.82 1.14
-13.50 0.87 1.11
-13.16 0.88 1.13
-13.19 0.92 1.13
-13.94 1.00 1.07
-13.40 1.00 1.11
-13.45 1.03 1.11
-13.27 1.05 1.12
-13.44 1.13 1.11
-14.00 1.25 1.06
-13.81 1.27 1.08
-13.71 1.29 1.08
-13.82 1.33 1.07
-14.10 1.40 1.05
-13.76 1.43 1.08
-7.26 1.16 1.58
-3.29 0.96 1.88
-3.31 1.06 1.88
-3.22 1.48 1.87
-10.44 -1.63 1.19
-10.02 -1.52 1.22
-10.14 -1.50 1.21
-9.66 -1.39 1.25
-9.69 -1.36 1.25
-9.04 -0.96 1.30
-9.37 -0.84 1.27
-7.74 -0.51 1.40
-8.01 -0.50 1.38
-7.69 -0.46 1.40
-7.89 -0.44 1.38
-6.93 -0.29 1.46
-7.38 -0.28 1.42
-8.23 -0.28 1.36
-7.41 -0.23 1.42
-7.24 -0.21 1.43
-6.97 -0.18 1.45
-6.91 -0.15 1.46
-8.38 -0.13 1.34
-6.92 -0.09 1.46
-9.27 0.01 1.38
-9.32 0.03 1.38
-9.46 0.06 1.37
-9.36 0.08 1.38
-8.57 0.09 1.44
-8.96 0.12 1.41
-5.47 0.13 1.70
-12.70 0.39 1.10
-12.76 0.42 1.09
-12.86 0.46 1.08
-14.38 0.54 0.96
-3.89 0.16 1.83
-5.87 0.26 1.66
-6.26 0.29 1.63
-6.54 0.32 1.61
-6.51 0.33 1.61
-7.37 0.39 1.54
-13.55 0.74 1.02
-7.00 0.41 1.57
-6.90 0.42 1.58
-6.58 0.42 1.60
-6.99 0.46 1.57
-6.80 0.47 1.58
-6.85 0.49 1.58
-6.73 0.50 1.59
-13.35 1.00 1.03
-6.77 0.53 1.58
-6.78 0.55 1.58
-6.73 0.57 1.59
-6.99 0.60 1.56
-6.95 0.62 1.57
-6.83 0.63 1.58
-6.81 0.64 1.58
-6.93 0.67 1.57
-6.55 0.65 1.60
-13.69 1.36 1.00
-13.63 1.39 1.01
-6.85 0.73 1.57
-7.08 0.77 1.55
-7.11 0.80 1.55
-7.38 0.88 1.53
-7.59 1.06 1.51
-7.67 1.11 1.50
-7.72 1.13 1.49
-7.87 1.28 1.48
-6.98 1.18 1.55
-7.16 1.22 1.54
-7.23 1.40 1.53
-3.56 1.10 1.83
-3.57 1.17 1.83
-3.36 1.12 1.84
-3.52 1.30 1.82
-3.39 1.60 1.82
-3.31 1.58 1.83
-10.09 -1.65 1.14
-10.50 -1.58 1.11
-10.08 -1.50 1.15
-6.34 -1.03 1.45
-5.78 -0.95 1.50
-5.56 -0.91 1.52
-5.66 -0.84 1.51
-5.91 -0.84 1.49
-9.17 -1.08 1.22
-9.27 -1.07 1.21
-8.99 -1.01 1.23
-8.95 -0.98 1.24
-9.18 -0.97 1.22
-8.92 -0.93 1.24
-9.78 -0.96 1.17
-8.34 -0.83 1.29
-9.83 -0.91 1.16
-9.68 -0.87 1.18
-9.62 -0.84 1.18
-8.64 -0.72 1.26
-8.52 -0.66 1.27
-8.45 -0.63 1.28
-9.06 -0.50 1.41
-9.00 -0.48 1.41
-8.34 -0.40 1.47
-8.87 -0.41 1.42
-7.86 -0.34 1.50
-7.65 -0.32 1.52
-8.01 -0.31 1.49
-7.93 -0.29 1.50
-9.75 -0.33 1.35
-8.70 -0.27 1.43
-9.19 -0.26 1.39
-7.85 -0.21 1.50
-8.84 -0.21 1.42
-9.14 -0.19 1.40
-9.16 -0.17 1.40
-9.41 -0.15 1.38
-9.30 -0.13 1.38
-9.37 -0.11 1.38
-9.42 -0.08 1.37
-9.38 -0.06 1.38
-9.25 -0.04 1.39
-9.39 -0.01 1.38
-7.59 0.00 1.29
-7.04 0.03 1.34
-8.26 0.13 1.42
-8.60 0.18 1.39
-8.66 0.20 1.39
-12.56 0.32 1.04
-13.54 0.71 0.95
-13.32 0.73 0.97
-6.78 0.40 1.55
-13.56 0.81 0.95
-13.16 0.82 0.98
-7.00 0.48 1.53
-7.11 0.50 1.52
-7.02 0.53 1.52
-6.92 0.54 1.53
-6.95 0.56 1.53
-6.83 0.57 1.54
-6.93 0.60 1.53
-6.88 0.61 1.54
-13.56 1.24 0.94
-13.69 1.29 0.93
-13.77 1.33 0.92
-13.72 1.39 0.92
-13.87 1.44 0.91
-13.87 1.48 0.91
-13.84 1.51 0.91
-13.92 1.55 0.90
-13.68 1.56 0.92
-7.48 1.17 1.47
-3.53 1.21 1.81
-5.86 -1.00 1.45
-8.74 -1.07 1.19
-8.71 -1.04 1.20
-9.41 -0.96 1.14
-8.04 -0.40 1.25
-8.01 -0.37 1.26
-7.99 -0.35 1.26
-8.21 -0.33 1.24
-8.18 -0.28 1.24
-8.48 -0.26 1.21
-8.58 -0.21 1.21
-8.62 -0.16 1.20
-8.59 -0.13 1.20
-7.92 -0.10 1.26
-7.63 -0.07 1.29
-9.30 0.01 1.27
-8.19 0.03 1.38
-8.61 0.05 1.34
-8.20 0.07 1.38
-8.55 0.09 1.34
-8.50 0.11 1.35
-8.52 0.16 1.34
-8.52 0.18 1.34
-8.57 0.20 1.34
-5.73 0.15 1.61
-8.35 0.26 1.36
-15.51 0.62 0.68
-12.97 0.58 0.92
-14.51 0.72 0.77
-6.97 0.39 1.49
-6.97 0.41 1.49
-7.37 0.45 1.45
-7.02 0.45 1.48
-7.34 0.48 1.45
-7.26 0.50 1.46
-13.09 0.91 0.90
-13.04 0.94 0.91
-7.05 0.54 1.48
-7.13 0.56 1.47
-7.01 0.57 1.48
-6.87 0.58 1.49
-6.86 0.59 1.49
-7.02 0.62 1.48
-6.86 0.63 1.49
-6.94 0.65 1.48
-7.12 0.69 1.47
-4.42 0.45 1.72
-7.01 0.71 1.48
-6.92 0.72 1.49
-6.91 0.74 1.49
-7.09 0.77 1.47
-7.02 0.78 1.47
-6.70 0.77 1.50
-6.75 0.79 1.50
-13.82 1.61 0.82
-13.98 1.66 0.81
-13.86 1.68 0.82
-6.61 0.94 1.51
-6.93 1.04 1.48
-7.25 1.69 1.43
-3.89 -1.07 1.58
-9.51 -1.37 1.06
-9.32 -1.33 1.07
-9.08 -1.24 1.09
-9.37 -1.10 1.07
-9.24 -0.98 1.08
-9.17 -0.94 1.09
-8.74 -0.72 1.13
-8.42 -0.60 1.16
-8.21 -0.53 1.18
-8.59 -0.45 1.14
-8.30 -0.41 1.17
-8.03 -0.37 1.19
-8.33 -0.36 1.16
-8.10 -0.33 1.18
-8.39 -0.31 1.16
-8.39 -0.28 1.16
-8.34 -0.26 1.16
-8.08 -0.23 1.18
-7.50 -0.19 1.24
-8.96 -0.12 1.31
-7.84 -0.09 1.41
-8.16 -0.07 1.38
-8.87 -0.06 1.31
-9.24 -0.04 1.28
-8.77 -0.01 1.32
-7.44 0.00 1.18
-6.81 0.02 1.25
-6.30 0.04 1.30
-6.69 0.07 1.26
-7.72 0.10 1.15
-7.91 0.13 1.13
-6.84 0.14 1.24
-6.89 0.16 1.24
-7.20 0.19 1.21
-7.09 0.21 1.22
-12.65 0.35 0.88
-8.51 0.26 1.29
-7.93 0.28 1.35
-12.81 0.54 0.86
-13.67 0.65 0.77
-13.21 0.66 0.82
-13.72 0.72 0.76
-13.58 0.74 0.78
-13.48 0.77 0.79
-13.51 0.84 0.78
-13.43 0.87 0.79
-7.13 0.49 1.43
-7.11 0.50 1.43
-6.99 0.51 1.44
-7.08 0.54 1.43
-7.23 0.57 1.41
-7.21 0.60 1.42
-4.23 0.37 1.72
-7.21 0.64 1.42
-7.22 0.66 1.41
-7.02 0.66 1.43
-7.03 0.68 1.43
-7.05 0.70 1.43
-7.20 0.75 1.41
-6.95 0.74 1.44
-6.87 0.75 1.45
-13.43 1.49 0.78
-4.08 0.49 1.73
-7.29 0.87 1.40
-3.61 0.82 1.76
-3.54 0.86 1.77
-3.33 0.98 1.79
-3.39 1.03 1.78
-3.35 1.08 1.78
-3.37 1.17 1.77
-3.56 1.28 1.75
-3.27 1.35 1.77
-3.21 1.44 1.78
-3.21 1.45 1.77
-3.49 1.64 1.74
-1.58 -1.23 1.77
-3.32 -1.03 1.60
-2.72 -0.90 1.66
-9.12 -1.61 1.02
-9.49 -1.57 0.98
-9.51 -1.55 0.98
-9.62 -1.39 0.97
-9.01 -1.29 1.03
-9.21 -1.28 1.01
-9.05 -1.24 1.03
-9.42 -1.16 0.99
-9.51 -1.14 0.98
-8.76 -1.05 1.06
-8.95 -1.04 1.04
-8.84 -1.00 1.05
-9.04 -0.99 1.03
-7.86 -0.76 1.15
-8.36 -0.77 1.10
-7.85 -0.71 1.15
-8.93 -0.71 1.04
-8.64 -0.66 1.07
-9.53 -0.63 0.98
-8.09 -0.53 1.12
-9.29 -0.50 1.00
-8.29 -0.41 1.10
-8.20 -0.38 1.11
-8.55 -0.37 1.08
-8.36 -0.33 1.10
-8.51 -0.31 1.08
-8.26 -0.28 1.10
-6.22 -0.21 1.31
-8.34 -0.23 1.10
-8.38 -0.21 1.09
-8.51 -0.18 1.08
-6.94 -0.13 1.24
-7.68 -0.12 1.16
-7.05 -0.09 1.22
-7.37 -0.07 1.19
-7.30 -0.04 1.20
-7.94 -0.02 1.13
-8.53 0.01 1.23
-8.33 0.03 1.25
-8.36 0.05 1.25
-8.61 0.07 1.22
-8.38 0.09 1.25
-8.48 0.11 1.24
-8.48 0.13 1.24
-8.54 0.16 1.23
-8.21 0.17 1.27
-8.44 0.20 1.24
-7.83 0.20 1.31
-7.94 0.26 1.29
-13.39 0.54 0.71
-13.46 0.57 0.70
-13.08 0.59 0.74
-13.37 0.63 0.71
-13.93 0.69 0.65
-13.69 0.72 0.68
-13.58 0.74 0.69
-13.72 0.78 0.67
-13.63 0.81 0.68
-5.46 0.35 1.56
-7.38 0.49 1.35
-7.65 0.52 1.32
-7.33 0.52 1.35
-7.18 0.53 1.37
-7.30 0.55 1.36
-4.72 0.38 1.63
-7.20 0.58 1.37
-7.20 0.60 1.37
-7.06 0.61 1.38
-6.81 0.61 1.41
-6.94 0.63 1.39
-7.06 0.66 1.38
-7.02 0.68 1.38
-7.06 0.70 1.38
-6.95 0.71 1.39
-4.29 0.46 1.68
-4.52 0.49 1.65
-7.15 0.78 1.37
-4.33 0.50 1.67
-6.99 0.80 1.38
-7.32 0.85 1.35
-7.01 0.84 1.38
-7.70 0.93 1.31
-7.39 1.20 1.33
-7.47 1.25 1.32
-7.54 1.36 1.31
-7.92 1.51 1.27
-7.50 1.53 1.31
-7.46 1.60 1.31
-7.25 1.62 1.33
-7.13 1.61 1.35
-6.93 1.59 1.37
-7.31 1.69 1.32
-3.48 1.04 1.74
-3.73 1.34 1.70
-3.48 1.29 1.73
-3.80 1.57 1.68
-3.59 1.51 1.71
-3.22 1.48 1.75
-3.39 1.55 1.72
-3.61 -1.54 1.53
-2.10 -1.06 1.69
-3.24 -1.24 1.57
-2.36 -1.04 1.66
-4.67 -1.34 1.42
-3.78 -1.04 1.51
-4.27 -1.10 1.46
-1.97 -0.69 1.70
-4.45 -1.05 1.44
-2.49 -0.74 1.65
-8.21 -1.51 1.04
-8.40 -1.51 1.02
-8.49 -1.47 1.01
-9.38 -1.48 0.92
-1.85 -0.53 1.72
-8.94 -1.37 0.96
-4.94 -0.87 1.39
-4.93 -0.85 1.39
-8.73 -1.26 0.99
-9.11 -1.28 0.95
-8.85 -1.22 0.97
-8.74 -1.18 0.98
-8.60 -1.14 1.00
-8.53 -1.11 1.01
-8.64 -1.09 1.00
-8.71 -1.07 0.99
-8.54 -1.03 1.01
-8.72 -1.02 0.99
-8.56 -0.98 1.00
-9.01 -0.99 0.96
-4.26 -0.53 1.46
-4.40 -0.53 1.45
-4.01 -0.48 1.49
-8.01 -0.70 1.06
-4.21 -0.43 1.46
-8.02 -0.65 1.06
-7.83 -0.59 1.08
-9.45 -0.65 0.91
-9.34 -0.62 0.92
-9.05 -0.58 0.95
-8.69 -0.51 0.99
-8.98 -0.49 0.96
-8.76 -0.46 0.98
-8.12 -0.40 1.05
-8.64 -0.31 1.23
-8.71 -0.29 1.22
-8.67 -0.27 1.22
-9.22 -0.26 1.16
-9.13 -0.24 1.17
-8.92 -0.21 1.20
-9.12 -0.19 1.17
-9.07 -0.17 1.18
-9.00 -0.15 1.19
-8.66 -0.12 1.22
-8.63 -0.10 1.22
-5.83 -0.05 1.52
-8.59 -0.06 1.23
-8.95 -0.04 1.19
-8.58 -0.01 1.23
-7.81 0.00 1.01
-7.86 0.03 1.01
-6.83 0.05 1.12
-7.35 0.07 1.06
-6.85 0.09 1.12
-6.35 0.11 1.18
-6.12 0.12 1.20
-7.08 0.16 1.09
-6.34 0.17 1.18
-7.22 0.28 1.08
-7.49 0.34 1.04
-7.61 0.36 1.03
-12.77 0.64 0.69
-13.14 0.69 0.65
-13.18 0.72 0.64
-13.30 0.76 0.63
-13.09 0.88 0.65
-13.14 0.91 0.64
-13.09 0.94 0.65
-13.10 0.97 0.65
-13.23 1.05 0.63
-13.41 1.09 0.61
-13.34 1.12 0.62
-13.47 1.16 0.60
-13.39 1.19 0.61
-13.41 1.23 0.61
-13.41 1.26 0.61
-13.40 1.32 0.61
-13.23 1.37 0.63
-13.86 1.47 0.55
-3.36 1.26 1.72
-3.07 1.44 1.74
-7.82 -1.58 1.01
-8.32 -1.52 0.96
-8.99 -1.37 0.88
-8.62 -1.27 0.93
-8.55 -1.24 0.93
-8.60 -1.19 0.93
-8.55 -1.16 0.93
-8.50 -1.13 0.94
-8.85 -1.14 0.90
-8.79 -1.10 0.91
-8.91 -1.09 0.89
-8.87 -1.06 0.90
-9.22 -1.06 0.86
-9.36 -0.99 0.84
-8.36 -0.28 0.95
-7.87 -0.22 1.01
-8.01 -0.20 0.99
-8.29 -0.18 0.96
-7.84 -0.15 1.01
-7.08 -0.11 1.10
-7.67 -0.10 1.03
-8.72 0.03 1.09
-8.66 0.05 1.10
-9.01 0.07 1.06
-8.26 0.11 1.15
-8.27 0.13 1.14
-8.31 0.15 1.14
-8.16 0.17 1.16
-12.91 0.30 0.59
-13.29 0.37 0.54
-13.02 0.39 0.57
-13.76 0.48 0.48
-13.18 0.49 0.55
-13.78 0.62 0.48
-13.44 0.64 0.52
-13.83 0.72 0.47
-13.21 0.76 0.54
-13.09 0.88 0.56
-13.66 0.95 0.49
-12.92 0.93 0.57
-13.23 0.98 0.54
-13.33 1.02 0.52
-13.11 1.04 0.55
-13.50 1.10 0.50
-13.30 1.12 0.52
-13.34 1.16 0.52
-13.29 1.18 0.53
-13.45 1.23 0.50
-13.50 1.27 0.50
-13.27 1.28 0.53
-13.38 1.32 0.51
-13.30 1.35 0.52
-13.91 1.44 0.45
-3.10 1.29 1.71
-8.29 -1.63 0.88
-8.62 -1.60 0.84
-8.56 -1.54 0.85
-8.77 -1.48 0.83
-8.35 -1.35 0.88
-8.00 -1.26 0.92
-8.55 -1.30 0.85
-8.60 -1.28 0.85
-8.39 -1.22 0.87
-8.65 -1.23 0.84
-8.40 -1.17 0.87
-8.21 -1.13 0.90
-8.66 -1.12 0.84
-8.33 -1.06 0.88
-8.83 -1.08 0.82
-8.77 -1.05 0.83
-8.51 -0.97 0.86
-8.57 -0.90 0.85
-8.91 -0.90 0.81
-8.63 -0.85 0.85
-8.73 -0.49 1.09
-9.23 -0.49 1.03
-8.83 -0.45 1.08
-8.45 -0.41 1.13
-8.48 -0.39 1.12
-9.44 -0.41 1.01
-8.31 -0.34 1.14
-8.59 -0.33 1.11
-8.93 -0.32 1.07
-8.54 -0.29 1.12
-9.02 -0.28 1.06
-8.26 -0.24 1.15
-9.41 -0.25 1.01
-8.83 -0.21 1.08
-9.01 -0.19 1.06
-9.30 -0.18 1.02
-9.27 -0.15 1.03
-8.82 -0.10 1.08
-8.87 -0.08 1.07
-8.84 -0.06 1.08
-8.52 -0.04 1.12
-8.79 -0.01 1.08
-7.18 0.00 0.95
-7.47 0.02 0.91
-8.73 0.05 1.03
-8.63 0.07 1.04
-8.32 0.09 1.08
-8.36 0.11 1.08
-8.32 0.13 1.08
-8.48 0.15 1.06
-8.19 0.17 1.10
-8.15 0.19 1.10
-8.25 0.21 1.09
-8.30 0.23 1.08
-6.46 0.20 1.31
-8.05 0.27 1.11
-7.99 0.28 1.12
-13.83 0.58 0.38
-13.73 0.61 0.39
-13.19 0.62 0.46
-13.23 0.66 0.45
-14.06 0.73 0.34
-7.44 0.41 1.19
-7.27 0.44 1.21
-7.12 0.45 1.23
-6.92 0.45 1.25
-6.84 0.47 1.26
-6.90 0.49 1.25
-6.94 0.51 1.25
-7.08 0.54 1.23
-6.86 0.54 1.26
-6.79 0.55 1.27
-13.44 1.10 0.42
-13.22 1.11 0.44
-13.25 1.15 0.44
-13.34 1.19 0.43
-6.69 0.63 1.28
-6.86 0.66 1.25
-6.86 0.68 1.25
-6.73 0.68 1.27
-7.29 0.86 1.20
-6.71 0.83 1.27
-7.38 1.52 1.16
-3.22 1.04 1.69
-3.24 1.08 1.69
-3.22 1.28 1.68
-3.27 1.33 1.67
-3.55 1.59 1.62
-1.96 -0.93 1.61
-1.99 -0.93 1.61
-1.84 -0.86 1.63
-1.42 -0.63 1.68
-8.17 -1.69 0.83
-8.08 -1.65 0.84
-8.29 -1.65 0.81
-8.11 -1.60 0.83
-8.33 -1.61 0.81
-8.42 -1.59 0.80
-8.60 -1.59 0.77
-8.77 -1.59 0.75
-8.81 -1.57 0.75
-8.29 -1.47 0.81
-8.82 -1.52 0.75
-8.59 -1.46 0.77
-8.53 -1.42 0.78
-8.44 -1.39 0.79
-8.32 -1.35 0.81
-8.63 -1.36 0.77
-8.46 -1.31 0.79
-8.20 -1.25 0.82
-8.18 -1.23 0.83
-8.14 -1.19 0.83
-8.20 -1.18 0.82
-8.43 -1.18 0.80
-8.39 -1.14 0.80
-8.31 -1.11 0.81
-8.24 -1.08 0.82
-8.18 -1.05 0.83
-8.28 -1.03 0.82
-8.55 -1.03 0.78
-8.36 -0.99 0.80
-8.24 -0.95 0.82
-8.26 -0.90 0.82
-8.23 -0.87 0.82
-8.18 -0.84 0.83
-8.31 -0.83 0.81
-8.32 -0.80 0.81
-7.74 -0.71 0.88
-7.80 -0.69 0.88
-7.78 -0.66 0.88
-9.15 -0.72 0.70
-7.95 -0.62 0.86
-9.03 -0.66 0.72
-8.73 -0.62 0.76
-7.68 -0.49 0.89
-7.85 -0.47 0.87
-8.61 -0.45 0.77
-7.54 -0.36 0.91
-7.57 -0.34 0.90
-7.40 -0.31 0.92
-7.50 -0.29 0.91
-7.61 -0.27 0.90
-8.19 -0.26 0.82
-7.60 -0.22 0.90
-7.51 -0.19 0.91
-7.14 -0.16 0.96
-7.59 -0.14 0.90
-7.68 -0.12 0.89
-7.94 -0.10 0.85
-7.77 -0.07 0.88
-7.70 -0.05 0.88
-7.39 -0.02 0.92
-8.63 0.01 0.98
-8.66 0.03 0.97
-8.66 0.05 0.97
-8.78 0.07 0.96
-8.55 0.09 0.99
-8.92 0.12 0.94
-9.02 0.14 0.92
-9.14 0.16 0.91
-9.05 0.18 0.92
-9.10 0.21 0.91
-8.72 0.22 0.96
-8.04 0.22 1.05
-7.73 0.24 1.09
-7.97 0.26 1.06
-8.15 0.29 1.04
-8.15 0.31 1.04
-8.31 0.34 1.02
-13.68 0.58 0.29
-8.25 0.37 1.02
-13.78 0.65 0.28
-7.90 0.40 1.07
-14.10 0.73 0.23
-7.21 0.42 1.16
-7.04 0.43 1.18
-7.05 0.45 1.18
-6.98 0.46 1.19
-6.96 0.47 1.19
-6.81 0.48 1.21
-6.94 0.51 1.19
-6.69 0.51 1.23
-6.76 0.53 1.22
-6.88 0.56 1.20
-6.85 0.57 1.20
-6.92 0.60 1.19
-6.97 0.62 1.19
-6.97 0.63 1.19
-6.84 0.64 1.20
-6.76 0.65 1.22
-6.87 0.68 1.20
-6.80 0.69 1.21
-6.86 0.71 1.20
-6.86 0.73 1.20
-7.08 0.77 1.17
-3.93 0.45 1.60
-7.28 0.83 1.14
-7.41 0.86 1.12
-7.64 0.90 1.09
-7.31 0.89 1.14
-7.39 0.91 1.12
-7.22 0.91 1.15
-7.13 0.92 1.16
-7.65 1.00 1.09
-7.34 0.98 1.13
-6.00 0.87 1.31
-7.16 1.07 1.15
-7.10 1.08 1.16
-7.04 1.09 1.17
-6.97 1.12 1.17
-5.98 1.03 1.31
-7.29 1.35 1.12
-7.73 1.53 1.06
-7.84 1.59 1.04
-7.64 1.60 1.07
-3.56 1.14 1.61
-1.31 -1.48 1.65
-2.49 -1.09 1.51
-1.94 -0.89 1.58
-2.09 -0.89 1.56
-2.57 -0.97 1.50
-5.23 -1.19 1.14
-8.22 -1.59 0.74
-8.58 -1.62 0.69
-4.59 -1.02 1.23
-8.58 -1.57 0.69
-8.45 -1.52 0.71
-5.25 -1.06 1.14
-8.45 -1.47 0.71
-8.45 -1.42 0.71
-8.59 -1.41 0.69
-8.65 -1.39 0.69
-4.78 -0.89 1.20
-8.54 -1.32 0.70
-2.00 -0.53 1.58
-4.99 -0.86 1.18
-1.88 -0.48 1.59
-8.21 -1.15 0.75
-8.10 -1.12 0.76
-8.16 -1.10 0.75
-8.27 -1.08 0.74
-8.02 -1.03 0.77
-8.16 -1.02 0.75
-8.07 -0.96 0.76
-8.07 -0.93 0.76
-8.34 -0.93 0.73
-8.02 -0.88 0.77
-3.60 -0.50 1.36
-3.35 -0.46 1.40
-3.32 -0.45 1.40
-3.42 -0.42 1.39
-3.63 -0.42 1.36
-3.44 -0.40 1.38
-3.52 -0.39 1.37
-3.61 -0.38 1.36
-3.55 -0.36 1.37
-3.66 -0.35 1.35
-3.55 -0.32 1.37
-3.54 -0.30 1.37
-3.63 -0.29 1.36
-3.58 -0.28 1.36
-3.81 -0.27 1.33
-3.71 -0.25 1.35
-3.61 -0.23 1.36
-3.73 -0.21 1.34
-7.19 -0.30 0.88
-7.54 -0.29 0.83
-7.48 -0.26 0.84
-7.54 -0.24 0.83
-7.52 -0.22 0.84
-7.69 -0.20 0.81
-8.55 -0.12 0.99
-4.86 -0.06 1.48
-8.77 -0.08 0.96
-8.70 -0.06 0.97
-8.70 -0.04 0.97
-8.68 -0.02 0.97
-5.80 -0.00 1.00
-5.21 0.02 1.09
-7.14 0.05 0.81
-7.04 0.07 0.83
-5.59 0.08 1.03
-7.19 0.11 0.81
-7.13 0.14 0.81
-4.80 0.12 1.14
-4.92 0.14 1.13
-7.36 0.21 0.78
-5.44 0.19 1.05
-8.10 0.23 0.99
-8.13 0.25 0.98
-8.11 0.27 0.98
-8.02 0.28 1.00
-8.12 0.31 0.98
-8.08 0.33 0.99
-8.28 0.35 0.96
-8.20 0.37 0.97
-7.00 0.39 1.14
-6.82 0.41 1.16
-6.75 0.43 1.17
-6.76 0.44 1.17
-6.76 0.46 1.17
-6.83 0.48 1.16
-6.85 0.50 1.16
-6.67 0.51 1.18
-6.85 0.54 1.16
-6.68 0.54 1.18
-7.04 0.64 1.13
-7.03 0.66 1.13
-6.95 0.67 1.14
-6.90 0.68 1.14
-6.92 0.70 1.14
-6.86 0.71 1.15
-7.00 0.74 1.13
-7.00 0.76 1.13
-7.15 0.79 1.11
-7.15 0.81 1.11
-7.41 0.86 1.07
-7.41 0.88 1.07
-7.32 0.89 1.08
-7.18 0.89 1.10
-7.21 0.91 1.09
-6.92 0.89 1.14
-6.81 0.90 1.15
-7.79 1.14 1.01
-7.80 1.16 1.00
-7.59 1.25 1.03
-7.43 1.28 1.05
-7.34 1.28 1.06
-7.28 1.35 1.07
-7.60 1.50 1.02
-7.72 1.55 1.00
-7.67 1.62 1.01
-7.83 1.67 0.98
-3.33 1.65 1.58
-2.41 -1.30 1.48
-1.74 -0.96 1.58
-1.69 -0.85 1.59
-1.71 -0.84 1.59
-8.49 -1.68 0.63
-8.71 -1.69 0.60
-8.56 -1.64 0.62
-8.81 -1.65 0.58
-8.45 -1.57 0.63
-8.44 -1.54 0.63
-8.69 -1.55 0.60
-8.14 -1.45 0.68
-8.59 -1.49 0.61
-8.30 -1.42 0.66
-8.57 -1.43 0.62
-8.34 -1.37 0.65
-8.44 -1.36 0.64
-5.46 -0.97 1.06
-8.41 -1.30 0.64
-8.18 -1.25 0.67
-8.26 -1.23 0.66
-8.41 -1.23 0.64
-8.61 -1.22 0.61
-8.10 -1.14 0.68
-8.03 -1.11 0.69
-8.24 -1.10 0.66
-7.97 -1.05 0.70
-8.11 -1.04 0.68
-7.89 -0.99 0.71
-7.92 -0.97 0.71
-7.73 -0.93 0.74
-7.85 -0.91 0.72
-7.73 -0.88 0.74
-8.04 -0.88 0.69
-8.03 -0.86 0.69
-7.91 -0.82 0.71
-7.95 -0.80 0.71
-7.75 -0.76 0.73
-7.93 -0.75 0.71
-8.11 -0.73 0.68
-3.40 -0.39 1.35
-7.74 -0.66 0.73
-8.03 -0.65 0.69
-3.54 -0.36 1.33
-7.57 -0.58 0.76
-3.69 -0.34 1.31
-3.84 -0.33 1.28
-3.64 -0.31 1.31
-3.58 -0.29 1.32
-3.72 -0.28 1.30
-3.59 -0.26 1.32
-7.51 -0.41 0.77
-7.67 -0.39 0.74
-7.71 -0.37 0.74
-7.89 -0.35 0.71
-7.44 -0.31 0.78
-3.66 -0.18 1.31
-3.79 -0.16 1.29
-7.47 -0.24 0.77
-7.49 -0.22 0.77
-7.42 -0.19 0.78
-7.31 -0.16 0.79
-7.25 -0.14 0.80
-7.18 -0.12 0.81
-7.19 -0.09 0.81
-7.33 -0.07 0.79
-7.32 -0.05 0.79
-3.90 -0.01 1.27
-8.69 0.00 0.83
-8.81 0.03 0.81
-8.85 0.05 0.81
-8.21 0.09 0.90
-8.68 0.13 0.83
-8.85 0.18 0.81
-5.86 0.14 1.25
-8.38 0.21 0.88
-8.09 0.25 0.92
-8.15 0.29 0.91
-6.17 0.25 1.20
-5.75 0.25 1.27
-5.80 0.27 1.26
-7.90 0.40 0.94
-6.79 0.38 1.11
-6.52 0.40 1.15
-6.79 0.43 1.11
-6.86 0.45 1.10
-6.76 0.48 1.11
-6.63 0.50 1.13
-6.84 0.55 1.10
-6.54 0.55 1.14
-6.52 0.56 1.14
-6.71 0.61 1.11
-6.71 0.65 1.11
-6.85 0.69 1.09
-7.19 0.74 1.04
-7.15 0.76 1.05
-7.17 0.80 1.04
-7.41 0.86 1.00
-7.31 0.89 1.02
-7.46 0.92 1.00
-7.23 0.91 1.03
-7.66 1.00 0.96
-7.55 1.03 0.98
-7.66 1.08 0.96
-7.67 1.10 0.96
-7.65 1.12 0.96
-7.55 1.15 0.97
-7.46 1.23 0.99
-7.54 1.26 0.97
-7.35 1.31 1.00
-7.48 1.39 0.98
-7.60 1.47 0.96
-7.84 1.55 0.92
-7.70 1.57 0.94
-7.52 1.55 0.96
-4.94 1.09 1.36
-4.18 0.96 1.47
-2.80 -1.28 1.38
-2.66 -0.97 1.41
-4.80 -1.17 1.09
-8.44 -1.65 0.55
-8.65 -1.66 0.51
-8.40 -1.59 0.55
-8.31 -1.56 0.57
-8.35 -1.53 0.56
-8.54 -1.54 0.53
-8.19 -1.46 0.58
-8.38 -1.46 0.56
-4.20 -0.88 1.18
-8.16 -1.38 0.59
-8.13 -1.35 0.59
-8.11 -1.32 0.60
-8.27 -1.32 0.57
-8.29 -1.29 0.57
-8.42 -1.28 0.55
-8.45 -1.26 0.55
-8.25 -1.21 0.58
-8.41 -1.20 0.55
-8.14 -1.15 0.59
-7.93 -1.10 0.62
-8.31 -1.11 0.57
-7.70 -1.03 0.66
-7.98 -1.03 0.62
-8.00 -1.01 0.61
-7.89 -0.97 0.63
-3.62 -0.56 1.27
-3.49 -0.53 1.28
-3.69 -0.53 1.26
-3.52 -0.50 1.28
-3.47 -0.49 1.29
-3.43 -0.47 1.29
-3.48 -0.46 1.29
-3.48 -0.44 1.29
-3.49 -0.43 1.28
-3.40 -0.41 1.30
-3.40 -0.40 1.30
-3.41 -0.38 1.30
-3.28 -0.36 1.32
-3.41 -0.35 1.30
-3.43 -0.34 1.29
-3.39 -0.32 1.30
-3.32 -0.31 1.31
-3.42 -0.30 1.30
-3.72 -0.30 1.25
-3.52 -0.27 1.28
-3.52 -0.26 1.28
-3.62 -0.25 1.26
-3.47 -0.23 1.29
-7.58 -0.26 1.00
-7.41 -0.22 1.03
-8.19 -0.20 0.91
-8.37 -0.16 0.88
-7.44 -0.13 1.02
-8.34 -0.12 0.89
-7.92 -0.07 0.95
-8.25 -0.04 0.90
-6.31 0.06 0.80
-6.85 0.18 0.71
-7.10 0.20 0.67
-7.02 0.23 0.69
-7.14 0.25 0.67
-7.17 0.28 0.66
-6.92 0.29 0.70
-7.11 0.32 0.67
-7.01 0.34 0.69
-7.01 0.36 0.69
-7.08 0.39 0.67
-6.90 0.40 0.70
-5.29 0.32 1.30
-5.04 0.32 1.34
-7.60 0.80 0.92
-7.39 0.91 0.95
-7.55 0.95 0.93
-7.45 0.96 0.94
-7.65 1.02 0.91
-7.59 1.19 0.91
-7.80 1.26 0.88
-3.25 0.84 1.59
-3.47 0.90 1.55
-3.50 1.02 1.54
-3.38 1.16 1.55
-1.35 -0.80 1.58
-8.40 -1.64 0.48
-8.51 -1.63 0.46
-8.38 -1.59 0.48
-8.50 -1.58 0.46
-8.79 -1.59 0.42
-8.57 -1.54 0.45
-8.33 -1.45 0.49
-8.16 -1.40 0.52
-8.23 -1.39 0.50
-8.06 -1.34 0.53
-8.39 -1.35 0.48
-8.45 -1.34 0.47
-8.53 -1.32 0.46
-8.52 -1.29 0.46
-8.54 -1.24 0.46
-8.77 -1.24 0.42
-8.80 -1.22 0.42
-8.74 -1.18 0.43
-8.03 -1.08 0.54
-8.01 -1.05 0.54
-8.00 -1.03 0.54
-8.02 -1.01 0.54
-8.33 -1.01 0.49
-8.22 -0.97 0.51
-8.03 -0.93 0.54
-8.08 -0.91 0.53
-8.40 -0.91 0.48
-8.60 -0.90 0.45
-8.39 -0.86 0.48
-8.69 -0.86 0.43
-8.32 -0.80 0.49
-3.18 -0.41 1.29
-8.49 -0.76 0.47
-3.38 -0.39 1.26
-8.63 -0.72 0.44
-8.44 -0.68 0.47
-3.22 -0.34 1.29
-7.46 -0.57 0.63
-9.32 -0.65 0.34
-8.37 -0.57 0.48
-8.52 -0.55 0.46
-8.13 -0.51 0.52
-8.53 -0.50 0.46
-8.21 -0.46 0.51
-7.95 -0.43 0.55
-6.84 -0.36 0.72
-7.77 -0.37 0.58
-7.56 -0.34 0.61
-6.31 -0.27 0.80
-8.48 -0.32 0.47
-7.33 -0.26 0.64
-8.06 -0.25 0.53
-8.24 -0.23 0.50
-6.08 -0.16 0.84
-5.98 -0.14 0.85
-8.26 -0.16 0.50
-7.83 -0.13 0.57
-7.16 -0.09 0.67
-7.24 -0.07 0.66
-9.32 0.00 0.59
-9.11 0.03 0.62
-8.81 0.05 0.67
-8.68 0.07 0.69
-8.83 0.09 0.67
-8.35 0.11 0.75
-8.12 0.12 0.79
-8.08 0.14 0.79
-8.08 0.16 0.79
-8.05 0.18 0.80
-7.99 0.20 0.80
-7.98 0.22 0.81
-8.04 0.24 0.80
-7.92 0.26 0.82
-8.01 0.28 0.80
-7.96 0.30 0.81
-7.79 0.31 0.84
-6.44 0.33 1.06
-5.01 0.27 1.29
-6.41 0.36 1.06
-6.44 0.38 1.06
-6.83 0.41 0.99
-6.86 0.43 0.99
-6.48 0.43 1.05
-6.76 0.46 1.00
-6.45 0.47 1.05
-7.59 0.57 0.86
-7.51 0.59 0.88
-6.40 0.52 1.06
-6.65 0.56 1.02
-7.49 0.64 0.88
-4.91 0.44 1.30
-7.66 0.69 0.85
-7.49 0.70 0.88
-7.67 0.73 0.85
-7.73 0.76 0.83
-7.65 0.77 0.85
-7.53 0.78 0.87
-7.51 0.79 0.87
-7.65 0.83 0.85
-7.73 0.86 0.83
-7.42 0.84 0.88
-7.47 0.87 0.87
-7.45 0.88 0.88
-7.58 0.92 0.85
-7.49 0.93 0.87
-7.44 0.94 0.88
-7.44 0.96 0.88
-7.47 0.98 0.87
-7.51 1.01 0.86
-7.62 1.04 0.84
-7.55 1.05 0.85
-7.74 1.11 0.82
-7.78 1.14 0.81
-7.65 1.14 0.83
-7.83 1.19 0.80
-7.68 1.18 0.83
-7.78 1.22 0.81
-7.67 1.22 0.83
-7.77 1.26 0.81
-7.67 1.26 0.83
-7.80 1.30 0.80
-7.70 1.31 0.82
-7.91 1.36 0.78
-7.62 1.33 0.83
-7.61 1.35 0.83
-7.87 1.42 0.79
-7.80 1.42 0.80
-7.74 1.43 0.81
-7.87 1.48 0.79
-7.54 1.44 0.84
-7.75 1.50 0.80
-7.53 1.47 0.84
-7.72 1.53 0.81
-7.71 1.55 0.81
-7.78 1.58 0.80
-7.77 1.60 0.80
-7.92 1.65 0.77
-7.94 1.68 0.77
-4.09 0.93 1.42
-3.15 1.28 1.54
-5.07 -1.20 0.93
-8.48 -1.69 0.37
-4.77 -1.10 0.98
-8.42 -1.63 0.38
-8.49 -1.61 0.37
-8.51 -1.59 0.36
-4.74 -1.03 0.99
-8.25 -1.50 0.41
-8.41 -1.49 0.38
-8.33 -1.46 0.39
-8.51 -1.45 0.36
-8.45 -1.42 0.38
-8.20 -1.36 0.42
-8.29 -1.35 0.40
-8.11 -1.30 0.43
-8.14 -1.28 0.43
-8.14 -1.25 0.43
-3.76 -0.72 1.15
-3.85 -0.72 1.13
-8.06 -1.17 0.44
-7.86 -1.12 0.47
-8.02 -1.11 0.45
-7.86 -1.07 0.47
-7.81 -1.04 0.48
-7.95 -1.03 0.46
-7.91 -1.00 0.47
-7.85 -0.97 0.48
-8.17 -0.97 0.42
-8.04 -0.94 0.44
-3.75 -0.54 1.15
-3.63 -0.52 1.17
-3.56 -0.49 1.18
-3.45 -0.47 1.20
-3.43 -0.46 1.20
-3.41 -0.44 1.20
-3.49 -0.43 1.19
-3.34 -0.41 1.22
-3.49 -0.40 1.19
-3.25 -0.37 1.23
-3.08 -0.35 1.26
-3.11 -0.34 1.25
-3.14 -0.33 1.25
-9.58 -0.54 0.55
-8.31 -0.45 0.76
-8.28 -0.43 0.77
-8.85 -0.43 0.67
-8.82 -0.41 0.68
-8.68 -0.38 0.70
-7.40 -0.31 0.91
-7.62 -0.30 0.87
-7.56 -0.28 0.88
-7.74 -0.27 0.85
-7.54 -0.24 0.89
-7.52 -0.22 0.89
-7.35 -0.20 0.92
-7.21 -0.18 0.94
-7.67 -0.17 0.86
-7.08 -0.14 0.96
-8.28 -0.14 0.76
-8.33 -0.12 0.75
-8.63 -0.10 0.70
-8.76 -0.08 0.68
-8.84 -0.06 0.67
-8.93 -0.04 0.66
-9.05 -0.02 0.64
-3.74 -0.00 1.10
-3.71 0.01 1.10
-8.30 0.06 0.69
-8.08 0.08 0.73
-4.34 0.06 1.37
-4.62 0.07 1.32
-4.53 0.08 1.34
-4.49 0.09 1.35
-4.44 0.10 1.35
-5.16 0.13 1.23
-4.86 0.14 1.28
-4.63 0.14 1.32
-7.83 0.26 0.77
-7.93 0.28 0.75
-7.84 0.29 0.76
-8.01 0.32 0.74
-8.03 0.34 0.73
-4.59 0.21 1.33
-4.79 0.23 1.29
-4.93 0.25 1.27
-4.96 0.27 1.26
-4.98 0.28 1.26
-5.12 0.30 1.23
-5.09 0.31 1.24
-5.45 0.35 1.17
-6.47 0.42 1.00
-6.61 0.45 0.97
-5.96 0.42 1.08
-6.20 0.45 1.04
-7.46 0.56 0.82
-7.87 0.61 0.75
-6.38 0.52 1.01
-7.72 0.66 0.78
-7.81 0.68 0.76
-7.77 0.70 0.77
-7.70 0.71 0.78
-7.53 0.72 0.81
-7.49 0.73 0.81
-7.48 0.75 0.82
-7.51 0.77 0.81
-7.40 0.78 0.83
-7.48 0.81 0.81
-7.69 0.85 0.78
-7.58 0.86 0.79
-7.41 0.86 0.82
-7.37 0.87 0.83
-7.38 0.89 0.83
-7.64 0.94 0.78
-7.50 0.94 0.81
-7.59 0.97 0.79
-7.63 1.00 0.78
-7.57 1.01 0.79
-7.67 1.04 0.77
-7.50 1.04 0.80
-7.57 1.07 0.79
-7.80 1.12 0.75
-7.82 1.14 0.74
-7.79 1.16 0.75
-7.73 1.17 0.76
-7.96 1.22 0.72
-7.93 1.24 0.72
-7.95 1.26 0.72
-3.54 0.60 1.49
-3.71 0.64 1.46
-3.72 0.65 1.46
-3.83 0.68 1.44
-3.65 0.66 1.47
-7.60 1.33 0.77
-3.71 0.69 1.46
-7.68 1.38 0.76
-7.66 1.40 0.76
-7.67 1.42 0.76
-7.78 1.46 0.74
-7.69 1.46 0.75
-7.64 1.47 0.76
-7.71 1.50 0.75
-3.93 0.81 1.41
-7.66 1.53 0.75
-7.65 1.55 0.75
-8.00 1.64 0.69
-4.03 0.88 1.39
-7.99 1.68 0.69
-7.74 1.65 0.74
-3.72 0.91 1.44
-3.53 0.88 1.48
-3.53 0.90 1.48
-3.62 0.99 1.45
-3.60 1.06 1.45
-3.57 1.06 1.46
-3.56 1.07 1.46
-3.46 1.08 1.48
-3.44 1.09 1.48
-3.50 1.13 1.47
-3.64 1.18 1.44
-3.31 1.10 1.50
-3.23 1.11 1.51
-3.30 1.33 1.48
-3.05 1.45 1.51
-1.35 -1.04 1.51
-1.39 -1.04 1.50
-1.50 -0.97 1.49
-1.63 -0.90 1.46
-1.47 -0.86 1.49
-1.91 -0.94 1.41
-1.46 -0.84 1.49
-1.98 -0.89 1.40
-2.01 -0.88 1.40
-1.79 -0.77 1.44
-4.91 -1.17 0.90
-5.01 -1.17 0.88
-4.84 -1.13 0.91
-4.77 -1.10 0.92
-4.86 -1.09 0.91
-4.79 -1.07 0.92
-8.06 -1.52 0.35
-8.14 -1.51 0.34
-8.02 -1.46 0.36
-8.05 -1.44 0.36
-8.08 -1.42 0.35
-4.75 -0.96 0.93
-8.20 -1.39 0.33
-8.13 -1.35 0.34
-4.59 -0.88 0.96
-4.62 -0.87 0.95
-1.51 -0.48 1.49
-7.92 -1.22 0.38
-7.79 -1.18 0.41
-8.12 -1.20 0.35
-7.94 -1.15 0.38
-7.81 -1.11 0.40
-7.74 -1.08 0.41
-7.96 -1.08 0.38
-7.92 -1.05 0.38
-3.29 -0.57 1.18
-3.12 -0.54 1.21
-3.31 -0.54 1.18
-2.91 -0.49 1.25
-3.83 -0.56 1.09
-3.70 -0.53 1.11
-3.42 -0.50 1.16
-3.17 -0.46 1.20
-3.51 -0.48 1.14
-3.34 -0.45 1.17
-3.12 -0.42 1.21
-3.18 -0.41 1.20
-3.19 -0.40 1.20
-3.13 -0.38 1.21
-2.96 -0.35 1.24
-2.84 -0.33 1.26
-2.87 -0.32 1.25
-3.10 -0.32 1.21
-2.81 -0.29 1.26
-2.76 -0.28 1.27
-3.02 -0.28 1.23
-2.99 -0.26 1.23
-2.80 -0.24 1.26
-2.85 -0.23 1.25
-2.88 -0.22 1.25
-2.47 -0.19 1.32
-2.45 -0.18 1.32
-2.58 -0.17 1.30
-7.64 -0.32 0.43
-7.68 -0.29 0.42
-7.64 -0.27 0.43
-5.98 -0.20 0.71
-5.88 -0.18 0.73
-5.69 -0.16 0.76
-3.18 -0.10 1.20
-5.84 -0.12 0.74
-3.40 -0.06 1.16
-3.68 -0.03 1.11
-3.58 -0.02 1.13
-7.66 0.00 0.73
-7.91 0.02 0.69
-7.90 0.04 0.69
-7.64 0.06 0.74
-4.78 0.05 1.25
-5.18 0.07 1.18
-5.41 0.08 1.14
-5.12 0.09 1.19
-5.04 0.10 1.21
-4.98 0.11 1.22
-7.91 0.20 0.69
-5.25 0.15 1.17
-5.74 0.17 1.08
-7.80 0.25 0.70
-7.66 0.27 0.73
-5.13 0.20 1.19
-5.95 0.24 1.04
-5.82 0.25 1.06
-5.26 0.24 1.16
-6.11 0.29 1.01
-5.23 0.27 1.17
-6.74 0.36 0.89
-6.54 0.36 0.93
-6.38 0.37 0.96
-6.77 0.41 0.89
-6.46 0.41 0.94
-6.19 0.41 0.99
-5.92 0.40 1.04
-6.02 0.43 1.02
-6.10 0.45 1.01
-6.25 0.47 0.98
-7.79 0.60 0.70
-7.90 0.63 0.68
-7.73 0.64 0.71
-7.68 0.65 0.72
-7.46 0.66 0.76
-7.45 0.67 0.76
-7.39 0.69 0.77
-7.26 0.69 0.79
-7.43 0.73 0.76
-7.47 0.75 0.75
-7.42 0.76 0.76
-7.68 0.81 0.71
-7.62 0.82 0.72
-7.30 0.81 0.78
-7.35 0.83 0.77
-7.27 0.84 0.78
-7.40 0.87 0.76
-7.35 0.89 0.77
-7.33 0.90 0.77
-7.25 0.91 0.79
-7.31 0.94 0.77
-7.24 0.95 0.79
-7.32 0.98 0.77
-7.24 0.99 0.78
-7.39 1.03 0.76
-7.66 1.08 0.71
-7.83 1.12 0.67
-7.92 1.16 0.66
-8.05 1.19 0.63
-8.05 1.22 0.63
-8.02 1.23 0.64
-8.02 1.25 0.64
-3.75 0.63 1.42
-7.96 1.28 0.64
-7.98 1.31 0.64
-7.98 1.33 0.64
-7.96 1.35 0.64
-7.91 1.36 0.65
-7.90 1.38 0.65
-7.72 1.37 0.68
-5.48 1.00 1.09
-7.68 1.40 0.69
-7.67 1.42 0.69
-7.58 1.42 0.71
-4.93 0.96 1.19
-7.68 1.48 0.69
-7.58 1.48 0.70
-7.62 1.51 0.69
-7.77 1.56 0.67
-7.61 1.55 0.69
-7.63 1.57 0.69
-7.62 1.59 0.69
-7.60 1.61 0.69
-7.59 1.62 0.69
-7.64 1.65 0.68
-4.13 0.94 1.33
-4.59 1.09 1.25
-3.91 1.13 1.36
-3.51 1.04 1.44
-1.97 -1.00 1.37
-2.08 -0.94 1.35
-5.74 -1.59 0.68
-4.93 -1.41 0.83
-5.23 -1.45 0.78
-5.06 -1.38 0.81
-5.14 -1.38 0.79
-3.72 -1.11 1.05
-3.49 -1.05 1.09
-5.02 -1.28 0.81
-5.17 -1.29 0.79
-4.57 -1.17 0.90
-4.90 -1.21 0.84
-4.72 -1.16 0.87
-4.82 -1.16 0.85
-4.79 -1.14 0.86
-4.86 -1.13 0.85
-4.69 -1.09 0.88
-4.67 -1.07 0.88
-4.63 -1.04 0.89
-4.63 -1.03 0.89
-4.74 -1.03 0.87
-4.52 -0.98 0.91
-4.73 -0.99 0.87
-4.47 -0.94 0.92
-4.35 -0.90 0.94
-4.34 -0.89 0.94
-4.36 -0.87 0.94
-4.39 -0.86 0.93
-4.19 -0.82 0.97
-3.83 -0.76 1.03
-3.93 -0.76 1.02
-3.98 -0.75 1.01
-4.07 -0.74 0.99
-4.44 -0.77 0.92
-4.27 -0.73 0.95
-4.05 -0.69 0.99
-4.09 -0.68 0.99
-4.15 -0.67 0.98
-4.04 -0.64 1.00
-4.36 -0.66 0.94
-4.18 -0.63 0.97
-4.12 -0.60 0.98
-4.16 -0.59 0.98
-4.17 -0.58 0.97
-4.18 -0.56 0.97
-4.17 -0.54 0.97
-4.12 -0.52 0.98
-4.09 -0.51 0.99
-3.93 -0.48 1.02
-3.87 -0.46 1.03
-3.91 -0.45 1.02
-4.00 -0.44 1.00
-3.93 -0.42 1.02
-3.42 -0.37 1.11
-3.39 -0.35 1.11
-3.61 -0.35 1.07
-3.13 -0.31 1.16
-3.29 -0.31 1.13
-3.27 -0.29 1.13
-3.69 -0.30 1.06
-3.14 -0.26 1.16
-3.26 -0.25 1.14
-3.14 -0.23 1.16
-3.00 -0.21 1.18
-3.43 -0.21 1.11
-2.82 -0.18 1.21
-2.80 -0.17 1.22
-5.73 -0.24 0.69
-3.08 -0.15 1.17
-3.87 -0.15 1.02
-5.51 -0.17 0.73
-7.06 -0.19 0.45
-7.24 -0.11 0.81
-8.03 -0.10 0.67
-8.05 -0.08 0.67
-7.80 -0.06 0.71
-7.75 -0.04 0.72
-7.71 -0.02 0.73
-3.62 0.01 1.02
-3.94 0.03 0.95
-4.22 0.05 0.90
-7.15 0.09 0.35
-3.53 0.07 1.03
-7.18 0.13 0.34
-7.03 0.16 0.37
-6.96 0.18 0.38
-4.03 0.14 0.94
-7.01 0.22 0.37
-4.78 0.13 1.21
-7.70 0.23 0.66
-4.88 0.16 1.19
-4.51 0.16 1.26
-4.61 0.18 1.24
-4.59 0.19 1.24
-4.61 0.20 1.24
-4.65 0.21 1.23
-4.65 0.23 1.23
-4.74 0.24 1.21
-4.84 0.26 1.19
-4.92 0.28 1.18
-4.94 0.29 1.18
-7.64 0.46 0.66
-5.39 0.34 1.09
-5.73 0.38 1.02
-6.22 0.42 0.93
-5.62 0.40 1.04
-5.54 0.41 1.06
-5.69 0.43 1.03
-5.78 0.45 1.01
-5.88 0.48 0.99
-7.63 0.63 0.66
-5.58 0.48 1.05
-5.51 0.49 1.06
-5.47 0.50 1.07
-5.49 0.52 1.06
-7.15 0.68 0.75
-7.03 0.69 0.77
-7.18 0.72 0.74
-7.33 0.75 0.71
-7.20 0.76 0.74
-7.10 0.77 0.75
-7.26 0.80 0.72
-7.25 0.82 0.72
-7.30 0.84 0.71
-7.35 0.87 0.70
-7.51 0.90 0.67
-7.53 0.93 0.67
-7.37 0.93 0.70
-7.26 0.93 0.72
-3.60 0.49 1.42
-7.51 1.00 0.67
-7.56 1.03 0.66
-7.62 1.05 0.65
-7.88 1.11 0.60
-3.53 0.53 1.43
-8.30 1.21 0.51
-3.49 0.55 1.44
-3.50 0.56 1.43
-8.16 1.25 0.54
-7.89 1.23 0.59
-4.04 0.67 1.33
-8.08 1.30 0.55
-8.12 1.33 0.54
-3.74 0.65 1.38
-7.92 1.34 0.58
-7.95 1.36 0.57
-7.56 1.32 0.65
-7.69 1.36 0.62
-4.06 0.76 1.32
-7.66 1.39 0.62
-3.70 0.72 1.39
-7.56 1.42 0.64
-7.68 1.46 0.62
-7.60 1.46 0.63
-7.72 1.50 0.61
-7.82 1.54 0.59
-7.67 1.53 0.61
-7.73 1.57 0.60
-7.90 1.62 0.57
-7.61 1.58 0.62
-7.67 1.62 0.61
-7.74 1.65 0.60
-7.58 1.66 0.62
-3.29 0.81 1.46
-3.67 0.91 1.38
-3.78 0.94 1.36
-3.98 1.01 1.32
-3.45 0.99 1.42
-3.62 1.04 1.38
-3.57 1.14 1.38
-3.48 1.25 1.39
-3.52 1.42 1.37
-3.32 1.59 1.39
-1.47 -1.09 1.42
-1.57 -1.08 1.40
-1.97 -1.11 1.33
-1.54 -0.98 1.41
-1.65 -0.95 1.39
-1.65 -0.94 1.39
-1.83 -0.95 1.36
-2.08 -0.98 1.31
-1.82 -0.90 1.36
-1.66 -0.84 1.39
-5.65 -1.63 0.63
-1.70 -0.80 1.38
-6.50 -1.69 0.47
-1.76 -0.73 1.37
-4.93 -1.09 0.77
-1.69 -0.60 1.39
-4.28 -0.96 0.89
-4.28 -0.94 0.89
-4.27 -0.93 0.90
-4.26 -0.91 0.90
-4.30 -0.90 0.89
-4.30 -0.88 0.89
-4.23 -0.82 0.91
-3.97 -0.78 0.95
-3.87 -0.75 0.97
-3.86 -0.73 0.98
-3.70 -0.70 1.01
-4.50 -0.77 0.85
-3.76 -0.66 0.99
-1.62 -0.42 1.40
-3.67 -0.62 1.01
-1.58 -0.38 1.41
-1.47 -0.36 1.43
-1.92 -0.39 1.34
-1.95 -0.38 1.34
-4.10 -0.55 0.93
-1.83 -0.35 1.36
-2.20 -0.37 1.29
-3.85 -0.49 0.98
-3.46 -0.44 1.05
-3.22 -0.41 1.10
-3.17 -0.39 1.10
-3.28 -0.39 1.09
-3.21 -0.37 1.10
-3.09 -0.35 1.12
-3.24 -0.34 1.09
-3.13 -0.32 1.11
-3.00 -0.30 1.14
-3.18 -0.30 1.10
-3.01 -0.28 1.14
-3.09 -0.27 1.12
-5.59 -0.37 0.65
-2.62 -0.22 1.21
-2.29 -0.20 1.27
-5.56 -0.31 0.65
-2.37 -0.18 1.25
-5.25 -0.26 0.71
-5.36 -0.25 0.69
-7.16 -0.28 0.35
-3.12 -0.14 1.11
-3.30 -0.11 1.08
-7.14 -0.17 0.35
-3.49 -0.07 1.04
-3.26 -0.04 1.08
-5.59 -0.04 0.64
-3.61 -0.02 1.02
-4.88 -0.00 1.14
-4.72 0.01 1.18
-4.77 0.02 1.17
-7.79 0.06 0.57
-4.70 0.05 1.18
-4.76 0.06 1.17
-4.82 0.07 1.15
-5.01 0.09 1.12
-5.12 0.10 1.09
-5.02 0.11 1.11
-5.47 0.14 1.02
-7.92 0.22 0.54
-5.00 0.15 1.12
-4.86 0.16 1.14
-4.88 0.17 1.14
-4.81 0.18 1.15
-4.90 0.20 1.14
-4.77 0.21 1.16
-4.79 0.22 1.16
-7.94 0.38 0.53
-4.72 0.24 1.17
-4.88 0.26 1.14
-4.89 0.28 1.13
-7.77 0.45 0.56
-6.76 0.41 0.76
-6.12 0.39 0.89
-6.33 0.42 0.85
-7.05 0.48 0.70
-5.84 0.41 0.94
-7.64 0.55 0.59
-7.86 0.59 0.54
-7.80 0.60 0.55
-7.66 0.61 0.58
-7.74 0.64 0.56
-7.45 0.63 0.62
-7.29 0.64 0.65
-7.62 0.69 0.59
-7.37 0.68 0.63
-7.26 0.69 0.66
-6.80 0.67 0.75
-6.80 0.69 0.74
-7.02 0.72 0.70
-7.10 0.75 0.69
-6.83 0.74 0.74
-7.66 0.85 0.57
-6.99 0.79 0.70
-6.87 0.80 0.73
-6.98 0.83 0.71
-6.97 0.84 0.71
-7.14 0.88 0.67
-6.98 0.88 0.70
-7.04 0.91 0.69
-7.06 0.93 0.69
-7.18 0.96 0.66
-6.93 0.95 0.71
-7.21 1.00 0.65
-7.29 1.03 0.64
-7.84 1.12 0.52
-7.73 1.13 0.55
-3.81 0.59 1.33
-7.87 1.19 0.52
-8.00 1.23 0.49
-8.05 1.26 0.48
-8.01 1.27 0.48
-7.87 1.27 0.51
-7.90 1.30 0.51
-7.72 1.29 0.54
-7.98 1.35 0.49
-8.00 1.37 0.48
-7.89 1.37 0.50
-7.70 1.36 0.54
-7.47 1.34 0.59
-7.25 1.33 0.63
-7.23 1.34 0.63
-7.31 1.37 0.62
-7.26 1.38 0.63
-7.42 1.43 0.59
-7.58 1.48 0.56
-7.74 1.53 0.53
-7.58 1.52 0.56
-7.41 1.51 0.59
-6.93 1.43 0.69
-7.40 1.55 0.59
-7.36 1.56 0.60
-7.38 1.58 0.59
-7.34 1.59 0.60
-7.52 1.65 0.56
-7.61 1.69 0.54
-4.24 1.06 1.22
-4.36 1.17 1.19
-2.55 -1.20 1.17
-2.62 -1.19 1.15
-2.19 -1.08 1.24
-2.79 -1.19 1.12
-3.01 -1.21 1.08
-3.49 -1.27 0.98
-2.50 -1.03 1.18
-2.67 -1.05 1.15
-2.18 -0.94 1.24
-3.41 -1.15 1.00
-3.13 -1.09 1.05
-3.43 -1.12 0.99
-3.18 -1.05 1.05
-3.34 -1.07 1.01
-3.28 -1.05 1.03
-4.67 -1.28 0.75
-3.39 -1.04 1.00
-3.50 -1.04 0.98
-3.67 -1.06 0.95
-4.87 -1.24 0.71
-4.83 -1.22 0.72
-3.76 -1.03 0.93
-5.28 -1.25 0.63
-3.67 -0.98 0.95
-4.61 -1.11 0.76
-4.66 -1.10 0.75
-4.59 -1.07 0.77
-4.80 -1.09 0.73
-4.28 -1.00 0.83
-4.50 -1.01 0.79
-4.24 -0.96 0.84
-4.40 -0.96 0.81
-4.64 -0.98 0.76
-4.96 -1.00 0.70
-4.38 -0.91 0.81
-4.53 -0.91 0.78
-4.51 -0.89 0.79
-4.32 -0.85 0.82
-4.26 -0.83 0.84
-4.01 -0.78 0.89
-4.11 -0.78 0.87
-4.37 -0.79 0.81
-4.73 -0.82 0.74
-3.90 -0.71 0.91
-4.02 -0.71 0.88
-3.90 -0.68 0.91
-3.95 -0.67 0.90
-3.94 -0.65 0.90
-3.83 -0.62 0.92
-3.85 -0.61 0.92
-3.91 -0.60 0.90
-3.89 -0.58 0.91
-4.74 -0.64 0.74
-3.94 -0.56 0.90
-3.89 -0.54 0.91
-4.01 -0.53 0.89
-3.99 -0.52 0.89
-4.00 -0.50 0.89
-4.97 -0.56 0.70
-3.97 -0.47 0.89
-3.56 -0.42 0.98
-3.63 -0.41 0.96
-3.30 -0.38 1.03
-3.41 -0.37 1.00
-3.29 -0.35 1.03
-3.56 -0.35 0.97
-3.37 -0.33 1.01
-3.36 -0.31 1.01
-3.26 -0.29 1.03
-3.05 -0.27 1.07
-2.95 -0.25 1.09
-5.25 -0.34 0.64
-5.98 -0.35 0.50
-5.31 -0.30 0.63
-6.99 -0.26 0.73
-7.06 -0.25 0.72
-9.03 -0.29 0.33
-8.89 -0.26 0.35
-8.85 -0.24 0.36
-9.06 -0.22 0.32
-6.99 -0.16 0.73
-8.45 -0.17 0.44
-8.48 -0.15 0.43
-7.96 -0.12 0.54
-7.74 -0.10 0.58
-7.80 -0.08 0.57
-7.98 -0.06 0.53
-8.01 -0.04 0.53
-8.10 -0.02 0.51
-3.37 -0.00 0.96
-5.91 0.02 0.44
-3.44 0.06 0.95
-3.74 0.07 0.88
-4.17 0.09 0.80
-3.59 0.10 0.92
-3.51 0.13 0.93
-3.52 0.14 0.93
-3.79 0.18 0.87
-3.75 0.19 0.88
-3.61 0.20 0.91
-3.55 0.22 0.92
-4.24 0.26 0.78
-3.51 0.24 0.93
-4.31 0.22 1.22
-4.34 0.23 1.21
-4.35 0.24 1.21
-4.65 0.28 1.14
-7.34 0.48 0.59
-5.49 0.40 0.97
-7.41 0.55 0.57
-7.64 0.59 0.52
-5.74 0.46 0.92
-5.91 0.49 0.88
-6.84 0.58 0.69
-7.07 0.62 0.64
-6.63 0.60 0.73
-5.98 0.56 0.86
-6.86 0.65 0.68
-6.07 0.60 0.84
-6.78 0.68 0.69
-6.78 0.70 0.69
-5.63 0.60 0.93
-6.68 0.72 0.71
-6.80 0.77 0.69
-6.64 0.77 0.72
-7.11 0.84 0.62
-6.81 0.82 0.68
-3.55 0.46 1.36
-6.91 0.87 0.66
-6.89 0.88 0.66
-6.83 0.89 0.68
-6.97 0.93 0.65
-3.33 0.48 1.41
-3.42 0.50 1.39
-6.82 0.96 0.68
-6.93 1.00 0.65
-7.02 1.03 0.63
-3.67 0.57 1.33
-3.64 0.58 1.34
-7.14 1.10 0.60
-3.37 0.56 1.39
-8.09 1.28 0.40
-8.06 1.29 0.41
-7.74 1.26 0.48
-7.60 1.26 0.50
-3.97 0.70 1.27
-7.62 1.30 0.50
-4.05 0.73 1.25
-7.64 1.35 0.49
-7.64 1.37 0.49
-3.50 0.67 1.36
-7.54 1.39 0.51
-7.32 1.37 0.56
-7.75 1.47 0.46
-7.70 1.48 0.47
-7.61 1.48 0.49
-7.55 1.49 0.50
-7.72 1.54 0.46
-7.44 1.51 0.52
-7.57 1.55 0.49
-7.44 1.55 0.52
-7.44 1.57 0.52
-7.34 1.57 0.54
-7.41 1.60 0.52
-7.41 1.62 0.52
-3.42 0.80 1.37
-3.32 0.80 1.39
-2.40 -1.07 1.16
-1.93 -0.91 1.26
-2.00 -0.92 1.25
-1.76 -0.85 1.30
-3.04 -1.02 1.03
-3.35 -0.94 0.97
-1.55 -0.64 1.34
-4.08 -1.01 0.82
-3.49 -0.90 0.94
-3.81 -0.94 0.88
-3.88 -0.92 0.86
-3.78 -0.87 0.88
-3.80 -0.86 0.88
-3.97 -0.87 0.84
-3.83 -0.83 0.87
-2.46 -0.64 1.16
-4.00 -0.83 0.84
-4.18 -0.83 0.80
-2.49 -0.61 1.15
-4.02 -0.78 0.83
-4.00 -0.76 0.84
-4.02 -0.75 0.83
-3.77 -0.69 0.89
-3.84 -0.68 0.87
-3.68 -0.65 0.91
-3.65 -0.63 0.91
-3.74 -0.63 0.89
-3.87 -0.63 0.86
-4.10 -0.63 0.82
-1.82 -0.40 1.29
-3.80 -0.57 0.88
-4.42 -0.61 0.75
-4.30 -0.59 0.78
-1.78 -0.36 1.30
-2.01 -0.37 1.25
-1.91 -0.35 1.27
-3.28 -0.44 0.99
-3.25 -0.43 0.99
-2.50 -0.36 1.15
-2.62 -0.36 1.12
-2.39 -0.33 1.17
-2.90 -0.35 1.06
-3.21 -0.36 1.00
-3.12 -0.34 1.02
-3.14 -0.33 1.01
-2.95 -0.30 1.05
-2.95 -0.29 1.05
-3.08 -0.28 1.03
-2.87 -0.26 1.07
-2.79 -0.24 1.09
-6.17 -0.34 0.39
-6.30 -0.19 0.36
-5.88 -0.08 0.45
-3.50 -0.04 0.94
-3.66 -0.03 0.90
-5.95 -0.02 0.43
-4.65 -0.00 1.10
-7.42 0.02 0.50
-7.34 0.05 0.52
-7.45 0.07 0.49
-4.58 0.06 1.11
-4.46 0.08 1.14
-4.51 0.09 1.13
-4.69 0.11 1.09
-4.88 0.14 1.05
-8.23 0.25 0.32
-5.19 0.17 0.98
-5.09 0.19 1.00
-4.87 0.20 1.05
-4.82 0.21 1.06
-4.72 0.22 1.08
-4.70 0.23 1.08
-4.72 0.24 1.08
-4.66 0.25 1.09
-6.73 0.37 0.64
-7.25 0.42 0.53
-6.97 0.42 0.59
-6.98 0.44 0.59
-6.84 0.45 0.62
-7.12 0.48 0.55
-7.11 0.50 0.56
-7.00 0.51 0.58
-6.93 0.52 0.59
-6.88 0.54 0.60
-6.89 0.55 0.60
-6.74 0.56 0.63
-6.66 0.57 0.65
-6.57 0.58 0.67
-5.94 0.54 0.80
-5.88 0.55 0.82
-5.64 0.55 0.87
-5.81 0.58 0.83
-5.80 0.59 0.83
-5.98 0.62 0.79
-6.44 0.70 0.69
-6.32 0.70 0.72
-6.41 0.73 0.70
-6.53 0.78 0.67
-6.61 0.80 0.65
-6.54 0.81 0.67
-6.44 0.83 0.69
-6.18 0.82 0.74
-6.43 0.87 0.69
-6.46 0.90 0.68
-6.56 0.93 0.66
-6.50 0.94 0.67
-6.68 1.00 0.63
-6.93 1.05 0.57
-7.00 1.08 0.56
-6.98 1.11 0.56
-7.16 1.16 0.52
-7.08 1.17 0.54
-7.09 1.19 0.53
-6.92 1.18 0.57
-6.96 1.20 0.56
-7.11 1.25 0.53
-7.15 1.29 0.51
-7.08 1.30 0.53
-7.31 1.36 0.48
-7.34 1.40 0.47
-7.38 1.43 0.46
-7.34 1.44 0.46
-7.30 1.47 0.47
-7.03 1.43 0.53
-6.92 1.43 0.55
-7.12 1.51 0.51
-7.33 1.57 0.46
-4.01 0.91 1.19
-7.31 1.62 0.46
-7.42 1.67 0.44
-4.01 0.95 1.19
-7.24 1.69 0.47
-7.14 1.68 0.49
-6.05 1.46 0.73
-6.20 1.52 0.70
-4.08 1.05 1.17
-4.16 1.08 1.15
-6.13 1.58 0.71
-6.23 1.62 0.69
-3.30 -1.51 0.90
-3.58 -1.57 0.84
-2.96 -1.39 0.98
-2.81 -1.34 1.01
-2.55 -1.26 1.07
-3.09 -1.38 0.95
-3.28 -1.39 0.91
-3.26 -1.37 0.92
-3.29 -1.36 0.91
-3.23 -1.33 0.92
-2.68 -1.19 1.04
-2.75 -1.19 1.03
-2.93 -1.22 0.99
-2.50 -1.11 1.09
-2.75 -1.16 1.03
-3.40 -1.29 0.89
-2.74 -1.13 1.03
-3.29 -1.23 0.91
-2.80 -1.12 1.02
-3.35 -1.22 0.90
-3.23 -1.18 0.93
-3.20 -1.16 0.93
-3.36 -1.18 0.90
-3.21 -1.13 0.93
-3.19 -1.11 0.94
-3.44 -1.15 0.88
-3.02 -1.05 0.98
-2.98 -1.03 0.98
-3.06 -1.04 0.97
-3.31 -1.07 0.91
-3.13 -1.02 0.95
-3.37 -1.05 0.90
-3.40 -1.04 0.89
-3.21 -0.99 0.94
-3.28 -0.99 0.92
-3.27 -0.97 0.92
-4.98 -1.25 0.55
-3.63 -1.01 0.85
-4.24 -1.09 0.71
-4.91 -1.18 0.57
-4.35 -1.07 0.69
-4.15 -1.03 0.73
-4.07 -1.00 0.75
-4.02 -0.98 0.76
-4.05 -0.96 0.76
-4.02 -0.94 0.76
-3.88 -0.91 0.79
-3.88 -0.89 0.79
-3.85 -0.87 0.80
-3.95 -0.87 0.78
-4.14 -0.88 0.74
-4.00 -0.85 0.77
-4.03 -0.83 0.76
-4.03 -0.82 0.76
-4.17 -0.82 0.73
-4.22 -0.81 0.72
-4.25 -0.80 0.71
-4.18 -0.77 0.73
-4.26 -0.77 0.71
-4.05 -0.73 0.76
-3.98 -0.70 0.77
-3.98 -0.69 0.77
-3.93 -0.67 0.79
-4.02 -0.66 0.77
-3.84 -0.63 0.80
-5.24 -0.75 0.50
-4.14 -0.62 0.74
-3.92 -0.59 0.79
-3.71 -0.55 0.83
-3.95 -0.56 0.78
-3.88 -0.54 0.80
-3.77 -0.51 0.82
-3.73 -0.50 0.83
-3.66 -0.48 0.84
-3.47 -0.45 0.88
-3.20 -0.41 0.94
-3.28 -0.40 0.93
-3.36 -0.40 0.91
-3.23 -0.37 0.93
-3.14 -0.35 0.95
-3.12 -0.34 0.96
-6.23 -0.36 0.76
-6.55 -0.36 0.69
-8.31 -0.43 0.32
-8.11 -0.40 0.36
-8.14 -0.38 0.35
-8.15 -0.36 0.35
-6.92 -0.29 0.61
-6.73 -0.22 0.65
-6.74 -0.20 0.65
-4.45 -0.13 1.14
-6.46 -0.15 0.71
-7.59 -0.13 0.47
-7.44 -0.09 0.50
-7.50 -0.07 0.49
-4.50 -0.04 1.13
-4.85 -0.01 1.06
-4.63 0.01 0.56
-3.30 0.03 0.86
-4.50 0.03 1.09
-4.64 0.05 1.05
-7.56 0.09 0.40
-4.75 0.07 1.03
-4.84 0.08 1.01
-6.76 0.13 0.58
-4.66 0.11 1.05
-4.72 0.12 1.04
-5.79 0.16 0.79
-4.50 0.14 1.08
-4.57 0.15 1.07
-4.48 0.16 1.09
-7.21 0.27 0.47
-4.69 0.19 1.04
-4.61 0.20 1.06
-4.46 0.20 1.09
-4.31 0.21 1.12
-6.96 0.35 0.53
-7.06 0.37 0.50
-6.79 0.37 0.56
-6.77 0.39 0.57
-6.98 0.42 0.52
-4.74 0.30 1.03
-7.23 0.49 0.46
-5.26 0.37 0.91
-5.21 0.38 0.92
-6.92 0.52 0.53
-6.64 0.52 0.59
-6.51 0.52 0.62
-5.49 0.46 0.85
-5.74 0.49 0.79
-5.56 0.49 0.83
-5.98 0.54 0.74
-6.43 0.60 0.64
-5.68 0.55 0.81
-5.78 0.57 0.78
-5.82 0.59 0.77
-5.63 0.59 0.81
-6.48 0.69 0.62
-6.74 0.73 0.56
-6.53 0.72 0.61
-5.81 0.66 0.77
-6.62 0.77 0.59
-6.97 0.82 0.50
-6.67 0.81 0.57
-6.45 0.80 0.62
-6.45 0.81 0.62
-6.47 0.83 0.62
-6.44 0.85 0.62
-6.45 0.87 0.62
-6.26 0.86 0.66
-6.10 0.85 0.70
-6.16 0.88 0.68
-6.39 0.92 0.63
-6.39 0.94 0.63
-6.57 0.98 0.59
-6.57 1.00 0.59
-6.62 1.02 0.57
-6.68 1.05 0.56
-6.65 1.06 0.56
-6.71 1.09 0.55
-6.81 1.12 0.53
-7.17 1.20 0.44
-7.39 1.25 0.39
-4.96 0.87 0.95
-5.14 0.91 0.91
-5.13 0.93 0.91
-5.11 0.94 0.91
-5.13 0.96 0.91
-5.17 0.98 0.90
-7.38 1.38 0.39
-7.15 1.36 0.44
-7.14 1.38 0.44
-7.02 1.37 0.46
-7.13 1.41 0.44
-7.17 1.44 0.43
-7.04 1.43 0.46
-7.13 1.47 0.44
-7.03 1.47 0.46
-7.12 1.50 0.44
-7.21 1.54 0.41
-7.23 1.56 0.41
-7.19 1.58 0.42
-7.28 1.61 0.39
-5.85 1.33 0.73
-7.39 1.67 0.37
-6.00 1.39 0.69
-2.21 -1.01 1.11
-2.21 -0.99 1.11
-2.17 -0.97 1.12
-2.21 -0.95 1.11
-2.24 -0.95 1.10
-2.18 -0.91 1.12
-3.09 -1.06 0.91
-2.86 -1.01 0.96
-3.20 -1.04 0.88
-3.12 -1.01 0.90
-3.25 -1.01 0.87
-3.10 -0.96 0.91
-3.61 -1.03 0.79
-3.98 -1.06 0.71
-3.87 -1.03 0.74
-3.84 -0.99 0.74
-3.80 -0.95 0.75
-2.21 -0.70 1.11
-3.75 -0.90 0.76
-3.69 -0.88 0.78
-3.75 -0.86 0.76
-3.67 -0.82 0.78
-3.80 -0.82 0.75
-4.12 -0.83 0.68
-4.02 -0.80 0.70
-4.10 -0.78 0.69
-4.14 -0.75 0.68
-4.16 -0.74 0.67
-3.80 -0.67 0.75
-3.80 -0.65 0.75
-3.73 -0.61 0.77
-3.68 -0.58 0.78
-3.48 -0.55 0.83
-3.67 -0.53 0.78
-3.64 -0.52 0.79
-3.33 -0.46 0.86
-2.98 -0.41 0.94
-2.77 -0.38 0.99
-3.05 -0.37 0.92
-2.83 -0.35 0.97
-2.87 -0.32 0.96
-2.95 -0.30 0.94
-2.98 -0.29 0.94
-2.85 -0.26 0.97
-3.04 -0.25 0.92
-2.95 -0.22 0.94
-3.11 -0.20 0.91
-3.19 -0.19 0.89
-1.94 -0.13 1.17
-1.59 -0.11 1.25
-1.79 -0.10 1.20
-1.80 -0.09 1.20
-3.37 -0.06 0.85
-4.05 -0.02 0.69
-7.28 0.07 0.39
-7.36 0.11 0.37
-7.41 0.13 0.35
-7.25 0.14 0.39
-7.24 0.18 0.39
-6.97 0.24 0.46
-7.07 0.30 0.43
-7.09 0.35 0.42
-7.30 0.38 0.37
-7.08 0.39 0.43
-7.01 0.40 0.44
-7.01 0.42 0.44
-7.14 0.44 0.41
-7.04 0.46 0.43
-7.17 0.48 0.40
-7.27 0.51 0.38
-6.84 0.50 0.48
-6.87 0.52 0.47
-6.87 0.53 0.47
-6.81 0.55 0.48
-6.74 0.56 0.50
-6.67 0.57 0.51
-6.85 0.60 0.47
-6.79 0.61 0.49
-6.60 0.61 0.53
-6.27 0.60 0.61
-6.53 0.64 0.55
-6.38 0.64 0.58
-6.59 0.68 0.53
-6.60 0.70 0.53
-6.68 0.74 0.50
-6.85 0.77 0.47
-6.90 0.80 0.45
-6.82 0.81 0.47
-6.50 0.79 0.54
-6.55 0.81 0.53
-6.46 0.82 0.55
-6.52 0.84 0.54
-6.63 0.87 0.51
-6.61 0.89 0.51
-6.66 0.91 0.50
-6.78 0.94 0.47
-6.72 0.95 0.49
-6.66 0.96 0.50
-6.63 0.97 0.51
-6.69 1.00 0.49
-6.62 1.01 0.50
-6.59 1.02 0.51
-6.70 1.05 0.49
-6.81 1.09 0.46
-6.71 1.09 0.48
-6.96 1.14 0.42
-7.03 1.17 0.40
-7.13 1.21 0.38
-6.92 1.30 0.42
-6.89 1.31 0.43
-7.06 1.36 0.38
-6.88 1.35 0.43
-7.04 1.43 0.39
-6.88 1.42 0.42
-6.90 1.44 0.42
-3.79 -1.11 0.69
-4.00 -1.13 0.64
-3.70 -1.06 0.71
-4.03 -1.10 0.63
-4.11 -1.10 0.61
-4.14 -1.09 0.61
-4.12 -1.07 0.61
-4.21 -1.07 0.59
-4.22 -1.05 0.59
-4.16 -1.03 0.60
-4.07 -1.00 0.63
-4.05 -0.98 0.63
-4.26 -0.99 0.58
-3.99 -0.94 0.65
-4.23 -0.96 0.59
-4.08 -0.92 0.62
-4.29 -0.93 0.57
-4.04 -0.88 0.64
-4.12 -0.88 0.62
-3.97 -0.84 0.65
-4.18 -0.85 0.60
-4.06 -0.82 0.63
-4.09 -0.81 0.62
-4.04 -0.79 0.64
-4.01 -0.77 0.64
-4.03 -0.76 0.64
-4.01 -0.74 0.64
-3.95 -0.71 0.66
-3.95 -0.70 0.66
-4.00 -0.69 0.65
-3.90 -0.66 0.67
-3.95 -0.65 0.66
-3.98 -0.64 0.65
-3.89 -0.62 0.67
-3.93 -0.60 0.66
-3.94 -0.59 0.66
-3.89 -0.57 0.67
-3.79 -0.55 0.70
-3.64 -0.52 0.73
-3.80 -0.52 0.69
-3.87 -0.51 0.68
-3.84 -0.49 0.68
-3.74 -0.47 0.71
-3.77 -0.45 0.70
-3.66 -0.43 0.72
-3.58 -0.41 0.74
-3.91 -0.42 0.67
-3.47 -0.36 0.77
-3.48 -0.35 0.77
-3.34 -0.33 0.80
-3.13 -0.30 0.85
-3.25 -0.29 0.82
-3.20 -0.28 0.83
-3.36 -0.27 0.80
-3.41 -0.26 0.78
-3.25 -0.24 0.82
-3.74 -0.24 0.71
-3.59 -0.22 0.74
-5.00 -0.26 0.41
-3.06 1.66 1.21
-0.90 1.11 0.82
-1.72 0.85 0.47
-2.59 0.67 0.27
-2.55 0.73 0.27
-2.38 0.71 0.29
-2.21 0.73 0.29
-2.10 0.72 0.30
-2.60 0.61 0.22
-2.57 0.53 0.21
-2.51 0.78 0.20
-2.29 0.79 0.23
-2.04 0.73 0.27
-1.93 0.70 0.29
-1.62 0.77 0.32
-2.35 0.69 0.21
-2.26 0.77 0.22
-2.05 0.68 0.24
-1.70 0.70 0.28
-1.57 0.76 0.25
-1.51 0.82 0.22
-0.67 -0.56 0.29
