# .PCD v0.7 - Point Cloud Data file format
VERSION 0.7
FIELDS x y z
SIZE 4 4 4
TYPE F F F
COUNT 1 1 1
WIDTH 2539
HEIGHT 1
VIEWPOINT 0 0 0 1 0 0 0
POINTS 2539
DATA ASCII
-1.08 -0.48 2.14
-13.96 -0.18 1.85
-13.60 -0.30 1.75
-13.62 -0.03 1.75
-13.92 0.02 1.76
-13.70 -0.24 1.77
-13.97 -0.21 1.76
-13.95 -0.15 1.76
-13.94 -0.04 1.76
-13.93 0.02 1.66
-13.90 0.06 1.66
-13.85 0.12 1.67
-13.29 -0.37 1.60
-13.80 -0.18 1.67
-14.06 -0.15 1.66
-13.89 0.02 1.56
-13.83 0.09 1.56
-13.50 0.29 1.57
-9.11 -1.19 1.67
-11.87 -0.27 1.65
-13.86 -0.15 1.56
-13.70 -0.11 1.57
-13.89 -0.04 1.56
-13.87 -0.01 1.56
-12.40 -0.38 1.46
-13.25 -0.26 1.41
-13.80 0.06 1.44
-13.82 0.12 1.44
-13.43 0.22 1.46
-13.55 0.25 1.45
-13.35 0.41 1.46
-9.07 0.35 1.69
-8.90 0.37 1.69
-15.20 0.99 1.36
-1.91 -1.16 1.95
-10.01 -1.10 1.52
-10.26 -1.06 1.51
-12.15 -0.46 1.53
-14.01 -0.25 1.43
-13.17 -0.20 1.48
-12.74 -0.17 1.50
-13.81 -0.15 1.44
-12.15 -0.07 1.53
-13.35 0.22 1.41
-1.58 -1.04 1.95
-9.93 -1.15 1.47
-7.02 -0.04 1.63
-14.11 0.12 1.30
-12.56 0.20 1.39
-14.02 0.50 1.30
-13.67 0.92 1.32
-9.25 0.93 1.58
-9.31 -1.18 1.45
-9.77 -1.14 1.43
-9.58 -0.95 1.44
-12.30 -0.35 1.26
-7.23 -0.20 1.58
-13.00 -0.26 1.22
-13.26 -0.14 1.35
-13.56 -0.11 1.33
-13.40 -0.01 1.34
-1.63 0.00 1.90
-7.12 0.03 1.53
-7.18 0.24 1.52
-13.69 0.62 1.24
-9.06 0.71 1.55
-4.88 -1.22 1.69
-9.97 -0.98 1.35
-11.46 -0.53 1.24
-11.91 -0.41 1.21
-12.15 -0.38 1.20
-11.93 -0.34 1.21
-12.25 -0.31 1.19
-12.43 -0.28 1.18
-7.06 -0.11 1.54
-7.14 -0.09 1.53
-6.99 -0.06 1.54
-7.03 -0.04 1.54
-7.00 -0.02 1.54
-13.28 0.02 1.21
-12.51 0.05 1.26
-7.24 0.05 1.64
-7.44 0.08 1.63
-7.02 0.10 1.66
-12.42 0.23 1.27
-13.33 0.28 1.20
-8.21 0.19 1.57
-8.26 0.26 1.56
-13.34 0.44 1.20
-8.06 0.31 1.58
-13.62 0.55 1.18
-8.41 0.39 1.55
-13.79 0.69 1.16
-13.91 0.73 1.15
-8.32 0.49 1.56
-13.81 0.83 1.16
-8.90 0.56 1.52
-14.03 0.91 1.14
-13.80 0.96 1.16
-14.02 1.01 1.14
-14.76 1.46 1.08
-2.26 -1.45 1.84
-5.03 -1.35 1.64
-5.23 -1.33 1.62
-4.74 -1.21 1.66
-5.30 -1.20 1.62
-5.13 -1.15 1.63
-5.32 -1.10 1.62
-3.27 -0.76 1.77
-2.98 -0.35 1.78
-7.76 -0.59 1.44
-11.88 -0.36 1.31
-12.29 -0.34 1.28
-8.87 -0.23 1.53
-12.06 -0.25 1.30
-13.89 -0.22 1.17
-13.44 -0.18 1.20
-13.70 -0.11 1.18
-13.57 -0.08 1.19
-7.95 -0.03 1.59
-7.03 0.00 1.44
-7.09 0.03 1.44
-6.96 0.05 1.45
-7.10 0.07 1.43
-7.03 0.12 1.44
-12.15 -0.42 1.05
-12.31 -0.28 1.03
-12.63 -0.25 1.01
-7.10 -0.13 1.44
-7.17 -0.11 1.43
-7.66 0.01 1.52
-7.85 0.03 1.51
-7.70 0.07 1.52
-7.66 0.09 1.52
-7.32 0.10 1.55
-7.61 0.12 1.53
-7.97 0.15 1.50
-8.04 0.17 1.49
-8.10 0.19 1.49
-8.05 0.21 1.49
-7.97 0.23 1.50
-8.07 0.25 1.49
-7.99 0.27 1.49
-8.09 0.29 1.48
-8.04 0.31 1.49
-8.05 0.33 1.49
-8.19 0.36 1.48
-8.27 0.38 1.47
-8.24 0.40 1.47
-8.06 0.41 1.49
-8.27 0.44 1.47
-8.39 0.47 1.46
-8.48 0.49 1.45
-8.36 0.51 1.46
-8.44 0.53 1.45
-8.53 0.58 1.44
-8.52 0.62 1.44
-14.80 1.18 0.92
-4.09 -1.66 1.63
-4.08 -1.62 1.63
-4.28 -1.65 1.62
-4.26 -1.63 1.62
-4.36 -1.62 1.61
-4.98 -1.60 1.56
-5.22 -1.64 1.54
-2.42 -0.96 1.77
-4.65 -1.34 1.59
-4.66 -1.22 1.59
-5.34 -1.22 1.53
-5.28 -1.17 1.54
-4.91 -1.10 1.57
-4.78 -0.91 1.58
-10.84 -1.59 1.07
-5.06 -0.78 1.55
-9.38 -1.08 1.20
-9.73 -1.08 1.17
-9.91 -1.01 1.15
-9.92 -0.98 1.15
-9.73 -0.90 1.17
-9.79 -0.85 1.16
-10.79 -0.86 1.08
-10.95 -0.83 1.06
-11.65 -0.64 1.20
-11.93 -0.60 1.18
-12.07 -0.57 1.16
-11.60 -0.52 1.20
-11.81 -0.47 1.19
-12.00 -0.45 1.17
-12.58 -0.44 1.12
-12.45 -0.41 1.13
-12.80 -0.39 1.10
-12.79 -0.33 1.10
-12.79 -0.26 1.10
-13.48 -0.24 1.05
-13.01 -0.17 1.08
-13.52 -0.15 1.04
-13.24 -0.11 1.06
-13.37 -0.08 1.05
-13.08 -0.05 1.08
-13.01 -0.01 1.08
-7.32 0.00 1.31
-7.08 0.03 1.33
-7.77 0.07 1.47
-7.78 0.09 1.47
-7.73 0.12 1.47
-7.98 0.15 1.45
-8.05 0.17 1.45
-7.75 0.18 1.47
-7.79 0.22 1.47
-8.00 0.25 1.45
-8.21 0.29 1.43
-7.91 0.32 1.46
-8.06 0.37 1.44
-8.14 0.39 1.44
-8.12 0.41 1.44
-8.25 0.46 1.42
-8.33 0.51 1.42
-8.29 0.52 1.42
-8.58 0.61 1.39
-4.98 -1.25 1.52
-5.39 -1.21 1.48
-9.71 -1.02 1.10
-10.03 -1.01 1.07
-9.77 -0.91 1.10
-9.79 -0.85 1.09
-11.27 -0.75 0.96
-12.46 -0.28 0.85
-7.34 -0.16 1.31
-7.02 -0.13 1.34
-6.95 -0.11 1.34
-7.12 -0.09 1.33
-7.58 0.03 1.44
-7.76 0.05 1.42
-8.15 0.07 1.39
-7.69 0.08 1.43
-7.68 0.10 1.43
-7.75 0.12 1.42
-7.89 0.15 1.41
-8.05 0.17 1.39
-7.67 0.18 1.43
-7.82 0.20 1.42
-7.75 0.22 1.42
-7.90 0.24 1.41
-7.64 0.26 1.43
-7.67 0.28 1.43
-7.76 0.30 1.42
-7.86 0.32 1.41
-8.15 0.35 1.38
-7.93 0.36 1.40
-8.11 0.39 1.39
-8.08 0.41 1.39
-8.19 0.44 1.38
-8.17 0.45 1.38
-8.03 0.47 1.39
-8.00 0.49 1.39
-8.26 0.52 1.37
-13.18 0.85 0.90
-13.27 0.89 0.90
-8.47 0.60 1.35
-8.58 0.63 1.34
-8.75 0.66 1.32
-13.63 1.05 0.86
-8.83 0.73 1.31
-8.66 0.74 1.33
-8.57 0.88 1.33
-4.67 -1.68 1.50
-4.73 -1.66 1.49
-4.50 -1.55 1.52
-4.96 -1.60 1.47
-4.81 -1.55 1.49
-5.35 -1.64 1.44
-4.65 -1.44 1.50
-4.45 -1.27 1.52
-5.01 -1.24 1.47
-4.95 -1.21 1.48
-5.14 -1.23 1.46
-5.07 -1.20 1.47
-4.86 -1.11 1.49
-5.04 -1.12 1.47
-5.24 -1.11 1.45
-4.97 -0.98 1.48
-4.90 -0.96 1.48
-10.87 -1.69 0.92
-10.72 -1.64 0.93
-10.50 -1.43 0.95
-10.48 -1.15 0.96
-9.64 -1.01 1.03
-10.12 -1.02 0.99
-9.99 -0.89 1.00
-9.83 -0.82 1.02
-10.03 -0.78 1.00
-11.40 -0.66 0.87
-7.39 -0.35 1.24
-11.84 -0.48 0.82
-7.25 -0.28 1.26
-7.11 -0.18 1.27
-8.98 -0.19 1.09
-10.03 -0.11 1.21
-12.36 -0.07 0.99
-7.13 0.00 1.21
-6.96 0.02 1.22
-7.22 0.05 1.20
-6.68 0.07 1.25
-6.95 0.09 1.22
-6.58 0.11 1.26
-6.93 0.16 1.23
-1.83 0.10 1.74
-7.80 0.22 1.37
-7.67 0.24 1.38
-7.55 0.25 1.39
-7.75 0.28 1.37
-8.03 0.31 1.35
-8.00 0.33 1.35
-8.20 0.35 1.33
-8.09 0.37 1.34
-7.99 0.38 1.35
-8.07 0.41 1.34
-8.08 0.43 1.34
-8.23 0.46 1.32
-8.37 0.49 1.31
-8.37 0.51 1.31
-8.57 0.54 1.29
-8.74 0.57 1.27
-8.69 0.59 1.28
-8.66 0.61 1.28
-8.71 0.63 1.27
-8.85 0.69 1.26
-9.05 0.73 1.24
-8.69 0.85 1.27
-8.62 0.87 1.28
-4.51 -1.59 1.47
-4.68 -1.59 1.46
-2.35 -0.96 1.69
-5.16 -1.28 1.41
-5.02 -1.24 1.43
-5.04 -1.23 1.42
-5.11 -1.20 1.42
-5.08 -1.18 1.42
-4.95 -1.14 1.43
-5.12 -1.15 1.42
-5.13 -1.13 1.42
-5.20 -1.12 1.41
-4.93 -1.05 1.43
-5.01 -1.04 1.43
-4.81 -1.00 1.45
-4.93 -0.96 1.44
-4.59 -0.88 1.47
-4.12 -0.80 1.52
-10.43 -1.51 0.88
-3.88 -0.73 1.54
-4.02 -0.73 1.53
-4.60 -0.76 1.47
-9.99 -1.16 0.93
-10.29 -1.16 0.90
-10.06 -1.11 0.92
-10.21 -1.09 0.91
-10.45 -0.96 0.88
-12.77 -1.06 0.65
-8.87 -0.62 1.04
-8.75 -0.51 1.05
-7.20 -0.39 1.20
-7.21 -0.37 1.20
-8.89 -0.38 1.03
-8.89 -0.30 1.03
-7.40 -0.21 1.18
-7.01 -0.16 1.22
-7.16 -0.14 1.21
-6.83 -0.11 1.24
-6.91 -0.09 1.23
-6.87 -0.07 1.24
-7.18 -0.02 1.20
-7.55 0.01 1.34
-7.65 0.03 1.33
-7.66 0.05 1.33
-7.63 0.06 1.34
-7.64 0.08 1.33
-7.62 0.10 1.34
-7.69 0.12 1.33
-7.84 0.14 1.31
-7.66 0.16 1.33
-7.78 0.18 1.32
-7.74 0.20 1.32
-7.50 0.21 1.35
-7.62 0.24 1.33
-7.78 0.26 1.32
-7.58 0.27 1.34
-7.85 0.30 1.31
-7.75 0.32 1.32
-7.91 0.34 1.30
-7.67 0.35 1.33
-8.05 0.39 1.29
-8.25 0.42 1.26
-8.46 0.45 1.24
-8.66 0.48 1.22
-8.32 0.48 1.26
-8.33 0.51 1.25
-8.50 0.54 1.24
-8.67 0.57 1.22
-8.66 0.59 1.22
-8.99 0.63 1.18
-8.78 0.64 1.20
-8.61 0.67 1.22
-8.71 0.70 1.21
-8.73 0.75 1.21
-9.08 0.80 1.17
-8.60 0.78 1.22
-8.84 0.82 1.19
-8.36 0.80 1.24
-8.62 0.89 1.22
-2.73 -1.26 1.62
-4.67 -1.68 1.41
-2.56 -1.17 1.64
-4.63 -1.64 1.41
-4.74 -1.64 1.40
-2.67 -1.16 1.62
-4.35 -1.50 1.44
-4.56 -1.53 1.42
-4.59 -1.50 1.42
-4.46 -1.46 1.43
-4.57 -1.38 1.42
-4.64 -1.37 1.41
-4.85 -1.36 1.39
-4.54 -1.11 1.43
-4.85 -1.15 1.39
-4.87 -1.13 1.39
-5.19 -1.16 1.36
-4.96 -1.11 1.38
-4.92 -1.09 1.38
-4.86 -1.06 1.39
-4.79 -1.03 1.40
-4.77 -1.01 1.40
-4.82 -1.00 1.40
-4.76 -0.97 1.40
-4.86 -0.97 1.39
-4.58 -0.92 1.42
-4.75 -0.92 1.40
-5.03 -0.94 1.37
-4.20 -0.80 1.46
-3.91 -0.75 1.49
-3.99 -0.75 1.48
-3.98 -0.73 1.49
-4.01 -0.72 1.48
-4.02 -0.70 1.48
-4.03 -0.69 1.48
-4.18 -0.69 1.46
-4.42 -0.69 1.44
-3.98 -0.64 1.49
-4.10 -0.63 1.47
-3.94 -0.60 1.49
-3.86 -0.58 1.50
-7.38 -0.87 1.12
-3.63 -0.53 1.52
-3.57 -0.51 1.53
-13.24 -1.20 0.50
-9.85 -0.89 0.86
-8.12 -0.74 1.04
-7.96 -0.70 1.06
-12.76 -0.98 0.55
-8.24 -0.64 1.03
-8.49 -0.60 1.00
-1.96 -0.23 1.70
-8.85 -0.52 0.96
-9.01 -0.49 0.95
-8.62 -0.45 0.99
-8.67 -0.43 0.98
-11.48 -0.38 0.93
-11.89 -0.36 0.89
-11.31 -0.29 0.95
-9.87 -0.23 1.10
-9.73 -0.20 1.11
-9.72 -0.18 1.12
-9.89 -0.16 1.10
-10.09 -0.14 1.08
-9.83 -0.11 1.10
-9.85 -0.09 1.10
-9.79 -0.06 1.11
-9.96 -0.04 1.09
-7.62 -0.01 1.34
-9.57 -0.00 0.81
-8.13 0.47 1.22
-8.54 0.54 1.18
-9.06 0.68 1.11
-7.59 -0.84 1.04
-10.11 -0.96 0.75
-13.33 -1.17 0.39
-10.00 -0.86 0.76
-7.69 -0.41 1.02
-9.05 -0.30 0.87
-7.41 -0.24 1.05
-8.73 -0.21 0.90
-7.22 -0.16 1.07
-6.80 -0.13 1.12
-6.89 -0.09 1.11
-7.54 0.03 1.24
-7.70 0.05 1.22
-7.78 0.07 1.21
-7.94 0.09 1.19
-7.97 0.11 1.19
-7.91 0.13 1.19
-7.78 0.14 1.21
-7.70 0.16 1.22
-7.90 0.22 1.19
-8.14 0.27 1.16
-8.06 0.29 1.17
-8.04 0.31 1.17
-8.05 0.33 1.17
-7.89 0.34 1.19
-8.00 0.37 1.18
-8.34 0.42 1.14
-8.32 0.44 1.14
-8.45 0.47 1.12
-8.67 0.50 1.10
-8.41 0.51 1.13
-8.52 0.60 1.11
-1.00 -1.69 1.74
-1.09 -1.23 1.74
-10.59 -1.63 0.60
-10.29 -1.56 0.64
-7.17 -0.93 1.01
-7.49 -0.93 0.97
-7.63 -0.92 0.96
-7.60 -0.87 0.96
-7.60 -0.77 0.96
-10.42 -0.93 0.62
-10.23 -0.85 0.65
-7.36 -0.61 0.99
-10.57 -0.58 0.88
-10.52 -0.56 0.89
-10.50 -0.38 0.89
-10.51 -0.35 0.89
-9.83 -0.30 0.97
-11.69 -0.24 0.75
-10.57 -0.20 0.88
-11.73 -0.19 0.74
-9.91 -0.11 0.96
-7.57 -0.05 1.24
-7.70 -0.01 1.22
-6.44 0.00 1.04
-6.86 0.02 0.98
-7.46 0.04 1.20
-7.72 0.08 1.16
-7.82 0.10 1.15
-7.74 0.12 1.16
-7.98 0.17 1.13
-7.83 0.18 1.15
-7.96 0.20 1.13
-7.81 0.22 1.15
-7.91 0.24 1.14
-7.67 0.25 1.17
-7.82 0.28 1.15
-7.83 0.30 1.15
-8.05 0.33 1.12
-8.12 0.35 1.11
-8.13 0.37 1.11
-8.11 0.39 1.11
-8.31 0.42 1.08
-8.37 0.44 1.08
-8.40 0.47 1.07
-8.32 0.48 1.08
-8.51 0.51 1.06
-8.37 0.53 1.07
-8.56 0.56 1.05
-8.73 0.59 1.03
-8.91 0.65 1.00
-9.02 0.68 0.99
-9.06 0.70 0.98
-9.27 0.74 0.96
-8.83 0.73 1.01
-8.86 0.82 1.01
-8.89 0.87 1.00
-1.62 -1.46 1.64
-1.99 -1.17 1.60
-1.97 -1.15 1.61
-3.89 -1.64 1.36
-2.04 -1.14 1.60
-3.27 -1.43 1.44
-3.89 -1.57 1.36
-3.50 -1.46 1.41
-3.28 -1.39 1.44
-3.44 -1.42 1.42
-3.39 -1.30 1.43
-4.44 -1.49 1.29
-4.75 -1.50 1.25
-4.97 -1.47 1.22
-5.16 -1.49 1.20
-5.05 -1.43 1.22
-4.88 -1.38 1.24
-2.06 -0.83 1.60
-4.89 -1.33 1.24
-4.99 -1.33 1.22
-4.87 -1.25 1.24
-4.80 -1.23 1.25
-4.80 -1.21 1.25
-4.81 -1.17 1.25
-5.12 -1.19 1.21
-10.53 -1.59 0.52
-10.37 -1.54 0.54
-3.87 -0.75 1.37
-10.06 -1.41 0.58
-9.92 -1.37 0.60
-10.03 -1.35 0.59
-10.12 -1.30 0.57
-7.51 -0.96 0.91
-7.77 -0.96 0.87
-3.54 -0.55 1.41
-3.57 -0.54 1.41
-7.64 -0.87 0.89
-3.50 -0.50 1.42
-3.40 -0.48 1.43
-3.41 -0.47 1.43
-3.40 -0.45 1.43
-7.61 -0.75 0.89
-7.60 -0.72 0.89
-3.72 -0.43 1.39
-7.63 -0.68 0.89
-7.77 -0.64 0.87
-7.36 -0.57 0.92
-7.56 -0.55 0.90
-7.61 -0.53 0.89
-7.63 -0.51 0.89
-7.06 -0.46 0.96
-6.80 -0.42 1.00
-7.06 -0.41 0.96
-7.22 -0.40 0.94
-7.26 -0.37 0.94
-7.45 -0.36 0.91
-3.71 -0.21 1.39
-3.57 -0.19 1.40
-3.63 -0.17 1.40
-3.70 -0.16 1.39
-3.73 -0.15 1.38
-6.62 -0.20 1.02
-8.10 -0.20 0.83
-6.42 -0.15 1.04
-6.31 -0.13 1.05
-6.54 -0.09 1.02
-9.31 -0.09 0.67
-6.58 -0.04 1.02
-9.39 -0.03 0.66
-7.46 0.01 1.14
-7.50 0.02 1.14
-7.54 0.04 1.13
-7.62 0.06 1.12
-7.68 0.08 1.11
-7.56 0.10 1.13
-7.67 0.12 1.11
-7.81 0.14 1.09
-7.73 0.16 1.10
-7.78 0.18 1.10
-7.78 0.20 1.10
-7.70 0.22 1.11
-7.62 0.23 1.12
-7.81 0.26 1.09
-8.04 0.29 1.06
-8.10 0.31 1.05
-8.12 0.33 1.05
-8.12 0.35 1.05
-8.32 0.38 1.02
-8.16 0.39 1.04
-8.35 0.42 1.01
-8.39 0.44 1.01
-8.46 0.47 1.00
-8.37 0.48 1.01
-8.52 0.51 0.99
-8.52 0.54 0.99
-8.60 0.56 0.98
-8.46 0.57 1.00
-8.50 0.60 0.99
-9.02 0.65 0.92
-8.86 0.67 0.94
-9.00 0.70 0.92
-8.97 0.72 0.93
-9.05 0.75 0.92
-8.88 0.76 0.94
-8.69 0.76 0.96
-8.75 0.79 0.95
-2.30 -1.24 1.53
-4.06 -1.62 1.29
-3.73 -1.52 1.33
-4.22 -1.62 1.27
-3.50 -1.43 1.36
-3.50 -1.42 1.37
-3.80 -1.47 1.33
-4.14 -1.54 1.28
-3.64 -1.41 1.35
-4.59 -1.61 1.22
-3.97 -1.45 1.30
-4.18 -1.48 1.27
-4.18 -1.47 1.27
-4.40 -1.50 1.24
-4.52 -1.51 1.23
-4.61 -1.51 1.22
-4.64 -1.50 1.21
-4.72 -1.50 1.20
-4.66 -1.46 1.21
-4.69 -1.45 1.21
-4.75 -1.45 1.20
-4.71 -1.42 1.20
-4.71 -1.41 1.20
-4.73 -1.36 1.20
-5.04 -1.38 1.16
-4.70 -1.30 1.21
-4.96 -1.33 1.17
-4.76 -1.24 1.20
-4.64 -1.20 1.22
-4.77 -1.20 1.20
-4.95 -1.22 1.17
-4.79 -1.17 1.20
-4.88 -1.17 1.18
-4.72 -1.13 1.21
-5.35 -1.15 1.12
-4.58 -1.02 1.23
-4.83 -1.00 1.19
-4.30 -0.91 1.26
-4.07 -0.87 1.29
-10.66 -1.67 0.41
-3.80 -0.79 1.33
-3.81 -0.77 1.33
-4.31 -0.80 1.26
-3.88 -0.73 1.32
-6.97 -1.04 0.91
-9.66 -1.31 0.54
-10.12 -1.33 0.48
-4.20 -0.69 1.28
-4.23 -0.68 1.27
-9.54 -1.18 0.56
-7.97 -0.95 0.77
-3.48 -0.53 1.37
-7.99 -0.90 0.77
-8.06 -0.88 0.76
-3.54 -0.49 1.37
-3.39 -0.46 1.39
-3.54 -0.46 1.37
-3.52 -0.45 1.37
-3.69 -0.44 1.35
-7.54 -0.70 0.83
-3.84 -0.42 1.33
-7.41 -0.64 0.85
-7.43 -0.62 0.84
-4.37 -0.41 1.25
-4.42 -0.40 1.25
-7.37 -0.54 0.85
-6.97 -0.50 0.90
-6.60 -0.46 0.95
-6.50 -0.43 0.97
-6.65 -0.42 0.95
-7.19 -0.42 0.87
-3.63 -0.25 1.35
-3.35 -0.22 1.39
-3.58 -0.22 1.36
-3.61 -0.20 1.35
-3.67 -0.19 1.35
-3.78 -0.18 1.33
-6.63 -0.24 0.95
-4.08 -0.16 1.29
-4.11 -0.14 1.29
-6.11 -0.17 1.02
-6.20 -0.15 1.00
-7.73 -0.11 1.11
-7.91 -0.09 1.08
-7.79 -0.07 1.10
-7.50 -0.05 1.14
-7.59 -0.03 1.12
-7.59 -0.01 1.12
-4.04 0.00 1.25
-4.19 0.02 1.23
-3.88 0.05 1.27
-3.96 0.06 1.26
-6.48 0.11 0.90
-6.48 0.13 0.90
-6.27 0.15 0.93
-6.25 0.17 0.93
-6.28 0.19 0.93
-6.52 0.21 0.89
-7.87 0.22 1.03
-8.13 0.25 0.99
-8.19 0.27 0.98
-8.36 0.30 0.95
-8.35 0.32 0.96
-8.24 0.33 0.97
-8.22 0.35 0.97
-8.60 0.39 0.92
-8.54 0.41 0.93
-8.79 0.44 0.89
-8.85 0.47 0.88
-8.84 0.49 0.88
-8.58 0.52 0.92
-8.93 0.60 0.87
-8.96 0.63 0.86
-9.01 0.65 0.86
-9.28 0.69 0.82
-9.35 0.75 0.81
-8.74 0.72 0.89
-8.80 0.77 0.88
-6.43 0.60 1.22
-6.45 0.64 1.22
-6.86 0.71 1.16
-6.80 0.72 1.16
-6.92 0.75 1.15
-7.00 0.78 1.13
-3.66 -1.55 1.30
-3.36 -1.46 1.34
-3.50 -1.48 1.32
-3.33 -1.42 1.35
-3.27 -1.39 1.36
-3.33 -1.39 1.35
-3.31 -1.37 1.35
-3.76 -1.45 1.29
-4.06 -1.50 1.24
-3.37 -1.33 1.34
-4.49 -1.57 1.18
-4.23 -1.49 1.22
-4.43 -1.52 1.19
-4.43 -1.50 1.19
-4.27 -1.43 1.21
-4.69 -1.50 1.16
-4.58 -1.45 1.17
-4.69 -1.43 1.16
-4.48 -1.37 1.19
-4.63 -1.39 1.17
-3.67 -1.18 1.30
-4.60 -1.35 1.17
-4.46 -1.30 1.19
-4.64 -1.32 1.16
-4.39 -1.26 1.20
-4.57 -1.27 1.18
-3.46 -1.06 1.33
-4.77 -1.27 1.15
-4.70 -1.24 1.16
-4.71 -1.23 1.15
-4.79 -1.22 1.14
-4.75 -1.20 1.15
-4.65 -1.17 1.16
-4.82 -1.17 1.14
-4.67 -1.12 1.16
-4.86 -1.13 1.13
-4.75 -1.08 1.15
-4.54 -1.03 1.18
-4.78 -1.05 1.15
-4.93 -1.03 1.13
-3.77 -0.85 1.29
-3.98 -0.87 1.26
-3.63 -0.79 1.31
-10.65 -1.67 0.32
-3.78 -0.78 1.29
-3.80 -0.77 1.29
-4.02 -0.78 1.26
-10.81 -1.56 0.29
-10.50 -1.49 0.34
-9.67 -1.19 0.46
-8.21 -0.95 0.66
-8.37 -0.94 0.64
-8.35 -0.91 0.64
-8.62 -0.90 0.60
-3.79 -0.50 1.29
-7.84 -0.79 0.71
-3.75 -0.46 1.29
-3.60 -0.44 1.31
-4.28 -0.47 1.22
-4.28 -0.45 1.22
-4.25 -0.44 1.22
-4.54 -0.44 1.18
-7.44 -0.59 0.77
-7.52 -0.58 0.76
-7.14 -0.53 0.81
-7.25 -0.51 0.80
-3.90 -0.32 1.27
-6.44 -0.43 0.91
-6.56 -0.41 0.89
-7.02 -0.41 0.83
-7.23 -0.40 0.80
-3.58 -0.23 1.32
-3.51 -0.21 1.32
-3.48 -0.20 1.33
-3.97 -0.20 1.26
-4.20 -0.19 1.23
-7.39 -0.26 0.77
-6.80 -0.22 0.86
-3.97 -0.14 1.26
-4.01 -0.12 1.25
-8.19 -0.18 0.66
-4.38 -0.10 1.20
-4.34 -0.08 1.21
-4.23 -0.06 1.22
-4.34 -0.05 1.21
-4.20 -0.03 1.23
-3.99 -0.01 1.26
-7.43 0.01 1.03
-7.71 0.02 0.99
-8.21 0.05 0.91
-7.88 0.06 0.96
-7.69 0.08 0.99
-7.94 0.10 0.95
-7.78 0.12 0.97
-8.08 0.15 0.93
-8.10 0.17 0.93
-8.08 0.19 0.93
-7.91 0.20 0.95
-8.33 0.23 0.89
-8.12 0.25 0.92
-8.30 0.27 0.89
-8.39 0.30 0.88
-8.28 0.31 0.90
-8.27 0.33 0.90
-8.30 0.36 0.89
-8.47 0.38 0.87
-8.47 0.41 0.87
-8.07 0.41 0.93
-8.14 0.43 0.91
-8.23 0.46 0.90
-8.13 0.47 0.91
-8.05 0.49 0.93
-8.29 0.52 0.89
-8.00 0.52 0.93
-7.99 0.54 0.93
-8.64 0.63 0.84
-6.75 0.51 1.12
-8.81 0.68 0.81
-8.67 0.69 0.83
-6.62 0.55 1.14
-6.57 0.58 1.14
-6.59 0.60 1.14
-6.58 0.62 1.14
-6.50 0.63 1.15
-6.56 0.65 1.14
-6.66 0.67 1.13
-6.66 0.69 1.13
-6.79 0.72 1.11
-6.86 0.75 1.10
-6.83 0.76 1.10
-6.66 0.78 1.12
-3.73 -1.63 1.23
-3.43 -1.52 1.28
-3.51 -1.53 1.27
-3.41 -1.49 1.28
-3.43 -1.46 1.28
-3.44 -1.44 1.28
-3.54 -1.43 1.27
-3.86 -1.49 1.22
-3.62 -1.42 1.26
-3.64 -1.39 1.25
-3.92 -1.43 1.21
-3.78 -1.36 1.23
-3.63 -1.32 1.25
-4.12 -1.41 1.18
-3.57 -1.26 1.26
-3.74 -1.26 1.24
-4.04 -1.29 1.19
-4.45 -1.36 1.13
-4.50 -1.35 1.13
-4.54 -1.32 1.12
-4.58 -1.29 1.12
-4.77 -1.29 1.09
-4.86 -1.29 1.07
-4.98 -1.30 1.06
-4.78 -1.23 1.09
-4.95 -1.22 1.06
-4.79 -1.16 1.09
-4.01 -1.02 1.20
-4.75 -1.11 1.09
-3.53 -0.90 1.27
-3.44 -0.86 1.29
-3.44 -0.83 1.29
-3.43 -0.81 1.29
-3.44 -0.80 1.29
-3.54 -0.78 1.27
-3.70 -0.77 1.25
-3.86 -0.76 1.23
-3.82 -0.74 1.23
-3.82 -0.73 1.23
-3.29 -0.64 1.31
-3.71 -0.66 1.25
-3.62 -0.62 1.26
-3.62 -0.60 1.26
-3.46 -0.57 1.28
-3.42 -0.54 1.29
-8.61 -0.96 0.52
-3.68 -0.50 1.25
-3.84 -0.50 1.23
-4.48 -0.54 1.13
-4.40 -0.50 1.14
-4.56 -0.47 1.12
-4.35 -0.43 1.15
-4.92 -0.45 1.07
-5.08 -0.44 1.04
-4.57 -0.37 1.12
-4.90 -0.35 1.07
-5.39 -0.34 1.00
-5.79 -0.34 0.94
-3.72 -0.24 1.24
-9.28 -0.31 0.76
-9.54 -0.30 0.72
-4.96 -0.15 1.40
-9.33 -0.25 0.75
-9.27 -0.22 0.76
-9.04 -0.19 0.79
-9.40 -0.18 0.74
-9.31 -0.15 0.75
-9.49 -0.13 0.72
-7.38 -0.09 1.04
-7.41 -0.07 1.03
-7.60 -0.05 1.00
-7.36 -0.03 1.04
-7.43 -0.01 1.03
-4.31 -0.00 1.11
-7.51 0.07 0.61
-3.68 0.06 1.21
-6.41 0.15 0.78
-5.95 0.16 0.85
-6.45 0.19 0.77
-6.54 0.21 0.75
-6.23 0.23 0.80
-6.70 0.26 0.73
-6.50 0.28 0.76
-6.41 0.30 0.77
-6.55 0.32 0.75
-6.69 0.35 0.73
-6.77 0.37 0.72
-6.77 0.40 0.72
-8.61 0.43 0.79
-8.22 0.43 0.85
-7.82 0.43 0.91
-7.99 0.46 0.88
-7.82 0.47 0.91
-7.80 0.49 0.91
-8.37 0.61 0.82
-6.55 0.63 1.10
-1.82 -1.47 1.49
-2.04 -1.33 1.46
-3.43 -1.30 1.25
-3.26 -1.23 1.27
-3.36 -1.22 1.26
-3.26 -1.19 1.27
-4.28 -1.28 1.11
-3.89 -1.06 1.18
-3.64 -1.00 1.22
-3.45 -0.95 1.25
-3.50 -0.95 1.24
-3.46 -0.93 1.25
-3.53 -0.92 1.23
-3.40 -0.82 1.25
-3.31 -0.79 1.27
-3.29 -0.77 1.27
-3.44 -0.77 1.25
-3.48 -0.74 1.24
-3.69 -0.75 1.21
-3.40 -0.69 1.26
-8.75 -1.10 0.42
-6.63 -0.87 0.75
-9.13 -1.09 0.36
-8.61 -1.01 0.44
-8.48 -0.97 0.46
-8.46 -0.94 0.46
-8.39 -0.73 0.47
-4.62 -0.46 1.06
-8.04 -0.66 0.53
-8.14 -0.64 0.51
-4.02 -0.28 1.16
-7.02 -0.32 0.69
-6.44 -0.28 0.78
-6.75 -0.27 0.73
-7.11 -0.23 0.67
-7.10 -0.21 0.67
-8.41 -0.21 0.47
-7.45 -0.15 0.62
-4.08 -0.06 1.14
-3.96 -0.05 1.16
-4.07 -0.03 1.15
-3.93 -0.02 1.17
-7.31 0.00 0.93
-10.12 0.03 0.47
-9.34 0.05 0.59
-9.48 0.08 0.57
-9.30 0.10 0.60
-9.04 0.12 0.64
-9.30 0.14 0.60
-9.25 0.17 0.61
-9.32 0.19 0.60
-9.36 0.21 0.59
-9.33 0.24 0.59
-9.12 0.25 0.63
-9.05 0.27 0.64
-8.48 0.28 0.73
-8.35 0.30 0.75
-8.36 0.32 0.75
-8.46 0.34 0.73
-8.77 0.37 0.68
-8.60 0.39 0.71
-8.58 0.41 0.71
-4.58 0.24 1.37
-4.53 0.25 1.38
-7.68 0.43 0.86
-7.83 0.45 0.83
-7.86 0.47 0.83
-7.72 0.49 0.85
-7.64 0.50 0.86
-7.62 0.52 0.87
-7.72 0.54 0.85
-7.56 0.55 0.88
-7.46 0.56 0.89
-7.49 0.58 0.89
-7.62 0.61 0.86
-7.24 0.60 0.93
-7.70 0.66 0.85
-6.81 0.64 1.00
-6.76 0.65 1.00
-6.76 0.74 1.00
-1.69 -1.64 1.46
-1.33 -1.24 1.53
-2.72 -1.59 1.30
-3.71 -1.68 1.14
-3.48 -1.54 1.18
-3.59 -1.54 1.16
-3.84 -1.55 1.12
-3.38 -1.43 1.20
-3.50 -1.44 1.18
-4.27 -1.61 1.05
-4.32 -1.60 1.04
-4.41 -1.61 1.03
-4.32 -1.57 1.04
-4.09 -1.50 1.08
-4.51 -1.58 1.01
-4.08 -1.46 1.08
-3.93 -1.41 1.11
-3.70 -1.35 1.15
-3.62 -1.32 1.16
-4.54 -1.50 1.01
-4.47 -1.46 1.02
-4.28 -1.41 1.05
-3.43 -1.22 1.19
-3.75 -1.27 1.14
-3.32 -1.17 1.21
-4.22 -1.33 1.06
-4.30 -1.33 1.05
-3.97 -1.25 1.10
-4.31 -1.30 1.05
-4.21 -1.26 1.06
-4.19 -1.24 1.07
-4.02 -1.19 1.10
-3.96 -1.17 1.11
-4.30 -1.21 1.05
-4.38 -1.21 1.04
-4.30 -1.18 1.05
-4.29 -1.16 1.05
-4.19 -1.13 1.07
-4.21 -1.11 1.07
-4.66 -1.17 0.99
-4.41 -1.12 1.03
-3.81 -1.00 1.13
-3.76 -0.98 1.14
-3.52 -0.93 1.18
-3.37 -0.89 1.21
-3.38 -0.88 1.20
-3.33 -0.86 1.21
-3.30 -0.84 1.22
-3.31 -0.83 1.22
-3.27 -0.81 1.22
-3.31 -0.80 1.22
-3.32 -0.78 1.22
-3.47 -0.79 1.19
-3.46 -0.77 1.19
-3.47 -0.76 1.19
-3.49 -0.75 1.19
-3.49 -0.73 1.19
-3.61 -0.73 1.17
-3.55 -0.71 1.18
-3.26 -0.67 1.22
-3.38 -0.66 1.20
-3.33 -0.64 1.21
-3.44 -0.64 1.19
-3.35 -0.62 1.21
-3.53 -0.62 1.18
-3.26 -0.58 1.22
-3.18 -0.56 1.24
-3.23 -0.55 1.23
-3.16 -0.53 1.24
-2.96 -0.50 1.27
-2.94 -0.48 1.28
-5.62 -0.70 0.84
-3.16 -0.48 1.24
-5.50 -0.65 0.86
-6.06 -0.68 0.76
-5.87 -0.64 0.79
-5.99 -0.63 0.77
-5.61 -0.58 0.84
-6.02 -0.59 0.77
-5.44 -0.53 0.87
-5.78 -0.54 0.81
-5.56 -0.50 0.85
-5.07 -0.46 0.93
-4.63 -0.41 1.00
-8.86 -0.50 0.68
-8.19 -0.44 0.79
-8.27 -0.42 0.77
-8.37 -0.41 0.76
-8.41 -0.39 0.75
-8.39 -0.37 0.76
-8.32 -0.34 0.77
-8.33 -0.32 0.76
-8.36 -0.30 0.76
-7.93 -0.27 0.83
-9.52 -0.30 0.57
-9.07 -0.26 0.64
-9.10 -0.24 0.64
-9.21 -0.22 0.62
-9.46 -0.20 0.58
-9.51 -0.18 0.57
-9.47 -0.16 0.58
-9.58 -0.13 0.56
-9.62 -0.11 0.55
-9.89 -0.09 0.51
-9.52 -0.06 0.57
-7.56 -0.03 0.89
-8.05 -0.01 0.81
-3.64 -0.00 1.11
-3.73 0.01 1.09
-3.69 0.03 1.10
-8.48 0.07 0.67
-8.62 0.09 0.64
-8.88 0.11 0.60
-4.27 0.07 1.39
-9.29 0.17 0.53
-4.67 0.10 1.32
-4.36 0.10 1.37
-4.49 0.12 1.35
-8.19 0.23 0.71
-8.18 0.25 0.71
-8.30 0.27 0.69
-4.35 0.16 1.37
-4.39 0.17 1.37
-8.62 0.35 0.64
-5.25 0.23 1.22
-4.96 0.23 1.27
-5.12 0.25 1.24
-5.22 0.27 1.22
-7.82 0.41 0.77
-7.76 0.43 0.78
-5.64 0.33 1.15
-5.63 0.34 1.15
-7.62 0.48 0.81
-7.74 0.50 0.79
-5.31 0.37 1.20
-7.59 0.53 0.81
-4.91 0.36 1.27
-7.56 0.57 0.81
-4.90 0.39 1.27
-7.36 0.59 0.85
-7.30 0.61 0.86
-7.46 0.64 0.83
-6.61 0.58 0.98
-6.63 0.64 0.97
-6.67 0.66 0.96
-6.49 0.66 0.99
-6.60 0.68 0.97
-6.73 0.71 0.95
-7.83 1.50 0.73
-1.78 -1.68 1.41
-1.74 -1.46 1.43
-1.69 -1.34 1.44
-2.89 -1.64 1.23
-2.32 -1.45 1.33
-2.96 -1.61 1.22
-3.21 -1.66 1.17
-3.21 -1.62 1.17
-3.35 -1.65 1.15
-3.06 -1.55 1.20
-2.80 -1.46 1.25
-2.89 -1.48 1.23
-2.97 -1.48 1.22
-3.49 -1.61 1.13
-3.02 -1.46 1.21
-2.83 -1.39 1.24
-3.41 -1.52 1.14
-3.44 -1.51 1.14
-3.31 -1.46 1.16
-3.20 -1.42 1.18
-3.21 -1.41 1.18
-3.38 -1.43 1.15
-3.09 -1.35 1.20
-3.15 -1.35 1.19
-3.32 -1.38 1.16
-3.19 -1.33 1.18
-3.44 -1.38 1.14
-3.01 -1.26 1.22
-4.61 -1.61 0.94
-3.40 -1.32 1.15
-3.23 -1.27 1.18
-3.40 -1.29 1.15
-3.83 -1.37 1.08
-4.13 -1.42 1.02
-4.58 -1.50 0.95
-4.23 -1.41 1.01
-4.24 -1.40 1.01
-3.66 -1.26 1.11
-3.31 -1.18 1.17
-4.31 -1.36 0.99
-3.41 -1.17 1.15
-4.27 -1.32 1.00
-3.42 -1.14 1.15
-3.66 -1.17 1.11
-3.39 -1.10 1.15
-3.33 -1.08 1.17
-3.61 -1.12 1.12
-3.87 -1.15 1.07
-3.69 -1.10 1.10
-3.92 -1.13 1.06
-4.23 -1.16 1.01
-4.04 -1.12 1.04
-4.31 -1.15 1.00
-4.35 -1.14 0.99
-4.05 -1.07 1.04
-3.87 -1.02 1.07
-3.68 -0.98 1.11
-3.47 -0.93 1.14
-3.38 -0.90 1.16
-3.32 -0.88 1.17
-3.22 -0.85 1.19
-3.29 -0.85 1.18
-3.32 -0.84 1.17
-3.25 -0.81 1.18
-3.25 -0.80 1.18
-3.34 -0.80 1.17
-3.17 -0.76 1.20
-3.21 -0.75 1.19
-3.14 -0.73 1.20
-3.13 -0.72 1.20
-3.19 -0.71 1.19
-3.16 -0.69 1.20
-3.22 -0.69 1.19
-3.36 -0.69 1.16
-3.15 -0.65 1.20
-3.10 -0.63 1.21
-3.29 -0.64 1.18
-3.28 -0.62 1.18
-3.28 -0.61 1.18
-3.32 -0.60 1.17
-3.30 -0.58 1.17
-3.22 -0.56 1.19
-3.20 -0.55 1.19
-3.17 -0.53 1.20
-3.10 -0.51 1.21
-3.02 -0.49 1.22
-2.99 -0.47 1.23
-3.11 -0.47 1.21
-5.60 -0.66 0.78
-5.86 -0.66 0.73
-5.75 -0.63 0.75
-3.17 -0.42 1.20
-5.17 -0.55 0.85
-3.93 -0.45 1.06
-4.17 -0.45 1.02
-4.80 -0.47 0.91
-4.74 -0.45 0.92
-4.83 -0.44 0.91
-4.68 -0.41 0.94
-4.52 -0.39 0.96
-4.67 -0.38 0.94
-4.50 -0.35 0.96
-4.18 -0.32 1.02
-4.18 -0.30 1.02
-4.33 -0.30 1.00
-5.40 -0.32 0.81
-4.35 -0.26 0.99
-4.50 -0.25 0.96
-5.79 -0.28 0.74
-6.44 -0.28 0.63
-3.91 -0.19 1.07
-7.71 -0.27 0.41
-4.63 -0.17 0.94
-3.81 -0.14 1.08
-6.10 -0.17 0.69
-3.61 -0.10 1.12
-3.96 -0.09 1.06
-3.84 -0.08 1.08
-3.88 -0.06 1.07
-3.93 -0.05 1.06
-3.90 -0.03 1.06
-3.82 -0.02 1.08
-8.22 0.00 0.64
-8.40 0.03 0.61
-8.52 0.05 0.59
-8.39 0.07 0.61
-8.30 0.09 0.63
-8.35 0.11 0.62
-8.26 0.13 0.63
-5.14 0.09 1.19
-4.94 0.10 1.23
-5.08 0.12 1.21
-5.17 0.13 1.19
-7.71 0.21 0.73
-5.39 0.17 1.15
-5.17 0.17 1.19
-5.44 0.19 1.14
-5.15 0.20 1.19
-8.17 0.33 0.64
-7.62 0.33 0.74
-7.48 0.34 0.77
-7.85 0.37 0.70
-4.92 0.25 1.23
-7.60 0.40 0.75
-7.68 0.42 0.73
-7.74 0.45 0.72
-7.68 0.46 0.73
-7.55 0.47 0.75
-7.53 0.49 0.76
-7.22 0.49 0.81
-7.25 0.51 0.80
-7.23 0.53 0.81
-7.31 0.55 0.79
-7.23 0.56 0.81
-7.56 0.61 0.75
-7.32 0.61 0.79
-7.60 0.65 0.74
-7.68 0.67 0.72
-7.65 0.69 0.73
-7.54 0.70 0.75
-7.28 0.70 0.79
-6.74 0.66 0.89
-6.56 0.66 0.92
-6.55 0.68 0.93
-6.56 0.70 0.92
-6.41 0.70 0.95
-6.37 0.71 0.96
-6.03 0.69 1.02
-6.04 0.71 1.02
-6.21 0.74 0.98
-6.10 0.74 1.00
-6.28 0.78 0.97
-6.28 0.80 0.97
-6.27 0.81 0.97
-6.28 0.83 0.97
-6.44 0.87 0.94
-6.09 0.84 1.00
-6.01 0.84 1.02
-5.98 0.85 1.02
-6.10 0.89 1.00
-6.04 0.89 1.01
-6.16 0.93 0.99
-8.89 1.59 0.47
-8.52 1.54 0.54
-7.90 1.46 0.66
-8.54 1.61 0.54
-4.27 0.94 1.32
-4.06 0.97 1.35
-5.08 1.21 1.16
-4.02 1.00 1.36
-4.28 1.07 1.31
-3.07 -1.67 1.15
-3.07 -1.64 1.15
-3.61 -1.65 1.05
-3.97 -1.69 0.99
-4.01 -1.67 0.98
-4.11 -1.68 0.96
-3.89 -1.59 1.01
-4.11 -1.60 0.97
-3.37 -1.41 1.10
-4.36 -1.63 0.92
-3.52 -1.41 1.08
-4.20 -1.55 0.95
-4.40 -1.58 0.92
-4.81 -1.66 0.84
-4.55 -1.58 0.89
-4.82 -1.63 0.84
-4.57 -1.55 0.89
-4.72 -1.57 0.86
-4.83 -1.57 0.84
-4.62 -1.51 0.88
-4.79 -1.53 0.85
-4.51 -1.45 0.90
-4.63 -1.46 0.88
-4.69 -1.46 0.87
-4.81 -1.46 0.84
-4.86 -1.46 0.84
-4.72 -1.41 0.86
-4.57 -1.36 0.89
-3.98 -1.23 1.00
-4.18 -1.26 0.96
-3.76 -1.16 1.04
-4.04 -1.20 0.99
-3.49 -1.08 1.09
-3.64 -1.09 1.06
-3.51 -1.06 1.08
-3.59 -1.06 1.07
-4.00 -1.11 1.00
-3.75 -1.05 1.04
-3.60 -1.01 1.07
-4.71 -1.18 0.87
-3.77 -1.01 1.04
-3.40 -0.94 1.11
-3.59 -0.95 1.07
-3.64 -0.95 1.06
-3.85 -0.96 1.02
-3.49 -0.89 1.09
-3.52 -0.88 1.09
-3.42 -0.85 1.10
-3.37 -0.83 1.11
-3.34 -0.81 1.12
-3.34 -0.80 1.12
-3.36 -0.79 1.11
-3.34 -0.77 1.12
-3.47 -0.77 1.09
-3.59 -0.78 1.07
-3.51 -0.75 1.09
-3.54 -0.74 1.08
-3.57 -0.73 1.08
-3.68 -0.73 1.06
-3.60 -0.70 1.07
-3.37 -0.66 1.11
-3.45 -0.66 1.10
-3.18 -0.61 1.15
-3.31 -0.61 1.12
-3.27 -0.60 1.13
-3.49 -0.60 1.09
-3.72 -0.61 1.05
-3.93 -0.62 1.01
-4.00 -0.61 1.00
-4.06 -0.60 0.99
-4.01 -0.58 1.00
-4.29 -0.59 0.95
-5.69 -0.69 0.69
-5.80 -0.68 0.67
-5.56 -0.64 0.72
-5.92 -0.65 0.65
-5.71 -0.61 0.69
-5.59 -0.58 0.71
-5.59 -0.56 0.71
-5.47 -0.54 0.73
-5.13 -0.50 0.79
-5.78 -0.52 0.68
-5.23 -0.46 0.78
-5.45 -0.46 0.74
-4.25 -0.37 0.95
-4.44 -0.37 0.92
-5.87 -0.42 0.66
-4.59 -0.34 0.89
-4.13 -0.30 0.97
-4.33 -0.30 0.94
-4.09 -0.27 0.98
-4.01 -0.25 1.00
-4.03 -0.24 0.99
-4.28 -0.23 0.94
-4.27 -0.21 0.95
-4.11 -0.19 0.98
-4.19 -0.18 0.96
-4.73 -0.18 0.86
-4.06 -0.14 0.98
-5.68 -0.16 0.69
-6.07 -0.15 0.62
-7.32 -0.11 0.81
-7.09 -0.08 0.85
-7.14 -0.07 0.84
-7.14 -0.05 0.84
-7.38 -0.03 0.79
-8.05 -0.02 0.67
-5.63 -0.00 0.63
-3.90 0.01 0.96
-6.84 0.04 0.40
-6.70 0.06 0.42
-6.47 0.08 0.47
-6.50 0.10 0.46
-3.56 0.09 1.02
-3.82 0.10 0.97
-3.50 0.11 1.03
-3.53 0.13 1.02
-4.07 0.16 0.92
-7.69 0.21 0.67
-7.04 0.21 0.79
-5.09 0.17 1.16
-5.06 0.18 1.16
-5.00 0.19 1.17
-7.42 0.30 0.72
-7.88 0.34 0.63
-4.82 0.22 1.21
-4.66 0.23 1.24
-4.71 0.24 1.23
-4.62 0.25 1.24
-5.14 0.29 1.14
-4.81 0.28 1.21
-4.76 0.29 1.22
-5.40 0.34 1.09
-7.39 0.48 0.72
-5.13 0.35 1.14
-7.49 0.52 0.70
-7.64 0.55 0.67
-5.10 0.39 1.15
-7.84 0.61 0.63
-7.85 0.63 0.63
-5.45 0.46 1.08
-7.62 0.65 0.67
-7.63 0.67 0.67
-7.53 0.68 0.68
-7.51 0.70 0.69
-7.12 0.68 0.76
-6.73 0.66 0.83
-6.87 0.69 0.81
-6.73 0.70 0.83
-6.35 0.67 0.90
-6.11 0.67 0.95
-6.05 0.67 0.96
-6.29 0.72 0.91
-6.16 0.72 0.94
-6.02 0.72 0.96
-6.15 0.75 0.94
-6.24 0.77 0.92
-6.08 0.79 0.95
-5.81 0.77 1.00
-5.38 0.73 1.08
-5.62 0.77 1.04
-5.83 0.82 1.00
-3.82 0.73 1.37
-3.15 0.90 1.48
-2.21 -1.68 1.26
-1.96 -1.56 1.31
-1.91 -1.40 1.33
-1.94 -1.40 1.32
-2.82 -1.63 1.15
-2.86 -1.61 1.14
-2.89 -1.61 1.14
-2.91 -1.60 1.13
-2.97 -1.60 1.12
-3.34 -1.61 1.05
-3.30 -1.57 1.06
-3.46 -1.60 1.03
-2.75 -1.37 1.17
-2.67 -1.34 1.19
-2.85 -1.37 1.15
-2.49 -1.25 1.22
-2.72 -1.28 1.18
-2.92 -1.32 1.14
-2.23 -1.14 1.27
-2.20 -1.09 1.28
-2.70 -1.19 1.18
-2.18 -1.06 1.28
-4.69 -1.61 0.80
-4.54 -1.56 0.83
-4.58 -1.55 0.82
-4.98 -1.62 0.75
-5.04 -1.62 0.74
-2.89 -1.14 1.15
-5.18 -1.61 0.71
-3.00 -1.14 1.13
-2.97 -1.12 1.13
-2.89 -1.09 1.15
-2.88 -1.07 1.15
-2.98 -1.08 1.13
-2.77 -1.03 1.17
-4.46 -1.34 0.85
-4.28 -1.29 0.88
-3.03 -1.04 1.12
-3.09 -1.03 1.11
-4.26 -1.24 0.89
-3.54 -1.09 1.03
-3.85 -1.13 0.97
-3.49 -1.05 1.04
-3.14 -0.98 1.10
-3.08 -0.95 1.12
-3.38 -0.99 1.06
-3.21 -0.95 1.09
-3.53 -0.98 1.03
-3.18 -0.91 1.10
-3.22 -0.91 1.09
-3.30 -0.91 1.07
-3.19 -0.87 1.10
-3.30 -0.88 1.08
-3.27 -0.86 1.08
-3.37 -0.86 1.06
-3.30 -0.83 1.08
-3.43 -0.84 1.05
-3.27 -0.80 1.08
-3.50 -0.82 1.04
-3.22 -0.77 1.09
-3.15 -0.75 1.10
-3.18 -0.74 1.10
-3.38 -0.75 1.06
-3.30 -0.72 1.08
-3.27 -0.71 1.08
-3.22 -0.69 1.09
-3.29 -0.68 1.08
-3.29 -0.67 1.08
-3.31 -0.65 1.08
-3.37 -0.65 1.06
-3.36 -0.63 1.06
-3.32 -0.61 1.07
-3.54 -0.62 1.03
-3.31 -0.58 1.07
-3.37 -0.58 1.06
-3.52 -0.58 1.03
-3.77 -0.59 0.99
-3.97 -0.59 0.95
-3.67 -0.55 1.01
-3.15 -0.49 1.10
-3.26 -0.48 1.08
-3.44 -0.48 1.05
-3.43 -0.47 1.05
-6.01 -0.65 0.56
-5.82 -0.62 0.60
-5.78 -0.60 0.61
-5.69 -0.57 0.62
-5.81 -0.56 0.60
-5.98 -0.55 0.57
-5.51 -0.50 0.66
-4.96 -0.45 0.76
-4.26 -0.39 0.89
-4.56 -0.39 0.84
-5.78 -0.44 0.60
-4.03 -0.33 0.94
-3.80 -0.30 0.98
-3.75 -0.29 0.99
-3.89 -0.28 0.96
-3.75 -0.26 0.99
-3.78 -0.24 0.98
-4.59 -0.26 0.83
-5.79 -0.28 0.60
-3.92 -0.20 0.96
-4.24 -0.20 0.90
-4.17 -0.18 0.91
-4.28 -0.16 0.89
-4.38 -0.15 0.87
-4.22 -0.13 0.90
-4.57 -0.12 0.83
-5.44 -0.10 0.67
-5.95 -0.08 0.57
-5.74 -0.06 0.61
-5.97 -0.04 0.56
-5.56 -0.02 0.64
-7.81 0.00 0.57
-7.82 0.02 0.57
-7.87 0.04 0.56
-8.06 0.06 0.52
-5.10 0.05 1.11
-5.01 0.06 1.12
-5.08 0.08 1.11
-8.06 0.14 0.52
-5.15 0.11 1.09
-7.84 0.18 0.56
-7.35 0.19 0.66
-7.28 0.20 0.67
-7.41 0.22 0.65
-7.15 0.23 0.70
-7.27 0.26 0.67
-7.49 0.28 0.63
-7.52 0.30 0.62
-7.66 0.33 0.59
-7.72 0.35 0.58
-7.77 0.37 0.57
-5.10 0.26 1.10
-5.18 0.28 1.09
-5.02 0.28 1.12
-7.09 0.41 0.71
-7.18 0.43 0.69
-6.98 0.44 0.73
-7.08 0.46 0.71
-7.24 0.49 0.67
-7.18 0.50 0.69
-7.27 0.53 0.67
-7.67 0.58 0.59
-7.56 0.59 0.61
-5.31 0.43 1.05
-7.50 0.62 0.62
-7.62 0.65 0.59
-7.61 0.67 0.60
-7.64 0.69 0.59
-7.68 0.71 0.58
-7.72 0.73 0.57
-7.54 0.74 0.61
-7.58 0.76 0.60
-7.35 0.76 0.64
-7.50 0.79 0.61
-6.28 0.68 0.86
-6.15 0.69 0.88
-5.87 0.67 0.93
-6.13 0.72 0.88
-5.98 0.71 0.91
-5.94 0.72 0.92
-5.74 0.72 0.96
-6.02 0.77 0.90
-5.92 0.77 0.92
-5.88 0.78 0.93
-6.10 0.82 0.88
-6.42 0.88 0.82
-6.45 0.90 0.81
-6.29 0.90 0.84
-7.17 1.03 0.67
-6.70 0.99 0.76
-7.58 1.13 0.58
-7.73 1.17 0.55
-5.38 0.86 1.02
-7.66 1.22 0.56
-5.29 0.87 1.04
-3.84 0.71 1.33
-3.81 0.76 1.33
-4.13 0.85 1.26
-4.33 0.90 1.22
-4.41 1.11 1.19
-3.11 -1.68 1.04
-3.29 -1.66 1.00
-3.29 -1.62 1.01
-2.94 -1.40 1.08
-2.95 -1.34 1.08
-4.67 -1.69 0.73
-4.45 -1.60 0.78
-4.35 -1.53 0.80
-4.51 -1.54 0.77
-4.94 -1.62 0.68
-3.01 -1.19 1.07
-5.18 -1.63 0.64
-5.13 -1.60 0.65
-5.00 -1.56 0.67
-5.05 -1.55 0.66
-5.17 -1.56 0.64
-4.86 -1.48 0.70
-5.28 -1.54 0.62
-4.97 -1.46 0.68
-3.01 -1.06 1.07
-4.47 -1.33 0.78
-4.86 -1.39 0.70
-4.79 -1.35 0.72
-5.23 -1.42 0.63
-2.89 -0.98 1.10
-2.79 -0.94 1.12
-5.13 -1.34 0.65
-5.08 -1.32 0.66
-4.78 -1.25 0.72
-5.06 -1.28 0.67
-3.59 -1.01 0.96
-4.14 -1.09 0.85
-3.84 -1.02 0.91
-3.73 -0.99 0.93
-3.54 -0.95 0.97
-3.39 -0.91 1.00
-3.37 -0.89 1.01
-3.36 -0.87 1.01
-3.39 -0.86 1.00
-3.43 -0.86 0.99
-3.49 -0.85 0.98
-3.47 -0.83 0.99
-3.61 -0.84 0.96
-3.36 -0.79 1.01
-3.49 -0.79 0.98
-3.55 -0.79 0.97
-3.48 -0.76 0.98
-3.34 -0.73 1.01
-3.19 -0.70 1.04
-3.26 -0.69 1.03
-3.40 -0.70 1.00
-3.18 -0.66 1.04
-3.24 -0.65 1.03
-3.24 -0.64 1.03
-3.25 -0.62 1.03
-3.34 -0.62 1.01
-3.31 -0.60 1.02
-3.21 -0.58 1.04
-3.58 -0.60 0.97
-3.86 -0.61 0.91
-3.75 -0.59 0.93
-3.86 -0.58 0.91
-3.82 -0.56 0.92
-3.74 -0.54 0.93
-3.78 -0.53 0.93
-3.82 -0.52 0.92
-3.83 -0.50 0.92
-5.19 -0.59 0.65
-5.47 -0.60 0.59
-5.39 -0.57 0.61
-5.64 -0.57 0.56
-5.40 -0.53 0.60
-5.81 -0.54 0.52
-5.59 -0.51 0.57
-5.62 -0.49 0.56
-4.28 -0.39 0.82
-5.23 -0.43 0.64
-4.11 -0.35 0.86
-3.89 -0.32 0.90
-3.87 -0.31 0.91
-3.80 -0.29 0.92
-4.19 -0.29 0.84
-3.89 -0.26 0.90
-3.74 -0.24 0.93
-6.17 -0.23 0.90
-7.01 -0.24 0.73
-7.33 -0.23 0.67
-7.22 -0.21 0.69
-7.66 -0.21 0.60
-6.97 -0.17 0.74
-7.10 -0.16 0.71
-6.83 -0.13 0.77
-6.82 -0.12 0.77
-8.76 -0.13 0.39
-6.81 -0.08 0.77
-8.73 -0.08 0.39
-7.29 -0.05 0.68
-7.10 -0.03 0.71
-4.96 -0.01 1.14
-6.17 0.04 0.38
-5.93 0.06 0.43
-5.91 0.08 0.43
-6.00 0.10 0.41
-4.16 0.09 0.79
-3.38 0.10 0.95
-3.53 0.11 0.92
-3.71 0.13 0.89
-3.42 0.14 0.94
-3.90 0.17 0.84
-6.26 0.27 0.36
-3.72 0.21 0.88
-3.46 0.21 0.93
-6.16 0.35 0.37
-3.69 0.27 0.88
-4.90 0.25 1.10
-4.75 0.25 1.13
-4.79 0.27 1.12
-4.74 0.28 1.14
-7.06 0.42 0.65
-4.97 0.32 1.09
-5.08 0.33 1.06
-4.78 0.33 1.13
-4.77 0.34 1.13
-7.09 0.51 0.65
-7.19 0.54 0.62
-7.33 0.57 0.59
-5.42 0.44 0.99
-5.67 0.47 0.94
-5.60 0.48 0.95
-7.72 0.67 0.51
-7.55 0.68 0.55
-6.20 0.58 0.83
-5.90 0.57 0.89
-5.94 0.58 0.88
-7.66 0.77 0.52
-7.81 0.80 0.49
-5.95 0.63 0.88
-5.97 0.65 0.87
-7.87 0.86 0.47
-6.40 0.73 0.78
-5.92 0.69 0.88
-5.63 0.67 0.94
-5.82 0.71 0.90
-5.82 0.72 0.90
-5.98 0.76 0.86
-5.81 0.75 0.90
-5.98 0.79 0.86
-5.86 0.79 0.89
-5.98 0.82 0.86
-6.29 0.87 0.80
-6.95 0.98 0.66
-6.98 1.07 0.65
-3.91 0.79 1.28
-1.83 -1.32 1.27
-2.16 -1.41 1.20
-2.24 -1.41 1.18
-2.96 -1.60 1.03
-2.96 -1.57 1.03
-2.14 -1.21 1.21
-2.76 -1.36 1.08
-2.58 -1.27 1.12
-2.11 -1.04 1.22
-2.15 -1.04 1.21
-4.63 -1.58 0.69
-2.04 -0.99 1.23
-1.64 -0.89 1.32
-4.90 -1.59 0.63
-2.22 -1.00 1.20
-1.92 -0.92 1.26
-2.32 -0.99 1.18
-5.13 -1.56 0.59
-2.44 -1.00 1.15
-2.51 -1.00 1.14
-2.27 -0.94 1.19
-2.89 -1.05 1.06
-2.62 -0.98 1.11
-2.60 -0.97 1.12
-2.69 -0.97 1.10
-2.56 -0.94 1.13
-2.50 -0.91 1.14
-2.82 -0.96 1.07
-2.70 -0.92 1.10
-2.86 -0.94 1.07
-3.21 -0.99 0.99
-3.27 -0.98 0.98
-5.02 -1.26 0.62
-5.30 -1.29 0.56
-3.20 -0.93 1.00
-3.18 -0.91 1.00
-3.18 -0.90 1.00
-3.06 -0.87 1.03
-3.08 -0.86 1.02
-2.96 -0.82 1.05
-2.78 -0.78 1.08
-2.80 -0.77 1.08
-3.01 -0.79 1.04
-3.24 -0.81 0.99
-3.26 -0.80 0.99
-3.34 -0.80 0.97
-3.32 -0.78 0.97
-3.24 -0.76 0.99
-3.20 -0.74 1.00
-3.12 -0.71 1.01
-3.01 -0.69 1.04
-2.80 -0.65 1.08
-2.91 -0.65 1.06
-3.01 -0.65 1.04
-2.95 -0.63 1.05
-2.90 -0.61 1.06
-2.98 -0.60 1.05
-2.77 -0.57 1.09
-2.79 -0.56 1.08
-2.97 -0.56 1.05
-2.81 -0.53 1.08
-3.05 -0.55 1.03
-3.00 -0.53 1.04
-3.06 -0.52 1.03
-3.01 -0.50 1.04
-3.31 -0.52 0.98
-3.40 -0.51 0.96
-3.28 -0.49 0.98
-3.55 -0.49 0.93
-3.08 -0.44 1.02
-3.13 -0.43 1.01
-3.13 -0.42 1.01
-3.96 -0.47 0.84
-3.48 -0.42 0.94
-3.54 -0.41 0.93
-5.37 -0.51 0.55
-4.70 -0.45 0.69
-4.18 -0.40 0.80
-4.07 -0.38 0.82
-3.55 -0.33 0.92
-2.75 -0.28 1.09
-3.66 -0.31 0.90
-3.68 -0.30 0.90
-3.75 -0.29 0.88
-3.71 -0.27 0.89
-3.91 -0.26 0.85
-3.68 -0.24 0.90
-3.44 -0.21 0.95
-3.82 -0.21 0.87
-4.99 -0.24 0.63
-5.26 -0.23 0.57
-4.55 -0.19 0.72
-6.17 -0.15 0.38
-6.04 -0.03 0.41
-7.43 0.00 0.51
-7.44 0.02 0.50
-7.71 0.04 0.45
-7.98 0.10 0.39
-8.62 0.13 0.25
-8.02 0.14 0.38
-7.64 0.15 0.46
-7.59 0.17 0.47
-7.57 0.19 0.47
-7.67 0.21 0.45
-7.69 0.23 0.45
-7.71 0.25 0.44
-7.63 0.27 0.46
-7.49 0.28 0.49
-7.70 0.31 0.44
-7.67 0.33 0.45
-7.74 0.35 0.43
-7.78 0.37 0.42
-7.11 0.36 0.57
-6.83 0.36 0.63
-6.89 0.38 0.62
-7.22 0.42 0.54
-7.08 0.43 0.57
-7.30 0.46 0.52
-7.06 0.46 0.58
-7.23 0.49 0.54
-7.22 0.51 0.54
-7.27 0.53 0.53
-7.20 0.54 0.54
-7.14 0.56 0.56
-7.39 0.59 0.50
-7.34 0.61 0.51
-5.72 0.49 0.86
-5.62 0.50 0.88
-5.60 0.51 0.89
-5.77 0.54 0.85
-5.71 0.55 0.86
-5.69 0.56 0.87
-5.64 0.57 0.88
-5.74 0.60 0.85
-5.68 0.61 0.87
-5.80 0.64 0.84
-5.90 0.66 0.82
-5.78 0.66 0.84
-5.76 0.68 0.85
-5.71 0.68 0.85
-5.71 0.70 0.86
-5.76 0.72 0.84
-5.78 0.74 0.84
-5.85 0.76 0.82
-5.77 0.77 0.84
-5.69 0.77 0.86
-5.94 0.82 0.80
-5.65 0.79 0.86
-5.96 0.85 0.79
-5.96 0.87 0.80
-5.66 0.84 0.86
-5.98 0.90 0.79
-5.59 0.86 0.87
-6.47 1.00 0.68
-6.05 0.96 0.77
-5.77 0.93 0.83
-5.80 0.95 0.82
-5.96 0.99 0.79
-5.67 0.96 0.85
-5.44 0.94 0.90
-7.07 1.22 0.54
-5.98 1.06 0.78
-6.12 1.10 0.75
-7.60 1.36 0.42
-5.35 1.00 0.92
-4.48 0.86 1.11
-4.09 0.80 1.19
-4.00 0.80 1.21
-3.94 0.79 1.22
-3.95 0.81 1.22
-4.53 0.93 1.09
-4.36 0.91 1.13
-3.85 0.82 1.24
-4.11 0.88 1.18
-4.09 0.89 1.19
-4.14 0.91 1.17
-4.25 0.94 1.15
-4.13 0.93 1.17
-4.46 1.01 1.10
-4.25 0.98 1.15
-4.28 1.00 1.14
-4.28 1.01 1.14
-4.48 1.07 1.09
-4.25 1.03 1.14
-4.28 1.05 1.14
-4.35 1.07 1.12
-4.21 1.05 1.15
-4.07 1.03 1.18
-3.97 1.02 1.20
-3.97 1.03 1.20
-4.28 1.12 1.13
-2.99 -1.54 0.96
-2.77 -1.38 1.02
-2.37 -1.27 1.10
-2.57 -1.31 1.06
-2.61 -1.30 1.05
-2.67 -1.31 1.04
-3.03 -1.37 0.96
-2.62 -1.26 1.05
-2.45 -1.20 1.09
-2.33 -1.16 1.12
-2.53 -1.20 1.07
-2.59 -1.20 1.06
-2.87 -1.25 1.00
-2.65 -1.19 1.05
-2.60 -1.16 1.06
-5.00 -1.69 0.53
-4.82 -1.63 0.57
-4.95 -1.64 0.54
-5.10 -1.66 0.51
-2.35 -1.05 1.12
-2.43 -1.05 1.10
-2.55 -1.06 1.07
-4.81 -1.52 0.58
-4.88 -1.52 0.56
-4.97 -1.52 0.54
-5.13 -1.53 0.51
-4.96 -1.48 0.55
-4.79 -1.43 0.58
-2.44 -0.94 1.10
-5.04 -1.42 0.53
-4.76 -1.35 0.59
-4.81 -1.32 0.58
-3.24 -1.03 0.92
-3.21 -1.01 0.93
-3.19 -0.98 0.94
-3.18 -0.96 0.94
-3.18 -0.95 0.94
-3.04 -0.90 0.97
-3.05 -0.88 0.97
-3.21 -0.90 0.93
-3.21 -0.88 0.93
-3.33 -0.89 0.91
-3.47 -0.89 0.88
-3.73 -0.92 0.82
-3.34 -0.85 0.91
-3.49 -0.85 0.87
-3.11 -0.79 0.95
-3.09 -0.77 0.96
-3.18 -0.77 0.94
-3.23 -0.76 0.93
-3.31 -0.76 0.91
-3.14 -0.72 0.95
-3.30 -0.73 0.91
-3.00 -0.68 0.98
-2.97 -0.66 0.99
-2.89 -0.64 1.00
-2.91 -0.61 1.00
-2.83 -0.59 1.02
-2.75 -0.57 1.03
-2.82 -0.57 1.02
-2.90 -0.56 1.00
-2.79 -0.54 1.02
-3.20 -0.56 0.94
-3.24 -0.54 0.93
-3.37 -0.54 0.90
-2.89 -0.48 1.00
-3.23 -0.48 0.93
-3.41 -0.49 0.89
-3.34 -0.47 0.91
-3.33 -0.44 0.91
-3.21 -0.41 0.93
-3.67 -0.43 0.83
-4.05 -0.43 0.75
-4.11 -0.42 0.74
-3.95 -0.39 0.77
-6.55 -0.38 0.70
-6.52 -0.36 0.71
-6.93 -0.36 0.62
-6.44 -0.32 0.73
-6.52 -0.31 0.71
-6.39 -0.29 0.73
-6.26 -0.27 0.76
-6.33 -0.25 0.75
-6.14 -0.23 0.79
-6.15 -0.22 0.79
-6.40 -0.21 0.73
-6.91 -0.21 0.62
-7.08 -0.19 0.59
-6.95 -0.17 0.61
-7.35 -0.16 0.53
-7.46 -0.15 0.50
-7.63 -0.13 0.47
-4.99 -0.08 1.04
-4.93 -0.06 1.05
-4.94 -0.05 1.04
-4.94 -0.04 1.04
-4.91 -0.02 1.05
-3.39 -0.00 0.84
-3.38 0.01 0.84
-3.43 0.03 0.82
-7.80 0.16 0.35
-7.67 0.17 0.38
-7.59 0.19 0.40
-7.39 0.20 0.44
-4.57 0.14 1.08
-4.98 0.16 0.98
-4.40 0.16 1.11
-7.60 0.28 0.39
-7.67 0.31 0.38
-4.81 0.21 1.02
-7.55 0.34 0.40
-7.31 0.35 0.45
-7.18 0.36 0.48
-6.74 0.35 0.58
-6.83 0.38 0.56
-6.83 0.39 0.56
-6.85 0.41 0.56
-7.01 0.44 0.52
-7.05 0.46 0.51
-7.11 0.48 0.50
-7.14 0.50 0.49
-7.15 0.52 0.49
-7.19 0.54 0.47
-5.47 0.43 0.86
-5.44 0.44 0.87
-5.32 0.45 0.90
-5.32 0.46 0.90
-5.31 0.47 0.90
-5.48 0.50 0.86
-5.39 0.51 0.88
-5.72 0.55 0.80
-5.63 0.56 0.82
-5.66 0.57 0.82
-5.68 0.59 0.81
-5.63 0.60 0.82
-5.65 0.62 0.82
-5.58 0.62 0.83
-5.74 0.66 0.79
-5.71 0.67 0.80
-5.66 0.68 0.81
-5.63 0.69 0.82
-5.54 0.69 0.84
-5.61 0.71 0.82
-5.56 0.72 0.83
-5.43 0.72 0.86
-5.53 0.75 0.84
-5.72 0.79 0.79
-5.69 0.80 0.80
-5.50 0.79 0.84
-5.67 0.82 0.80
-5.50 0.81 0.84
-5.66 0.85 0.80
-6.04 0.92 0.72
-6.39 0.99 0.63
-6.08 0.96 0.70
-5.87 0.94 0.75
-5.76 0.94 0.78
-5.82 0.97 0.76
-6.11 1.03 0.69
-5.62 0.96 0.81
-6.73 1.18 0.55
-5.47 1.01 0.84
-5.30 1.01 0.87
-5.86 1.13 0.74
-3.98 0.83 1.17
-4.09 0.86 1.15
-3.99 0.85 1.17
-4.68 -1.61 0.53
-4.81 -1.63 0.50
-4.52 -1.53 0.57
-4.69 -1.55 0.53
-2.31 -1.02 1.08
-2.17 -0.98 1.11
-2.16 -0.97 1.12
-2.23 -0.97 1.10
-2.27 -0.97 1.09
-4.58 -1.42 0.56
-4.49 -1.38 0.58
-4.78 -1.42 0.52
-2.35 -0.93 1.07
-2.57 -0.96 1.02
-3.56 -1.14 0.80
-3.86 -1.18 0.73
-4.28 -1.24 0.63
-3.35 -1.06 0.85
-3.25 -1.03 0.87
-3.33 -1.02 0.85
-3.27 -1.00 0.87
-3.23 -0.98 0.88
-3.17 -0.96 0.89
-3.05 -0.92 0.92
-2.93 -0.89 0.94
-3.03 -0.89 0.92
-3.06 -0.88 0.91
-2.91 -0.85 0.95
-2.87 -0.83 0.96
-2.84 -0.81 0.96
-2.81 -0.79 0.97
-2.82 -0.78 0.97
-2.80 -0.77 0.97
-2.73 -0.74 0.99
-2.76 -0.73 0.98
-2.82 -0.73 0.97
-2.80 -0.71 0.98
-2.80 -0.70 0.97
-2.93 -0.71 0.95
-2.81 -0.68 0.97
-2.77 -0.66 0.98
-2.64 -0.63 1.01
-2.57 -0.61 1.03
-2.59 -0.60 1.02
-2.57 -0.59 1.03
-2.54 -0.57 1.03
-2.52 -0.56 1.04
-2.70 -0.56 1.00
-2.53 -0.53 1.04
-2.54 -0.52 1.03
-2.54 -0.51 1.03
-2.48 -0.49 1.05
-2.61 -0.49 1.02
-3.11 -0.53 0.91
-2.78 -0.48 0.98
-3.03 -0.49 0.92
-2.77 -0.46 0.98
-2.60 -0.43 1.02
-2.68 -0.42 1.00
-2.70 -0.41 1.00
-2.65 -0.40 1.01
-2.87 -0.40 0.96
-2.61 -0.37 1.02
-3.18 -0.40 0.89
-3.04 -0.37 0.92
-3.81 -0.41 0.75
-3.43 -0.37 0.83
-3.70 -0.37 0.77
-3.59 -0.35 0.79
-3.77 -0.35 0.75
-3.75 -0.33 0.76
-3.90 -0.33 0.72
-3.76 -0.30 0.76
-3.78 -0.29 0.75
-3.89 -0.28 0.73
-3.71 -0.26 0.77
-3.79 -0.24 0.75
-3.70 -0.23 0.77
-5.37 -0.27 0.39
-4.08 -0.21 0.68
-3.93 -0.19 0.72
-3.98 -0.17 0.70
-4.09 -0.16 0.68
-4.16 -0.15 0.66
-4.09 -0.05 0.68
-3.75 -0.03 0.76
-3.40 -0.02 0.83
-7.96 0.12 0.23
-7.02 0.30 0.45
-7.27 0.35 0.39
-6.64 0.33 0.54
-6.69 0.35 0.53
-6.65 0.37 0.53
-6.66 0.38 0.53
-6.84 0.41 0.49
-6.83 0.43 0.49
-7.09 0.46 0.43
-7.19 0.50 0.40
-7.08 0.51 0.43
-7.25 0.56 0.39
-7.16 0.57 0.41
-5.55 0.46 0.79
-6.05 0.58 0.67
-5.85 0.58 0.71
-5.81 0.59 0.72
-5.81 0.60 0.72
-5.69 0.61 0.75
-5.61 0.61 0.77
-5.65 0.63 0.76
-5.69 0.65 0.75
-5.77 0.67 0.73
-5.65 0.68 0.75
-5.56 0.68 0.78
-5.52 0.69 0.78
-5.75 0.73 0.73
-5.93 0.77 0.69
-5.74 0.76 0.73
-5.67 0.77 0.75
-5.65 0.78 0.75
-5.74 0.80 0.73
-5.65 0.81 0.75
-6.07 0.88 0.65
-6.07 0.90 0.65
-6.84 1.02 0.46
-6.16 0.94 0.62
-5.99 0.93 0.66
-6.28 0.99 0.59
-5.73 0.92 0.72
-6.01 0.98 0.66
-6.04 1.00 0.65
-6.06 1.02 0.64
-6.32 1.08 0.58
-5.69 0.99 0.73
-6.43 1.13 0.55
-5.70 1.02 0.73
-5.63 1.03 0.74
-6.40 1.17 0.56
-6.02 1.12 0.65
-6.20 1.17 0.60
-6.06 1.16 0.63
-5.10 -1.54 0.37
-3.76 -1.21 0.69
-4.22 -1.27 0.58
-3.44 -1.10 0.77
-3.50 -1.10 0.75
-3.55 -1.10 0.74
-3.64 -1.10 0.72
-4.07 -1.16 0.62
-3.88 -1.11 0.66
-3.57 -1.04 0.74
-3.69 -1.05 0.71
-3.66 -1.02 0.72
-3.37 -0.96 0.79
-3.60 -0.99 0.73
-3.44 -0.94 0.77
-3.40 -0.92 0.78
-3.58 -0.94 0.74
-3.51 -0.91 0.75
-3.43 -0.89 0.77
-3.20 -0.84 0.83
-3.41 -0.85 0.78
-3.31 -0.83 0.80
-3.28 -0.81 0.81
-3.05 -0.76 0.86
-3.07 -0.75 0.86
-2.98 -0.73 0.88
-3.07 -0.73 0.86
-3.06 -0.71 0.86
-2.79 -0.66 0.93
-2.56 -0.62 0.98
-2.46 -0.60 1.00
-2.47 -0.59 1.00
-2.41 -0.57 1.01
-2.65 -0.58 0.96
-3.33 -0.65 0.80
-2.86 -0.56 0.91
-5.01 -0.65 0.40
-5.04 -0.64 0.40
-4.86 -0.60 0.44
-4.63 -0.57 0.49
-4.11 -0.51 0.61
-4.11 -0.35 0.61
-3.96 -0.33 0.65
-4.00 -0.32 0.64
-3.87 -0.29 0.67
-4.18 -0.29 0.60
-3.86 -0.26 0.67
-3.97 -0.22 0.64
-3.90 -0.17 0.66
-3.62 1.69 0.81
-0.82 -0.85 0.60
-0.81 -0.79 0.56
-0.84 -0.81 0.55
-1.73 0.95 0.52
-2.22 0.88 0.47
-0.81 -0.87 0.48
-0.88 -0.77 0.44
-2.37 0.70 0.31
-2.30 0.60 0.30
-2.47 0.76 0.25
-2.31 0.74 0.27
-2.01 0.71 0.31
-1.79 0.88 0.30
-2.43 0.67 0.22
-1.95 0.72 0.29
-1.73 0.87 0.29
-2.02 0.72 0.26
-1.82 0.77 0.28
-1.62 0.78 0.30
-2.02 0.85 0.23
-1.59 0.72 0.30
-0.58 -0.79 0.29
-1.93 0.77 0.20
-0.55 -0.83 0.27
-0.83 -0.81 0.30
-0.89 -0.75 0.31
-0.79 -0.73 0.28
-0.67 -0.88 0.23
-0.82 -0.75 0.26
-0.87 -0.71 0.27
-0.66 -0.82 0.21
-0.77 -0.77 0.24
-0.81 -0.76 0.24
-0.88 -0.68 0.26
-1.07 -0.65 0.28
-0.81 -0.77 0.21
-0.89 -0.65 0.25
-0.83 -0.65 0.24
-0.89 -0.74 0.22
-0.93 -0.71 0.23
-0.82 -0.67 0.22
-0.95 -0.77 0.20
-0.90 -0.72 0.20
-0.96 -0.73 0.20
