# .PCD v0.7 - Point Cloud Data file format
VERSION 0.7
FIELDS x y z
SIZE 4 4 4
TYPE F F F
COUNT 1 1 1
WIDTH 2869
HEIGHT 1
VIEWPOINT 0 0 0 1 0 0 0
POINTS 2869
DATA ASCII
-5.35 -0.73 1.77
-5.67 -0.74 1.75
-5.58 -0.71 1.76
-5.59 -0.70 1.76
-5.53 -0.67 1.76
-5.57 -0.65 1.76
-5.60 -0.64 1.76
-5.56 -0.62 1.76
-5.52 -0.59 1.76
-5.66 -0.58 1.75
-5.51 -0.55 1.76
-5.73 -0.55 1.75
-5.71 -0.53 1.75
-5.62 -0.50 1.75
-5.60 -0.48 1.76
-5.74 -0.47 1.75
-6.80 -0.37 1.82
-6.75 -0.36 1.82
-6.63 -0.33 1.82
-6.99 -0.33 1.81
-6.78 -0.31 1.82
-6.63 -0.28 1.82
-7.00 -0.28 1.80
-6.73 -0.26 1.82
-6.94 -0.25 1.81
-6.30 -0.21 1.84
-5.93 -0.18 1.86
-5.44 -0.15 1.89
-5.39 -0.14 1.89
-5.62 -0.13 1.88
-5.60 -0.12 1.88
-5.72 -0.11 1.87
-5.52 -0.09 1.88
-5.65 -0.08 1.87
-5.43 -0.06 1.89
-5.53 -0.05 1.88
-5.73 -0.03 1.87
-5.58 -0.02 1.88
-5.67 -0.01 1.87
-4.35 0.00 1.79
-5.24 0.02 1.74
-5.66 0.06 1.85
-5.60 0.08 1.85
-13.36 0.25 1.41
-13.06 0.40 1.43
-13.07 0.43 1.42
-4.38 0.22 1.92
-3.82 0.78 1.94
-2.28 -1.01 1.91
-2.15 -0.85 1.92
-2.20 -0.84 1.92
-2.36 -0.83 1.91
-6.32 -1.09 1.68
-6.31 -1.07 1.68
-6.17 -1.04 1.69
-6.05 -1.00 1.70
-6.05 -0.98 1.70
-5.89 -0.94 1.71
-5.45 -0.82 1.73
-5.51 -0.80 1.73
-5.47 -0.76 1.73
-5.23 -0.70 1.74
-5.74 -0.73 1.72
-5.65 -0.70 1.72
-5.76 -0.69 1.71
-5.44 -0.57 1.73
-5.67 -0.56 1.72
-5.83 -0.53 1.71
-6.02 -0.53 1.70
-6.08 -0.51 1.69
-5.71 -0.47 1.72
-5.92 -0.46 1.70
-6.18 -0.45 1.69
-6.00 -0.42 1.70
-6.02 -0.40 1.70
-6.40 -0.40 1.68
-6.14 -0.37 1.69
-6.28 -0.35 1.68
-6.09 -0.31 1.69
-5.85 -0.28 1.71
-5.59 -0.25 1.72
-5.92 -0.24 1.70
-5.80 -0.22 1.71
-1.72 -0.10 1.94
-5.32 -0.17 1.74
-5.03 -0.14 1.75
-5.06 -0.12 1.75
-4.43 -0.10 1.79
-4.86 -0.09 1.76
-4.62 -0.07 1.77
-5.20 -0.05 1.74
-5.02 -0.03 1.75
-4.50 -0.01 1.78
-5.94 0.01 1.80
-5.83 0.02 1.81
-5.98 0.04 1.80
-6.12 0.05 1.79
-5.80 0.07 1.81
-5.59 0.09 1.82
-13.43 0.28 1.34
-13.48 0.32 1.34
-13.09 0.34 1.36
-13.22 0.37 1.35
-13.25 0.41 1.35
-6.82 0.25 1.75
-6.58 0.29 1.76
-5.96 0.27 1.80
-13.05 0.62 1.36
-13.74 0.82 1.32
-6.46 0.80 1.76
-6.30 -1.48 1.64
-6.09 -1.40 1.66
-6.22 -1.40 1.65
-6.25 -1.36 1.65
-6.27 -1.34 1.65
-6.30 -1.33 1.64
-6.17 -1.29 1.65
-6.30 -1.28 1.64
-6.32 -1.20 1.64
-6.28 -1.16 1.65
-6.26 -1.11 1.65
-6.25 -1.09 1.65
-6.25 -1.07 1.65
-6.29 -1.05 1.64
-6.06 -1.00 1.66
-6.15 -0.99 1.65
-5.97 -0.95 1.66
-5.79 -0.91 1.67
-5.95 -0.91 1.67
-5.76 -0.87 1.68
-5.75 -0.85 1.68
-4.94 -0.75 1.73
-5.43 -0.78 1.70
-5.04 -0.72 1.72
-5.61 -0.76 1.69
-5.26 -0.70 1.71
-5.78 -0.73 1.67
-6.03 -0.73 1.66
-5.98 -0.71 1.66
-5.92 -0.68 1.67
-5.86 -0.66 1.67
-5.81 -0.63 1.67
-5.72 -0.61 1.68
-5.88 -0.60 1.67
-6.02 -0.59 1.66
-5.45 -0.53 1.69
-5.66 -0.52 1.68
-5.97 -0.52 1.66
-6.36 -0.53 1.64
-6.02 -0.49 1.66
-6.01 -0.47 1.66
-5.94 -0.44 1.66
-6.25 -0.44 1.64
-6.23 -0.42 1.65
-6.15 -0.39 1.65
-6.27 -0.38 1.64
-6.09 -0.35 1.65
-6.09 -0.33 1.65
-6.26 -0.31 1.64
-6.63 -0.30 1.62
-6.03 -0.26 1.66
-5.76 -0.23 1.67
-5.24 -0.20 1.70
-5.39 -0.19 1.69
-5.41 -0.17 1.69
-5.26 -0.15 1.70
-5.43 -0.13 1.69
-5.52 -0.06 1.83
-5.49 -0.05 1.83
-5.63 -0.02 1.82
-4.48 0.00 1.71
-4.39 0.02 1.72
-4.33 0.04 1.72
-4.33 0.05 1.72
-4.30 0.07 1.72
-4.43 0.09 1.72
-4.52 0.10 1.71
-4.90 0.13 1.68
-4.64 0.14 1.70
-4.63 0.16 1.70
-4.59 0.17 1.70
-12.99 0.37 1.30
-4.41 0.15 1.87
-13.12 0.50 1.29
-13.00 0.52 1.30
-4.53 0.49 1.86
-4.44 0.55 1.86
-1.71 -1.17 1.90
-2.20 -1.22 1.87
-2.00 -0.94 1.89
-2.38 -0.85 1.86
-6.18 -1.48 1.61
-2.33 -0.80 1.86
-2.28 -0.77 1.87
-2.05 -0.72 1.88
-6.16 -1.35 1.61
-6.26 -1.34 1.60
-6.30 -1.33 1.60
-6.32 -1.31 1.60
-6.19 -1.27 1.61
-2.03 -0.65 1.88
-2.01 -0.63 1.88
-2.15 -0.63 1.87
-2.23 -0.63 1.87
-2.03 -0.59 1.88
-2.03 -0.58 1.88
-10.87 -1.69 1.29
-6.23 -1.08 1.60
-2.35 -0.59 1.86
-6.22 -1.04 1.60
-6.37 -1.04 1.59
-6.27 -1.00 1.60
-5.93 -0.94 1.62
-5.89 -0.92 1.62
-5.95 -0.91 1.62
-6.05 -0.90 1.61
-4.70 -0.74 1.70
-5.18 -0.77 1.67
-4.67 -0.70 1.71
-4.59 -0.68 1.71
-4.42 -0.64 1.72
-4.77 -0.66 1.70
-4.27 -0.60 1.73
-6.15 -0.74 1.61
-5.87 -0.70 1.63
-5.79 -0.67 1.63
-5.84 -0.65 1.63
-5.33 -0.60 1.66
-5.21 -0.55 1.67
-5.42 -0.55 1.65
-5.33 -0.52 1.66
-5.33 -0.50 1.66
-5.51 -0.50 1.65
-6.27 -0.52 1.60
-5.90 -0.48 1.62
-6.15 -0.47 1.61
-6.46 -0.47 1.58
-6.37 -0.44 1.59
-6.09 -0.41 1.61
-6.28 -0.40 1.60
-6.17 -0.37 1.60
-6.13 -0.35 1.61
-5.87 -0.32 1.62
-6.15 -0.31 1.60
-6.06 -0.28 1.61
-6.14 -0.27 1.60
-5.90 -0.24 1.62
-5.48 -0.21 1.65
-5.31 -0.18 1.66
-5.36 -0.17 1.66
-5.38 -0.15 1.65
-5.04 -0.12 1.68
-5.33 -0.11 1.66
-1.90 -0.05 1.89
-5.16 -0.07 1.67
-5.21 -0.05 1.66
-5.17 -0.03 1.67
-5.01 -0.02 1.68
-5.60 0.01 1.76
-5.48 0.02 1.77
-5.53 0.03 1.77
-5.76 0.05 1.75
-5.68 0.06 1.76
-5.76 0.08 1.75
-5.88 0.10 1.74
-5.80 0.11 1.75
-5.85 0.12 1.74
-5.63 0.13 1.76
-5.54 0.15 1.77
-5.58 0.16 1.76
-6.28 0.20 1.71
-5.84 0.20 1.74
-5.99 0.22 1.73
-6.05 0.23 1.73
-6.52 0.27 1.69
-5.62 0.25 1.76
-6.01 0.28 1.73
-6.20 0.30 1.72
-6.19 0.32 1.72
-6.25 0.33 1.71
-9.69 0.56 1.46
-5.88 0.37 1.74
-5.95 0.39 1.73
-14.88 1.00 1.09
-4.57 0.36 1.83
-5.70 0.48 1.75
-4.90 0.53 1.81
-4.98 0.56 1.80
-4.79 0.69 1.81
-4.81 0.97 1.80
-7.71 1.66 1.58
-5.57 1.31 1.74
-3.49 0.90 1.90
-5.29 1.39 1.76
-5.22 1.50 1.76
-2.64 -1.63 1.81
-2.42 -1.36 1.83
-2.42 -1.20 1.83
-2.92 -1.26 1.79
-2.71 -1.19 1.81
-2.55 -1.03 1.82
-2.42 -0.96 1.83
-3.11 -1.07 1.78
-2.75 -0.91 1.81
-2.94 -0.93 1.79
-3.04 -0.93 1.79
-6.43 -1.48 1.54
-2.67 -0.84 1.81
-2.67 -0.79 1.81
-6.15 -1.31 1.56
-2.92 -0.81 1.79
-6.27 -1.28 1.55
-2.54 -0.72 1.82
-2.84 -0.76 1.80
-6.39 -1.24 1.55
-2.55 -0.69 1.82
-2.69 -0.70 1.81
-6.22 -1.15 1.56
-2.55 -0.65 1.82
-2.56 -0.64 1.82
-6.19 -1.08 1.56
-6.13 -1.05 1.56
-6.05 -1.02 1.57
-6.16 -1.02 1.56
-5.97 -0.97 1.57
-6.05 -0.96 1.57
-5.78 -0.91 1.59
-5.52 -0.86 1.61
-5.48 -0.84 1.61
-5.02 -0.77 1.64
-4.72 -0.72 1.66
-4.40 -0.68 1.69
-4.81 -0.70 1.66
-4.72 -0.67 1.66
-5.42 -0.72 1.61
-5.58 -0.71 1.60
-5.40 -0.68 1.62
-5.31 -0.65 1.62
-5.38 -0.64 1.62
-5.51 -0.63 1.61
-5.30 -0.60 1.62
-5.21 -0.57 1.63
-5.66 -0.58 1.60
-5.07 -0.52 1.64
-5.10 -0.51 1.64
-2.48 -0.32 1.82
-6.28 -0.54 1.55
-5.50 -0.48 1.61
-6.54 -0.52 1.53
-5.81 -0.46 1.58
-6.58 -0.48 1.53
-6.64 -0.46 1.52
-6.40 -0.42 1.54
-6.12 -0.39 1.56
-6.08 -0.37 1.56
-6.04 -0.35 1.57
-6.03 -0.33 1.57
-6.22 -0.21 1.72
-6.30 -0.19 1.72
-6.29 -0.16 1.72
-5.92 -0.14 1.74
-5.37 -0.11 1.78
-5.43 -0.10 1.78
-5.27 -0.08 1.79
-5.37 -0.07 1.78
-5.46 -0.06 1.77
-5.42 -0.05 1.78
-5.29 -0.03 1.79
-5.48 -0.02 1.77
-5.44 -0.01 1.78
-5.36 0.00 1.57
-5.27 0.02 1.58
-4.56 0.05 1.64
-4.39 0.10 1.65
-4.50 0.12 1.64
-4.32 0.13 1.65
-4.40 0.15 1.65
-4.33 0.17 1.65
-4.26 0.18 1.66
-4.34 0.20 1.65
-4.59 0.27 1.63
-4.49 0.32 1.64
-4.31 0.41 1.83
-3.26 0.84 1.90
-3.30 0.86 1.89
-1.61 -1.57 1.86
-2.15 -1.50 1.82
-2.04 -1.22 1.83
-1.84 -0.79 1.85
-2.47 -0.83 1.80
-2.11 -0.66 1.83
-2.35 -0.66 1.81
-2.04 -0.61 1.84
-6.34 -1.16 1.51
-6.31 -1.13 1.51
-2.22 -0.60 1.82
-6.23 -1.08 1.51
-6.25 -1.06 1.51
-6.06 -1.02 1.53
-6.09 -1.00 1.52
-6.01 -0.97 1.53
-5.97 -0.95 1.53
-5.73 -0.90 1.55
-4.90 -0.79 1.62
-5.13 -0.78 1.60
-4.69 -0.72 1.63
-4.45 -0.68 1.65
-4.57 -0.67 1.64
-4.63 -0.66 1.64
-4.55 -0.64 1.64
-5.01 -0.66 1.61
-5.26 -0.67 1.59
-5.25 -0.65 1.59
-5.34 -0.63 1.58
-5.23 -0.61 1.59
-5.44 -0.60 1.57
-4.80 -0.54 1.62
-5.99 -0.61 1.53
-5.85 -0.58 1.54
-5.45 -0.53 1.57
-5.97 -0.54 1.53
-7.02 -0.59 1.45
-6.83 -0.56 1.47
-6.18 -0.50 1.52
-5.32 -0.43 1.58
-5.52 -0.42 1.57
-6.44 -0.45 1.49
-6.51 -0.43 1.49
-6.36 -0.40 1.50
-6.44 -0.38 1.49
-6.48 -0.36 1.49
-6.17 -0.33 1.51
-6.38 -0.32 1.50
-6.10 -0.29 1.52
-5.98 -0.26 1.53
-5.56 -0.23 1.56
-5.54 -0.21 1.56
-5.46 -0.19 1.57
-5.29 -0.17 1.58
-5.21 -0.15 1.59
-5.06 -0.12 1.60
-4.73 -0.10 1.62
-5.26 -0.09 1.58
-5.36 -0.07 1.57
-5.49 -0.06 1.56
-5.40 -0.04 1.57
-5.31 -0.02 1.58
-5.30 0.01 1.73
-5.34 0.02 1.72
-5.31 0.03 1.72
-5.36 0.05 1.72
-5.40 0.06 1.72
-5.40 0.07 1.72
-5.36 0.09 1.72
-5.41 0.10 1.71
-5.55 0.12 1.70
-5.65 0.13 1.69
-5.68 0.15 1.69
-5.82 0.17 1.68
-6.15 0.19 1.65
-6.18 0.21 1.65
-5.70 0.21 1.69
-6.10 0.24 1.66
-5.84 0.24 1.68
-6.19 0.27 1.65
-5.78 0.27 1.68
-6.49 0.31 1.62
-6.34 0.32 1.64
-6.17 0.33 1.65
-6.26 0.35 1.64
-6.25 0.37 1.64
-6.02 0.37 1.66
-4.24 0.27 1.81
-5.10 0.36 1.74
-5.20 0.41 1.73
-4.81 0.39 1.76
-4.95 0.42 1.75
-4.75 0.41 1.76
-4.59 0.41 1.78
-5.04 0.46 1.74
-4.71 0.45 1.77
-5.30 0.55 1.72
-5.45 0.64 1.70
-4.70 0.58 1.76
-4.63 0.58 1.77
-5.03 0.64 1.74
-5.24 0.70 1.72
-4.93 0.72 1.74
-4.42 0.81 1.78
-4.00 1.50 1.79
-3.72 1.53 1.81
-1.87 -1.69 1.81
-1.90 -1.69 1.81
-1.79 -1.53 1.82
-2.11 -1.63 1.80
-1.98 -1.54 1.81
-2.19 -1.57 1.79
-2.42 -1.64 1.77
-1.97 -1.47 1.81
-1.96 -1.46 1.81
-2.20 -1.52 1.79
-1.93 -1.43 1.81
-2.03 -1.45 1.80
-2.31 -1.49 1.78
-2.49 -1.52 1.77
-2.78 -1.60 1.74
-2.33 -1.45 1.78
-2.40 -1.45 1.77
-2.48 -1.47 1.77
-2.62 -1.46 1.76
-2.75 -1.48 1.74
-2.93 -1.52 1.73
-2.59 -1.37 1.76
-2.62 -1.35 1.76
-2.49 -1.29 1.77
-2.26 -1.16 1.79
-2.70 -1.25 1.75
-2.71 -1.22 1.75
-2.28 -1.11 1.79
-2.08 -1.05 1.80
-2.85 -1.22 1.74
-2.27 -1.07 1.79
-2.09 -1.02 1.80
-2.29 -1.05 1.79
-2.40 -1.06 1.78
-1.82 -0.91 1.82
-2.07 -0.95 1.80
-1.92 -0.91 1.82
-2.28 -0.97 1.79
-2.53 -1.01 1.77
-2.60 -0.97 1.76
-2.29 -0.90 1.79
-2.76 -0.96 1.75
-2.65 -0.93 1.76
-2.82 -0.94 1.74
-2.75 -0.91 1.75
-2.82 -0.90 1.74
-2.70 -0.85 1.75
-2.81 -0.86 1.74
-2.98 -0.87 1.73
-3.08 -0.86 1.72
-2.65 -0.78 1.76
-2.59 -0.76 1.76
-2.80 -0.78 1.74
-3.02 -0.80 1.73
-2.35 -0.69 1.78
-6.37 -1.23 1.45
-2.38 -0.67 1.78
-2.43 -0.66 1.77
-2.54 -0.67 1.77
-3.22 -0.74 1.71
-3.32 -0.74 1.70
-6.41 -1.11 1.45
-4.55 -0.86 1.60
-2.54 -0.61 1.76
-4.46 -0.82 1.61
-4.40 -0.79 1.61
-2.63 -0.58 1.76
-2.42 -0.54 1.77
-4.84 -0.79 1.58
-2.25 -0.50 1.79
-4.62 -0.73 1.59
-4.71 -0.73 1.59
-4.59 -0.70 1.60
-4.65 -0.68 1.59
-2.25 -0.44 1.79
-4.59 -0.65 1.60
-4.55 -0.62 1.60
-4.57 -0.61 1.60
-4.87 -0.62 1.57
-5.09 -0.62 1.55
-5.36 -0.62 1.53
-5.69 -0.63 1.50
-4.72 -0.54 1.58
-6.37 -0.64 1.45
-4.77 -0.50 1.58
-6.39 -0.60 1.45
-6.41 -0.58 1.44
-5.04 -0.47 1.56
-6.41 -0.53 1.44
-6.54 -0.52 1.43
-6.04 -0.34 1.67
-6.14 -0.33 1.66
-6.11 -0.31 1.66
-6.14 -0.30 1.66
-6.11 -0.28 1.66
-6.17 -0.27 1.66
-6.04 -0.25 1.67
-6.17 -0.24 1.66
-5.93 -0.21 1.68
-6.13 -0.20 1.66
-6.10 -0.19 1.66
-6.09 -0.17 1.66
-6.07 -0.16 1.66
-6.01 -0.14 1.67
-5.40 -0.11 1.72
-5.47 -0.10 1.71
-5.67 -0.09 1.70
-5.49 -0.07 1.71
-5.31 -0.06 1.72
-5.24 -0.05 1.73
-5.28 -0.03 1.73
-5.25 -0.02 1.73
-5.35 -0.01 1.72
-5.38 0.00 1.48
-5.23 0.02 1.50
-5.22 0.05 1.70
-5.30 0.06 1.70
-5.25 0.07 1.70
-5.25 0.08 1.70
-5.27 0.10 1.70
-5.36 0.11 1.69
-5.48 0.13 1.68
-5.39 0.14 1.69
-5.59 0.16 1.67
-5.49 0.17 1.68
-5.79 0.25 1.65
-6.44 0.36 1.59
-6.09 0.37 1.62
-4.86 0.42 1.73
-11.74 1.66 1.11
-1.67 -1.68 1.81
-2.18 -1.43 1.77
-2.03 -1.34 1.78
-2.72 -1.50 1.72
-2.54 -1.44 1.74
-2.08 -1.23 1.78
-2.67 -1.37 1.73
-2.25 -1.24 1.76
-1.99 -1.10 1.79
-1.50 -0.97 1.83
-1.69 -0.95 1.81
-2.00 -0.99 1.79
-2.17 -0.90 1.77
-2.44 -0.78 1.75
-6.24 -1.26 1.41
-6.69 -1.30 1.37
-6.46 -1.24 1.39
-6.38 -1.21 1.40
-6.48 -1.20 1.39
-6.23 -1.15 1.41
-2.02 -0.58 1.78
-6.44 -1.13 1.40
-6.57 -1.13 1.38
-6.75 -1.13 1.37
-6.58 -1.09 1.38
-6.33 -1.03 1.41
-4.39 -0.79 1.58
-6.17 -0.97 1.42
-4.58 -0.78 1.56
-4.58 -0.76 1.56
-4.43 -0.73 1.57
-4.42 -0.71 1.57
-4.70 -0.72 1.55
-4.43 -0.68 1.57
-4.44 -0.66 1.57
-4.47 -0.65 1.57
-4.53 -0.64 1.56
-4.86 -0.65 1.53
-2.11 -0.40 1.78
-5.98 -0.71 1.44
-6.31 -0.72 1.41
-6.39 -0.70 1.40
-6.48 -0.69 1.39
-6.66 -0.68 1.38
-6.50 -0.64 1.39
-4.86 -0.51 1.53
-6.43 -0.60 1.40
-6.40 -0.57 1.40
-6.18 -0.54 1.42
-5.17 -0.46 1.51
-5.26 -0.44 1.50
-5.61 -0.45 1.47
-5.35 -0.41 1.49
-4.96 -0.37 1.52
-4.86 -0.35 1.53
-6.40 -0.40 1.40
-6.02 -0.37 1.43
-6.31 -0.36 1.40
-6.77 -0.35 1.36
-6.68 -0.33 1.37
-6.09 -0.29 1.42
-5.28 -0.22 1.49
-5.11 -0.20 1.51
-5.16 -0.18 1.50
-5.28 -0.17 1.49
-5.16 -0.15 1.50
-4.85 -0.12 1.53
-4.81 -0.10 1.53
-5.11 -0.09 1.51
-5.34 -0.07 1.49
-5.38 -0.04 1.48
-5.40 -0.02 1.48
-5.29 0.01 1.66
-5.29 0.02 1.66
-5.29 0.03 1.66
-5.32 0.05 1.66
-5.26 0.06 1.67
-5.30 0.07 1.66
-5.26 0.08 1.67
-5.38 0.10 1.65
-5.37 0.11 1.65
-5.40 0.13 1.65
-5.71 0.15 1.62
-5.55 0.16 1.64
-5.64 0.18 1.63
-5.55 0.19 1.64
-5.98 0.22 1.60
-6.68 0.26 1.53
-6.45 0.26 1.55
-6.32 0.27 1.56
-6.12 0.28 1.58
-6.24 0.30 1.57
-6.26 0.32 1.57
-6.33 0.34 1.56
-6.33 0.35 1.56
-6.27 0.37 1.57
-6.24 0.38 1.57
-6.19 0.39 1.57
-5.37 0.37 1.65
-5.50 0.39 1.64
-5.46 0.40 1.64
-5.00 0.47 1.68
-5.31 0.57 1.65
-7.17 0.94 1.47
-5.27 0.79 1.65
-11.18 1.66 1.08
-4.42 1.27 1.71
-5.00 1.46 1.65
-4.07 1.66 1.73
-1.85 -1.45 1.77
-2.80 -1.58 1.68
-2.60 -1.51 1.70
-2.49 -1.39 1.71
-2.55 -1.32 1.70
-2.73 -1.22 1.69
-2.29 -1.10 1.73
-2.12 -1.04 1.75
-2.51 -1.10 1.71
-2.47 -1.08 1.71
-2.42 -1.04 1.72
-2.46 -1.04 1.72
-2.73 -1.08 1.69
-2.36 -0.98 1.72
-2.21 -0.94 1.74
-2.29 -0.94 1.73
-3.57 -1.18 1.61
-2.45 -0.93 1.72
-4.29 -1.21 1.54
-4.56 -1.19 1.52
-4.80 -1.21 1.50
-4.41 -1.08 1.53
-4.44 -1.05 1.53
-6.34 -1.27 1.35
-6.39 -1.26 1.35
-6.32 -1.20 1.35
-6.27 -1.18 1.36
-6.42 -1.18 1.34
-6.52 -1.17 1.33
-2.88 -0.68 1.68
-6.50 -1.12 1.34
-6.25 -1.07 1.36
-6.48 -1.07 1.34
-6.49 -1.05 1.34
-6.30 -0.99 1.35
-6.50 -0.99 1.34
-4.74 -0.78 1.50
-4.72 -0.76 1.50
-4.72 -0.74 1.50
-4.55 -0.71 1.52
-5.76 -0.79 1.41
-4.89 -0.69 1.49
-4.54 -0.64 1.52
-4.53 -0.62 1.52
-4.68 -0.62 1.51
-4.90 -0.62 1.49
-5.10 -0.62 1.47
-5.55 -0.64 1.42
-6.51 -0.67 1.33
-6.30 -0.63 1.35
-6.36 -0.61 1.35
-4.87 -0.49 1.49
-4.83 -0.47 1.49
-4.74 -0.45 1.50
-4.95 -0.43 1.48
-4.99 -0.41 1.48
-5.18 -0.40 1.46
-4.67 -0.36 1.51
-4.66 -0.34 1.51
-4.92 -0.34 1.48
-6.67 -0.39 1.32
-6.81 -0.36 1.30
-6.78 -0.33 1.31
-7.41 -0.33 1.25
-5.08 -0.24 1.47
-3.93 -0.18 1.57
-5.06 -0.20 1.47
-4.76 -0.16 1.50
-4.87 -0.14 1.48
-4.99 -0.12 1.47
-5.66 -0.08 1.63
-5.46 -0.06 1.65
-5.77 -0.05 1.62
-5.46 -0.03 1.65
-5.47 -0.02 1.65
-5.31 -0.01 1.66
-5.17 0.02 1.41
-5.14 0.04 1.41
-4.73 0.05 1.45
-4.88 0.07 1.44
-4.68 0.09 1.46
-4.50 0.10 1.47
-4.54 0.12 1.47
-4.29 0.15 1.50
-2.57 0.12 1.67
-5.55 0.16 1.60
-6.18 0.19 1.54
-6.32 0.21 1.53
-6.69 0.24 1.49
-6.26 0.24 1.53
-5.90 0.24 1.57
-5.99 0.26 1.56
-6.22 0.28 1.53
-6.50 0.34 1.51
-5.87 0.33 1.57
-5.63 0.33 1.59
-5.65 0.34 1.59
-15.28 1.02 0.62
-5.48 0.39 1.61
-5.30 0.40 1.62
-4.61 0.39 1.69
-4.37 0.38 1.72
-4.51 0.40 1.70
-4.41 0.43 1.71
-4.20 0.42 1.73
-4.10 0.42 1.74
-4.61 0.48 1.69
-5.09 0.57 1.64
-4.52 0.52 1.70
-4.23 0.51 1.73
-4.26 0.52 1.72
-4.70 0.60 1.68
-11.36 1.46 1.00
-4.23 0.58 1.73
-4.51 0.65 1.70
-11.01 1.58 1.03
-5.04 0.76 1.64
-5.08 0.78 1.64
-4.62 0.72 1.68
-4.80 0.76 1.66
-4.72 0.84 1.67
-8.49 1.59 1.28
-4.06 0.86 1.73
-3.64 1.42 1.75
-3.70 1.46 1.74
-3.29 1.33 1.79
-3.62 1.48 1.75
-2.77 -1.60 1.65
-2.14 -1.39 1.71
-3.09 -1.62 1.62
-2.34 -1.38 1.69
-2.98 -1.55 1.63
-2.49 -1.40 1.68
-2.19 -1.30 1.71
-2.57 -1.36 1.67
-2.53 -1.32 1.68
-2.11 -1.17 1.72
-1.92 -1.10 1.74
-1.89 -1.08 1.74
-2.14 -1.13 1.72
-2.04 -1.09 1.73
-1.91 -1.05 1.74
-1.95 -1.05 1.74
-1.78 -1.00 1.75
-1.89 -1.01 1.74
-2.03 -1.04 1.73
-1.87 -0.98 1.74
-2.05 -0.99 1.73
-2.26 -1.03 1.71
-2.09 -0.98 1.72
-2.21 -0.98 1.71
-2.03 -0.92 1.73
-2.10 -0.93 1.72
-2.07 -0.91 1.73
-2.56 -1.00 1.68
-2.81 -1.03 1.65
-4.05 -1.26 1.53
-4.42 -1.24 1.49
-2.47 -0.88 1.68
-4.28 -1.19 1.50
-5.71 -1.40 1.36
-4.72 -1.21 1.46
-2.34 -0.80 1.70
-4.84 -1.20 1.45
-4.52 -1.13 1.48
-4.91 -1.17 1.44
-2.18 -0.73 1.71
-1.91 -0.66 1.74
-2.03 -0.67 1.73
-2.75 -0.77 1.66
-2.78 -0.76 1.65
-1.69 -0.59 1.76
-3.06 -0.77 1.63
-6.39 -1.21 1.29
-4.80 -0.96 1.45
-6.12 -1.11 1.32
-6.31 -1.12 1.30
-6.24 -1.09 1.31
-5.94 -1.03 1.34
-1.92 -0.53 1.74
-6.37 -1.04 1.30
-6.21 -0.98 1.31
-4.46 -0.77 1.49
-4.60 -0.76 1.47
-4.73 -0.76 1.46
-4.66 -0.74 1.47
-5.00 -0.75 1.43
-4.59 -0.69 1.47
-4.54 -0.66 1.48
-4.88 -0.67 1.44
-4.83 -0.65 1.45
-4.84 -0.63 1.45
-5.19 -0.64 1.41
-4.70 -0.58 1.46
-5.20 -0.61 1.41
-5.56 -0.60 1.38
-5.94 -0.60 1.34
-5.07 -0.52 1.42
-5.15 -0.51 1.42
-4.84 -0.47 1.45
-4.86 -0.46 1.44
-4.96 -0.44 1.43
-4.90 -0.41 1.44
-4.90 -0.39 1.44
-4.82 -0.37 1.45
-4.94 -0.36 1.44
-4.87 -0.33 1.44
-4.88 -0.32 1.44
-4.69 -0.29 1.46
-5.07 -0.27 1.42
-7.11 -0.32 1.22
-4.97 -0.23 1.43
-5.17 -0.22 1.41
-5.14 -0.20 1.41
-5.06 -0.18 1.42
-4.33 -0.15 1.49
-4.94 -0.12 1.43
-4.56 -0.10 1.47
-1.71 -0.05 1.76
-1.84 -0.04 1.74
-5.13 -0.05 1.41
-5.35 -0.04 1.39
-5.44 -0.02 1.38
-5.38 0.01 1.58
-5.27 0.02 1.60
-5.27 0.03 1.60
-5.29 0.05 1.59
-5.34 0.06 1.59
-5.27 0.07 1.59
-5.22 0.08 1.60
-5.22 0.10 1.60
-5.21 0.11 1.60
-5.25 0.12 1.60
-5.32 0.14 1.59
-5.35 0.15 1.59
-5.22 0.16 1.60
-5.53 0.19 1.57
-6.33 0.23 1.48
-6.58 0.25 1.45
-6.25 0.26 1.49
-5.84 0.25 1.53
-5.82 0.27 1.53
-5.63 0.27 1.55
-6.37 0.32 1.47
-6.50 0.35 1.46
-6.40 0.36 1.47
-6.31 0.37 1.48
-5.38 0.33 1.58
-5.37 0.34 1.58
-5.39 0.36 1.58
-5.65 0.39 1.55
-5.60 0.40 1.55
-5.29 0.39 1.59
-5.49 0.42 1.57
-5.32 0.42 1.58
-5.33 0.43 1.58
-4.82 0.48 1.63
-4.72 0.49 1.64
-5.39 0.64 1.57
-4.38 0.54 1.68
-5.34 0.67 1.57
-4.97 0.69 1.61
-5.13 0.73 1.60
-4.75 0.69 1.64
-4.82 0.72 1.63
-4.94 0.75 1.61
-4.85 0.75 1.62
-10.28 1.56 1.04
-4.99 0.79 1.61
-6.19 0.99 1.48
-4.63 0.92 1.64
-4.83 0.97 1.62
-5.29 1.11 1.57
-5.44 1.20 1.55
-5.76 1.30 1.51
-5.44 1.25 1.55
-5.62 1.30 1.53
-6.32 1.47 1.45
-6.14 1.49 1.47
-5.07 1.37 1.58
-5.15 1.42 1.57
-4.83 1.39 1.60
-4.97 1.44 1.59
-4.81 1.41 1.60
-3.93 1.32 1.70
-3.83 1.31 1.71
-3.95 1.57 1.68
-4.07 1.67 1.67
-2.17 -1.68 1.67
-2.36 -1.60 1.65
-2.70 -1.50 1.62
-2.52 -1.44 1.64
-3.23 -1.63 1.56
-2.69 -1.46 1.62
-3.09 -1.50 1.58
-2.42 -1.31 1.65
-2.65 -1.36 1.63
-2.51 -1.31 1.64
-2.80 -1.37 1.61
-2.55 -1.30 1.64
-2.70 -1.32 1.62
-2.49 -1.26 1.65
-2.46 -1.24 1.65
-2.16 -1.15 1.68
-2.29 -1.17 1.67
-2.26 -1.15 1.67
-2.95 -1.31 1.60
-2.38 -1.16 1.66
-2.32 -1.13 1.67
-2.26 -1.09 1.67
-2.50 -1.14 1.65
-2.43 -1.11 1.65
-2.74 -1.16 1.62
-2.38 -1.07 1.66
-2.18 -1.02 1.68
-2.48 -1.07 1.65
-4.07 -1.39 1.48
-4.01 -1.37 1.48
-4.04 -1.36 1.48
-2.30 -0.98 1.67
-4.17 -1.35 1.47
-4.05 -1.31 1.48
-3.96 -1.28 1.49
-4.06 -1.28 1.48
-4.03 -1.26 1.48
-4.03 -1.24 1.48
-4.24 -1.27 1.46
-4.16 -1.24 1.47
-4.17 -1.22 1.47
-4.16 -1.20 1.47
-4.16 -1.19 1.47
-4.05 -1.15 1.48
-4.12 -1.15 1.47
-4.27 -1.16 1.46
-5.73 -1.39 1.30
-5.76 -1.37 1.30
-5.56 -1.32 1.32
-4.81 -1.18 1.40
-4.39 -1.09 1.45
-4.30 -1.06 1.46
-5.94 -1.30 1.28
-6.04 -1.29 1.27
-4.37 -1.02 1.45
-4.56 -1.03 1.43
-4.45 -1.00 1.44
-6.21 -1.23 1.25
-4.56 -0.98 1.43
-4.77 -1.00 1.41
-5.46 -1.07 1.33
-5.27 -1.03 1.35
-5.84 -1.08 1.29
-6.11 -1.10 1.26
-6.01 -1.06 1.27
-6.17 -1.06 1.26
-4.58 -0.85 1.43
-6.37 -1.04 1.24
-5.05 -0.87 1.38
-4.58 -0.80 1.43
-4.56 -0.78 1.43
-4.68 -0.78 1.41
-4.92 -0.78 1.39
-4.76 -0.75 1.41
-4.69 -0.72 1.41
-4.53 -0.69 1.43
-4.60 -0.68 1.42
-4.76 -0.68 1.41
-5.10 -0.69 1.37
-4.93 -0.66 1.39
-5.07 -0.65 1.37
-4.87 -0.62 1.39
-4.76 -0.59 1.41
-4.82 -0.58 1.40
-4.86 -0.56 1.40
-4.79 -0.54 1.40
-4.80 -0.53 1.40
-4.88 -0.51 1.39
-4.79 -0.49 1.40
-4.86 -0.48 1.39
-4.99 -0.47 1.38
-4.82 -0.44 1.40
-4.88 -0.42 1.39
-4.88 -0.41 1.39
-4.87 -0.39 1.39
-4.93 -0.37 1.39
-4.96 -0.36 1.38
-4.91 -0.34 1.39
-4.88 -0.32 1.39
-5.09 -0.31 1.37
-4.81 -0.28 1.40
-5.82 -0.21 1.54
-5.67 -0.19 1.56
-6.05 -0.19 1.52
-5.63 -0.16 1.56
-5.38 -0.14 1.59
-5.58 -0.13 1.56
-5.34 -0.11 1.59
-5.33 -0.10 1.59
-5.33 -0.09 1.59
-5.27 -0.07 1.60
-5.31 -0.06 1.59
-5.27 -0.05 1.60
-5.22 -0.03 1.60
-5.32 -0.02 1.59
-5.40 -0.01 1.58
-9.41 -0.00 0.83
-9.41 0.34 0.82
-9.44 0.37 0.82
-9.21 0.39 0.85
-9.42 0.42 0.82
-9.52 0.46 0.81
-9.42 0.48 0.82
-9.83 0.59 1.04
-14.75 0.91 0.48
-10.29 1.50 0.97
-10.39 1.60 0.95
-10.18 1.62 0.98
-10.23 1.68 0.97
-3.23 0.96 1.76
-1.88 -1.06 1.69
-1.84 -1.04 1.69
-1.65 -0.98 1.71
-1.50 -0.92 1.73
-1.62 -0.94 1.72
-1.36 -0.87 1.75
-1.46 -0.88 1.73
-1.57 -0.89 1.72
-1.12 -0.78 1.77
-3.78 -1.11 1.47
-5.84 -1.46 1.24
-1.71 -0.72 1.71
-5.97 -1.44 1.22
-5.99 -1.42 1.22
-5.92 -1.39 1.23
-5.79 -1.35 1.24
-4.02 -1.05 1.45
-4.47 -1.10 1.39
-6.04 -1.23 1.22
-6.72 -1.21 1.14
-6.51 -1.14 1.16
-5.77 -0.99 1.25
-6.10 -1.01 1.21
-5.90 -0.96 1.23
-5.72 -0.92 1.25
-4.70 -0.79 1.37
-5.46 -0.86 1.28
-4.80 -0.77 1.36
-4.76 -0.75 1.36
-4.85 -0.74 1.35
-4.75 -0.71 1.36
-5.02 -0.72 1.33
-5.09 -0.71 1.32
-4.83 -0.65 1.35
-4.91 -0.64 1.34
-5.01 -0.63 1.33
-4.97 -0.61 1.34
-5.07 -0.60 1.33
-5.01 -0.57 1.33
-5.05 -0.56 1.33
-5.06 -0.54 1.33
-5.02 -0.52 1.33
-5.03 -0.50 1.33
-4.86 -0.47 1.35
-4.99 -0.47 1.33
-5.01 -0.45 1.33
-5.04 -0.43 1.33
-4.97 -0.41 1.34
-5.28 -0.41 1.30
-5.31 -0.37 1.30
-5.30 -0.35 1.30
-5.02 -0.32 1.33
-5.41 -0.32 1.29
-7.99 -0.33 0.99
-7.37 -0.26 1.06
-7.36 -0.24 1.06
-7.28 -0.21 1.07
-7.39 -0.19 1.06
-9.29 -0.03 0.84
-5.00 0.00 1.55
-4.93 0.02 1.56
-5.14 0.03 1.54
-5.22 0.04 1.53
-4.99 0.05 1.55
-5.05 0.07 1.55
-5.13 0.08 1.54
-5.09 0.09 1.54
-5.09 0.11 1.54
-5.03 0.12 1.55
-4.90 0.13 1.56
-5.02 0.14 1.55
-4.89 0.15 1.56
-5.03 0.17 1.55
-5.18 0.19 1.53
-4.99 0.19 1.55
-5.13 0.21 1.53
-5.22 0.23 1.52
-4.92 0.23 1.56
-10.60 0.50 0.88
-10.31 0.54 0.91
-4.93 0.29 1.56
-15.40 0.95 0.30
-9.42 0.63 1.01
-10.11 1.43 0.91
-10.16 1.49 0.91
-10.07 1.50 0.92
-10.13 1.56 0.91
-10.35 1.62 0.88
-10.24 1.63 0.89
-9.91 1.60 0.93
-9.70 1.60 0.96
-9.77 1.68 0.95
-9.29 1.62 1.01
-9.53 1.69 0.98
-1.94 -1.19 1.64
-1.96 -1.10 1.64
-1.68 -1.02 1.68
-1.69 -0.98 1.67
-1.63 -0.96 1.68
-1.58 -0.94 1.69
-1.45 -0.90 1.70
-1.54 -0.91 1.69
-3.74 -1.22 1.43
-3.84 -1.22 1.42
-3.89 -1.22 1.41
-3.77 -1.15 1.43
-3.84 -1.15 1.42
-3.77 -1.12 1.42
-4.14 -1.15 1.38
-3.83 -1.07 1.42
-1.52 -0.67 1.70
-3.92 -1.05 1.41
-4.00 -1.02 1.40
-4.14 -0.96 1.38
-4.31 -0.97 1.36
-4.14 -0.93 1.38
-4.77 -1.00 1.31
-4.70 -0.97 1.31
-5.81 -1.10 1.18
-5.68 -1.06 1.20
-4.41 -0.88 1.35
-6.15 -1.08 1.14
-6.19 -1.07 1.14
-5.15 -0.92 1.26
-5.12 -0.90 1.26
-5.21 -0.89 1.25
-5.03 -0.85 1.28
-5.35 -0.87 1.24
-4.57 -0.76 1.33
-4.61 -0.75 1.33
-4.98 -0.77 1.28
-4.85 -0.74 1.30
-4.72 -0.71 1.31
-4.61 -0.68 1.32
-4.85 -0.69 1.30
-4.79 -0.65 1.30
-4.74 -0.63 1.31
-5.36 -0.66 1.23
-4.72 -0.59 1.31
-4.99 -0.59 1.28
-8.96 -0.83 0.80
-4.53 -0.49 1.33
-8.50 -0.74 0.86
-9.07 -0.75 0.79
-4.64 -0.45 1.32
-4.32 -0.41 1.36
-8.83 -0.65 0.82
-5.18 -0.29 1.53
-5.36 -0.29 1.51
-5.29 -0.27 1.52
-5.44 -0.26 1.50
-8.98 -0.41 1.08
-5.48 -0.24 1.50
-5.69 -0.23 1.47
-5.40 -0.21 1.51
-5.40 -0.20 1.51
-5.31 -0.18 1.52
-5.26 -0.15 1.52
-5.67 -0.15 1.48
-5.95 -0.14 1.44
-5.33 -0.11 1.51
-5.14 -0.10 1.54
-5.03 -0.08 1.55
-5.17 -0.07 1.53
-5.22 -0.06 1.53
-5.22 -0.05 1.53
-5.31 -0.03 1.52
-5.12 -0.02 1.54
-5.14 -0.01 1.54
-4.41 -0.00 1.30
-4.24 0.02 1.32
-5.99 0.05 1.39
-5.85 0.06 1.41
-5.45 0.09 1.46
-5.37 0.11 1.47
-4.78 0.12 1.55
-4.97 0.14 1.52
-5.12 0.16 1.50
-4.99 0.17 1.52
-5.10 0.20 1.50
-5.10 0.21 1.50
-5.25 0.24 1.48
-5.24 0.25 1.48
-5.22 0.27 1.49
-5.51 0.31 1.45
-6.33 0.37 1.34
-5.24 0.32 1.48
-5.38 0.35 1.46
-7.23 0.56 1.23
-7.61 0.61 1.18
-7.56 0.64 1.19
-7.39 0.65 1.21
-7.45 0.71 1.20
-4.08 0.42 1.63
-7.59 0.80 1.18
-5.36 0.58 1.46
-14.62 1.69 0.27
-10.09 1.35 0.85
-4.78 0.67 1.53
-4.43 0.64 1.58
-4.45 0.66 1.57
-10.36 1.51 0.81
-4.41 0.68 1.58
-10.05 1.52 0.85
-4.53 0.72 1.56
-9.66 1.54 0.90
-9.69 1.59 0.89
-9.86 1.64 0.87
-10.03 1.69 0.85
-1.49 -1.47 1.66
-2.20 -1.32 1.58
-1.96 -1.22 1.61
-2.12 -1.25 1.59
-2.21 -1.26 1.58
-2.09 -1.22 1.59
-1.89 -1.16 1.62
-2.04 -1.18 1.60
-1.81 -1.11 1.63
-1.90 -1.13 1.62
-1.73 -1.07 1.64
-3.79 -1.58 1.38
-1.90 -1.09 1.62
-1.97 -1.10 1.61
-2.14 -1.13 1.59
-2.10 -1.11 1.59
-2.30 -1.15 1.57
-1.97 -1.06 1.61
-4.01 -1.49 1.35
-3.88 -1.45 1.37
-3.87 -1.43 1.37
-3.93 -1.43 1.36
-3.88 -1.40 1.37
-3.76 -1.36 1.38
-3.91 -1.38 1.36
-1.59 -0.87 1.66
-3.75 -1.31 1.38
-3.84 -1.31 1.37
-3.78 -1.29 1.38
-3.75 -1.26 1.38
-3.94 -1.29 1.36
-3.80 -1.24 1.38
-4.05 -1.28 1.35
-3.85 -1.22 1.37
-3.78 -1.19 1.38
-3.71 -1.16 1.39
-3.80 -1.17 1.38
-3.82 -1.15 1.38
-3.86 -1.15 1.37
-3.75 -1.11 1.39
-3.82 -1.11 1.38
-3.85 -1.10 1.37
-1.82 -0.74 1.63
-3.95 -1.08 1.36
-5.69 -1.36 1.14
-3.86 -1.04 1.37
-3.77 -1.01 1.38
-3.92 -1.02 1.36
-4.05 -1.02 1.35
-3.97 -0.99 1.36
-4.37 -1.04 1.31
-4.45 -1.03 1.30
-4.40 -1.01 1.30
-4.51 -1.01 1.29
-4.47 -0.99 1.30
-4.77 -1.01 1.26
-4.65 -0.98 1.27
-4.47 -0.94 1.30
-4.92 -0.98 1.24
-4.81 -0.95 1.25
-5.35 -1.00 1.18
-5.07 -0.94 1.22
-5.12 -0.93 1.21
-5.06 -0.91 1.22
-4.91 -0.87 1.24
-4.78 -0.84 1.26
-4.74 -0.82 1.26
-4.56 -0.78 1.28
-4.58 -0.76 1.28
-4.54 -0.74 1.29
-4.60 -0.73 1.28
-4.50 -0.70 1.29
-4.61 -0.70 1.28
-4.54 -0.67 1.29
-4.74 -0.68 1.26
-4.82 -0.67 1.25
-4.85 -0.65 1.25
-4.33 -0.59 1.31
-4.72 -0.61 1.26
-4.92 -0.60 1.24
-4.89 -0.58 1.24
-4.94 -0.57 1.24
-5.25 -0.58 1.20
-5.39 -0.57 1.18
-5.24 -0.54 1.20
-3.88 -0.43 1.37
-5.27 -0.50 1.19
-5.20 -0.48 1.20
-5.33 -0.47 1.19
-5.17 -0.44 1.21
-4.98 -0.41 1.23
-4.84 -0.39 1.25
-6.03 -0.43 1.10
-5.23 -0.37 1.20
-5.25 -0.35 1.20
-4.94 -0.32 1.23
-5.04 -0.31 1.22
-4.98 -0.29 1.23
-4.80 -0.26 1.25
-4.88 -0.25 1.24
-4.90 -0.23 1.24
-4.76 -0.21 1.26
-4.81 -0.19 1.25
-4.57 -0.17 1.28
-4.54 -0.15 1.28
-4.41 -0.13 1.30
-4.99 -0.13 1.23
-4.57 -0.10 1.28
-4.69 -0.09 1.26
-1.53 -0.04 1.66
-4.67 -0.05 1.27
-4.49 -0.03 1.29
-4.37 -0.02 1.30
-5.64 0.01 1.40
-5.77 0.02 1.38
-5.80 0.03 1.37
-5.70 0.05 1.39
-5.75 0.06 1.38
-5.68 0.08 1.39
-6.06 0.10 1.34
-6.25 0.11 1.31
-6.03 0.13 1.34
-5.65 0.13 1.39
-5.49 0.14 1.41
-5.04 0.14 1.47
-5.07 0.16 1.47
-5.03 0.17 1.47
-5.00 0.18 1.48
-5.15 0.20 1.46
-5.22 0.21 1.45
-5.06 0.22 1.47
-5.21 0.24 1.45
-5.18 0.25 1.45
-5.23 0.27 1.45
-6.56 0.35 1.27
-5.14 0.29 1.46
-6.59 0.38 1.26
-5.16 0.31 1.45
-5.36 0.34 1.43
-9.34 0.60 0.89
-5.27 0.36 1.44
-7.16 0.52 1.18
-7.04 0.53 1.20
-7.38 0.57 1.15
-7.47 0.60 1.14
-7.75 0.68 1.10
-7.73 0.71 1.10
-7.68 0.75 1.11
-7.59 0.76 1.12
-7.66 0.78 1.11
-4.60 0.49 1.52
-12.19 1.32 0.50
-5.13 0.59 1.45
-5.06 0.59 1.46
-5.85 0.71 1.35
-10.20 1.24 0.76
-10.57 1.31 0.71
-5.10 0.66 1.45
-5.29 0.70 1.43
-10.58 1.41 0.71
-5.02 0.70 1.46
-10.54 1.46 0.71
-4.94 0.72 1.47
-4.79 0.71 1.49
-9.94 1.45 0.79
-4.68 0.72 1.51
-4.77 0.74 1.49
-4.71 0.75 1.50
-4.73 0.76 1.50
-10.17 1.61 0.76
-10.36 1.67 0.73
-10.33 1.69 0.73
-8.76 1.69 0.94
-6.29 1.34 1.27
-6.20 1.34 1.28
-5.92 1.32 1.32
-4.61 1.06 1.50
-6.00 1.38 1.31
-5.94 1.38 1.31
-6.18 1.47 1.28
-4.09 1.08 1.57
-4.40 1.16 1.52
-3.81 1.65 1.57
-1.98 -1.39 1.57
-2.62 -1.52 1.48
-2.79 -1.54 1.46
-2.63 -1.48 1.48
-2.70 -1.49 1.47
-2.60 -1.45 1.49
-3.11 -1.57 1.42
-2.49 -1.38 1.50
-2.34 -1.29 1.52
-1.98 -1.15 1.57
-3.66 -1.57 1.35
-3.71 -1.56 1.34
-3.67 -1.54 1.35
-3.66 -1.52 1.35
-3.86 -1.55 1.32
-3.61 -1.48 1.35
-3.92 -1.54 1.31
-3.82 -1.50 1.33
-3.88 -1.49 1.32
-3.80 -1.46 1.33
-3.69 -1.42 1.34
-3.73 -1.41 1.34
-3.76 -1.41 1.33
-3.75 -1.39 1.34
-3.62 -1.34 1.35
-3.60 -1.32 1.36
-3.72 -1.34 1.34
-3.71 -1.32 1.34
-3.66 -1.29 1.35
-3.70 -1.28 1.34
-3.71 -1.27 1.34
-3.77 -1.27 1.34
-3.77 -1.25 1.34
-3.74 -1.23 1.34
-3.74 -1.22 1.34
-3.72 -1.20 1.34
-3.77 -1.19 1.34
-3.73 -1.17 1.34
-3.81 -1.17 1.33
-3.77 -1.15 1.34
-3.83 -1.14 1.33
-5.52 -1.43 1.10
-5.72 -1.44 1.07
-5.82 -1.44 1.06
-3.70 -1.06 1.35
-3.67 -1.04 1.35
-3.75 -1.04 1.34
-3.90 -1.05 1.32
-3.80 -1.02 1.33
-3.94 -1.02 1.32
-3.86 -0.99 1.33
-3.83 -0.97 1.33
-3.92 -0.97 1.32
-4.72 -1.08 1.21
-4.11 -0.97 1.29
-4.63 -1.03 1.22
-4.35 -0.97 1.26
-4.33 -0.95 1.26
-4.63 -0.98 1.22
-4.95 -1.00 1.18
-4.90 -0.98 1.19
-4.89 -0.96 1.19
-4.97 -0.95 1.18
-4.87 -0.92 1.19
-4.85 -0.90 1.19
-4.93 -0.89 1.18
-4.69 -0.85 1.21
-4.64 -0.82 1.22
-4.53 -0.79 1.24
-4.46 -0.77 1.25
-4.50 -0.76 1.24
-4.47 -0.74 1.24
-4.36 -0.71 1.26
-4.48 -0.70 1.24
-4.52 -0.69 1.24
-4.62 -0.68 1.22
-4.52 -0.66 1.24
-4.83 -0.67 1.20
-4.61 -0.63 1.23
-4.29 -0.59 1.27
-4.37 -0.58 1.26
-4.77 -0.59 1.20
-4.49 -0.55 1.24
-4.80 -0.56 1.20
-5.07 -0.56 1.16
-5.10 -0.55 1.16
-5.06 -0.53 1.16
-5.32 -0.53 1.13
-5.21 -0.50 1.14
-5.15 -0.48 1.15
-5.28 -0.47 1.13
-5.06 -0.44 1.16
-5.22 -0.43 1.14
-5.03 -0.40 1.17
-4.94 -0.38 1.18
-5.11 -0.37 1.16
-4.80 -0.33 1.20
-5.03 -0.33 1.17
-4.66 -0.29 1.22
-4.62 -0.27 1.22
-5.08 -0.27 1.16
-5.01 -0.25 1.17
-4.77 -0.23 1.20
-4.74 -0.21 1.21
-4.76 -0.19 1.20
-4.31 -0.16 1.26
-4.36 -0.15 1.26
-4.36 -0.13 1.25
-4.20 -0.11 1.28
-5.44 -0.08 1.42
-5.27 -0.06 1.45
-5.32 -0.05 1.44
-5.24 -0.03 1.45
-5.24 -0.02 1.45
-5.28 -0.01 1.44
-4.14 -0.00 1.24
-4.25 0.01 1.22
-4.26 0.03 1.22
-3.93 0.05 1.27
-4.13 0.06 1.24
-4.18 0.08 1.23
-3.98 0.09 1.26
-3.91 0.11 1.27
-4.04 0.12 1.25
-4.12 0.14 1.24
-4.17 0.16 1.23
-4.74 0.13 1.48
-4.92 0.15 1.45
-4.80 0.16 1.47
-4.92 0.18 1.45
-4.91 0.19 1.45
-4.81 0.20 1.47
-5.06 0.22 1.43
-4.95 0.23 1.45
-5.01 0.24 1.44
-5.15 0.26 1.42
-5.04 0.27 1.43
-5.23 0.29 1.41
-6.80 0.39 1.18
-9.67 0.58 0.78
-9.58 0.59 0.79
-9.70 0.63 0.77
-9.67 0.65 0.78
-9.79 0.68 0.76
-9.83 0.71 0.75
-7.15 0.55 1.13
-7.19 0.57 1.12
-7.30 0.60 1.11
-7.20 0.61 1.12
-7.46 0.65 1.09
-7.40 0.66 1.09
-7.30 0.67 1.11
-7.35 0.70 1.10
-7.47 0.73 1.08
-7.54 0.75 1.07
-7.66 0.78 1.05
-7.44 0.78 1.08
-7.32 0.79 1.10
-7.40 0.81 1.09
-4.93 0.58 1.44
-10.31 1.30 0.67
-10.39 1.33 0.66
-10.50 1.43 0.64
-9.35 1.30 0.80
-9.98 1.41 0.71
-4.56 0.68 1.49
-10.01 1.46 0.71
-9.67 1.44 0.76
-10.23 1.55 0.67
-10.08 1.55 0.69
-9.98 1.56 0.71
-10.03 1.59 0.70
-10.11 1.63 0.69
-10.21 1.67 0.67
-10.19 1.69 0.68
-8.98 1.68 0.84
-6.27 1.32 1.23
-6.29 1.36 1.22
-6.00 1.31 1.27
-6.25 1.40 1.23
-6.12 1.42 1.24
-6.15 1.44 1.24
-6.27 1.48 1.22
-6.12 1.47 1.24
-6.10 1.48 1.24
-5.94 1.49 1.26
-6.12 1.56 1.24
-6.06 1.57 1.25
-6.18 1.61 1.23
-6.33 1.67 1.20
-2.04 -1.29 1.53
-1.82 -1.22 1.56
-2.07 -1.27 1.53
-2.08 -1.26 1.53
-1.93 -1.19 1.55
-1.79 -1.12 1.57
-1.38 -0.99 1.63
-1.63 -1.04 1.59
-3.70 -1.56 1.30
-3.49 -1.49 1.33
-3.51 -1.48 1.32
-3.60 -1.49 1.31
-3.40 -1.42 1.34
-3.55 -1.44 1.32
-3.52 -1.42 1.32
-3.63 -1.43 1.31
-1.58 -0.94 1.60
-1.49 -0.91 1.62
-3.59 -1.38 1.32
-3.53 -1.35 1.32
-3.57 -1.34 1.32
-3.57 -1.33 1.32
-3.53 -1.31 1.32
-3.55 -1.30 1.32
-3.69 -1.31 1.30
-3.69 -1.30 1.30
-3.71 -1.28 1.30
-3.80 -1.29 1.29
-3.61 -1.23 1.31
-3.70 -1.24 1.30
-3.60 -1.20 1.32
-3.55 -1.18 1.32
-3.63 -1.18 1.31
-3.64 -1.16 1.31
-3.68 -1.16 1.30
-3.75 -1.16 1.30
-3.82 -1.15 1.29
-3.67 -1.11 1.31
-3.55 -1.07 1.32
-5.63 -1.43 1.03
-5.62 -1.40 1.03
-3.72 -1.06 1.30
-5.65 -1.37 1.03
-5.79 -1.37 1.01
-3.70 -1.01 1.30
-5.53 -1.29 1.04
-5.36 -1.25 1.07
-4.24 -1.05 1.23
-4.03 -1.00 1.26
-5.01 -1.14 1.12
-4.48 -1.04 1.19
-4.47 -1.02 1.19
-4.45 -1.00 1.20
-4.44 -0.98 1.20
-4.39 -0.96 1.21
-4.75 -0.99 1.16
-4.82 -0.98 1.15
-4.74 -0.95 1.16
-6.02 -1.10 0.98
-5.20 -0.98 1.09
-5.15 -0.95 1.10
-4.81 -0.89 1.15
-4.81 -0.88 1.15
-4.67 -0.84 1.17
-4.50 -0.80 1.19
-4.54 -0.79 1.19
-4.54 -0.78 1.19
-4.46 -0.75 1.20
-4.64 -0.75 1.17
-4.41 -0.71 1.20
-4.66 -0.72 1.17
-4.81 -0.72 1.15
-4.77 -0.70 1.15
-4.75 -0.68 1.16
-5.02 -0.69 1.12
-4.91 -0.66 1.13
-4.90 -0.64 1.13
-5.30 -0.65 1.08
-5.19 -0.63 1.09
-5.00 -0.59 1.12
-5.27 -0.60 1.08
-5.18 -0.57 1.10
-5.30 -0.56 1.08
-5.38 -0.55 1.07
-5.29 -0.52 1.08
-5.14 -0.50 1.10
-5.08 -0.47 1.11
-4.92 -0.45 1.13
-4.68 -0.41 1.17
-4.70 -0.40 1.16
-4.77 -0.38 1.15
-4.03 -0.33 1.26
-4.44 -0.33 1.20
-4.67 -0.33 1.17
-4.49 -0.30 1.19
-4.29 -0.28 1.22
-4.62 -0.27 1.17
-4.27 -0.23 1.22
-4.44 -0.22 1.20
-4.31 -0.20 1.22
-4.60 -0.19 1.17
-4.37 -0.17 1.21
-4.05 -0.14 1.25
-3.91 -0.12 1.27
-3.91 -0.11 1.27
-3.89 -0.09 1.27
-3.92 -0.08 1.27
-4.00 -0.06 1.26
-3.87 -0.05 1.27
-4.08 -0.03 1.25
-4.13 -0.02 1.24
-5.34 0.00 1.35
-5.40 0.02 1.34
-5.68 0.03 1.30
-5.64 0.05 1.31
-5.79 0.06 1.28
-5.83 0.08 1.28
-5.99 0.09 1.25
-6.08 0.11 1.24
-6.01 0.12 1.25
-7.01 0.16 1.10
-5.45 0.14 1.33
-5.24 0.15 1.36
-5.11 0.16 1.38
-5.00 0.17 1.40
-5.26 0.19 1.36
-5.03 0.19 1.39
-5.31 0.22 1.35
-5.21 0.23 1.37
-4.96 0.23 1.40
-4.96 0.24 1.40
-5.07 0.26 1.39
-5.13 0.27 1.38
-5.15 0.29 1.37
-5.06 0.30 1.39
-5.07 0.31 1.39
-5.07 0.32 1.38
-6.95 0.45 1.10
-5.49 0.37 1.32
-6.98 0.49 1.10
-9.82 0.71 0.67
-7.29 0.55 1.05
-7.64 0.59 1.00
-7.89 0.63 0.96
-7.51 0.62 1.02
-7.28 0.62 1.05
-7.36 0.64 1.04
-7.23 0.65 1.06
-7.44 0.69 1.03
-7.52 0.71 1.01
-7.46 0.73 1.02
-7.52 0.75 1.01
-5.08 0.53 1.38
-5.41 0.57 1.33
-5.18 0.57 1.36
-5.17 0.58 1.36
-5.30 0.60 1.34
-7.26 0.84 1.05
-5.19 0.62 1.36
-5.38 0.65 1.33
-5.23 0.65 1.35
-5.32 0.68 1.34
-5.25 0.68 1.35
-5.10 0.67 1.37
-5.16 0.70 1.36
-5.19 0.71 1.35
-5.12 0.72 1.36
-5.07 0.72 1.37
-5.24 0.76 1.35
-4.92 0.73 1.39
-4.99 0.75 1.38
-5.03 0.77 1.38
-4.67 0.73 1.43
-4.88 0.77 1.40
-4.92 0.79 1.39
-4.84 0.79 1.40
-4.85 0.81 1.40
-9.93 1.63 0.63
-4.76 0.82 1.41
-10.01 1.69 0.62
-9.64 1.66 0.67
-9.40 1.69 0.71
-9.04 1.65 0.76
-8.95 1.66 0.77
-8.93 1.67 0.77
-6.74 1.37 1.10
-6.34 1.31 1.16
-6.28 1.31 1.17
-6.42 1.35 1.15
-6.25 1.34 1.18
-6.17 1.34 1.19
-6.18 1.35 1.19
-6.05 1.34 1.20
-6.17 1.38 1.19
-6.08 1.38 1.20
-6.16 1.42 1.19
-6.14 1.43 1.19
-6.16 1.45 1.18
-6.21 1.48 1.18
-6.40 1.54 1.15
-6.17 1.50 1.18
-6.07 1.51 1.19
-6.12 1.54 1.18
-6.09 1.55 1.19
-4.46 1.17 1.44
-6.06 1.57 1.19
-6.11 1.62 1.18
-1.66 -1.54 1.54
-2.25 -1.65 1.45
-2.11 -1.58 1.47
-2.39 -1.66 1.43
-2.65 -1.66 1.39
-1.77 -1.34 1.53
-2.11 -1.39 1.48
-2.35 -1.44 1.44
-2.92 -1.60 1.36
-2.32 -1.39 1.45
-2.41 -1.40 1.44
-3.44 -1.67 1.28
-3.24 -1.58 1.31
-3.18 -1.53 1.32
-3.79 -1.65 1.23
-2.10 -1.18 1.49
-3.59 -1.54 1.26
-3.57 -1.52 1.26
-3.52 -1.49 1.27
-3.44 -1.44 1.29
-3.43 -1.41 1.29
-3.50 -1.39 1.28
-3.66 -1.42 1.25
-3.68 -1.41 1.25
-3.68 -1.38 1.25
-3.70 -1.35 1.25
-3.70 -1.32 1.25
-3.72 -1.31 1.25
-3.69 -1.29 1.25
-3.69 -1.26 1.25
-3.64 -1.22 1.26
-3.67 -1.19 1.25
-3.64 -1.17 1.26
-3.57 -1.14 1.27
-3.45 -1.09 1.29
-3.58 -1.08 1.27
-3.67 -1.07 1.26
-5.55 -1.38 0.97
-5.48 -1.35 0.99
-3.80 -1.03 1.24
-5.52 -1.27 0.98
-5.38 -1.21 1.00
-5.22 -1.17 1.03
-5.20 -1.15 1.03
-5.16 -1.11 1.03
-4.98 -1.04 1.06
-4.61 -0.96 1.12
-4.54 -0.93 1.13
-4.07 -0.85 1.20
-4.57 -0.89 1.12
-4.49 -0.84 1.13
-4.65 -0.83 1.11
-4.65 -0.81 1.11
-4.56 -0.78 1.12
-4.54 -0.74 1.13
-4.78 -0.74 1.09
-4.66 -0.69 1.11
-4.92 -0.70 1.07
-4.87 -0.67 1.08
-3.71 -0.54 1.25
-3.42 -0.48 1.29
-3.76 -0.48 1.24
-3.69 -0.46 1.25
-3.69 -0.45 1.25
-3.86 -0.43 1.23
-3.88 -0.40 1.22
-4.40 -0.40 1.15
-3.94 -0.36 1.22
-3.93 -0.34 1.22
-4.11 -0.32 1.19
-4.18 -0.29 1.18
-4.18 -0.26 1.18
-4.01 -0.24 1.20
-5.44 -0.18 1.34
-5.61 -0.18 1.31
-5.55 -0.16 1.32
-5.51 -0.15 1.33
-5.55 -0.13 1.32
-5.44 -0.12 1.34
-5.47 -0.10 1.33
-5.29 -0.09 1.36
-5.28 -0.07 1.36
-5.19 -0.06 1.37
-5.14 -0.05 1.38
-5.24 -0.04 1.37
-5.18 -0.02 1.38
-5.30 -0.01 1.36
-3.83 -0.00 1.19
-4.20 0.01 1.13
-4.05 0.03 1.15
-4.56 0.05 1.07
-6.16 0.08 0.82
-6.20 0.10 0.81
-6.36 0.12 0.79
-6.15 0.14 0.82
-6.48 0.17 0.77
-6.25 0.18 0.81
-3.88 0.15 1.18
-6.10 0.22 0.83
-6.22 0.25 0.81
-6.33 0.27 0.79
-6.61 0.30 0.75
-6.73 0.33 0.73
-3.65 0.24 1.21
-6.37 0.36 0.78
-6.24 0.37 0.80
-9.64 0.48 0.64
-4.78 0.25 1.40
-4.79 0.27 1.39
-9.90 0.56 0.60
-4.81 0.29 1.39
-9.85 0.61 0.60
-9.96 0.64 0.58
-10.07 0.67 0.57
-9.86 0.68 0.60
-9.84 0.71 0.60
-10.01 0.74 0.57
-10.04 0.77 0.57
-9.97 0.79 0.58
-7.83 0.70 0.91
-7.66 0.72 0.94
-7.58 0.74 0.95
-7.84 0.78 0.91
-7.74 0.79 0.92
-7.69 0.80 0.93
-4.53 0.50 1.43
-4.88 0.54 1.37
-4.61 0.55 1.41
-4.74 0.59 1.39
-4.75 0.60 1.39
-4.87 0.63 1.37
-4.74 0.63 1.39
-4.73 0.64 1.39
-4.73 0.65 1.39
-4.73 0.66 1.39
-4.76 0.69 1.39
-9.35 1.34 0.66
-4.52 0.68 1.42
-4.67 0.71 1.40
-4.66 0.73 1.40
-9.87 1.52 0.57
-4.55 0.73 1.42
-10.21 1.69 0.51
-9.79 1.65 0.58
-9.51 1.63 0.62
-9.27 1.61 0.66
-9.40 1.68 0.64
-9.14 1.66 0.68
-9.19 1.69 0.67
-8.65 1.68 0.75
-5.90 1.38 1.18
-3.39 0.91 1.58
-3.06 1.07 1.62
-3.23 1.17 1.59
-1.91 -1.68 1.47
-1.85 -1.34 1.49
-1.85 -1.31 1.49
-1.78 -1.17 1.51
-1.07 -0.96 1.62
-1.28 -1.01 1.59
-1.65 -1.10 1.53
-1.34 -1.01 1.58
-1.61 -1.07 1.53
-1.45 -1.02 1.56
-1.49 -1.02 1.55
-1.50 -1.01 1.55
-1.61 -1.03 1.54
-1.70 -1.04 1.52
-1.50 -0.98 1.55
-1.51 -0.97 1.55
-1.85 -1.05 1.50
-1.51 -0.95 1.55
-1.70 -0.99 1.52
-1.67 -0.97 1.53
-1.16 -0.84 1.61
-1.39 -0.89 1.57
-1.34 -0.87 1.58
-1.13 -0.81 1.61
-1.17 -0.81 1.61
-1.08 -0.78 1.62
-3.50 -1.30 1.24
-1.23 -0.76 1.60
-1.01 -0.70 1.63
-3.53 -1.17 1.23
-1.13 -0.69 1.61
-3.60 -1.16 1.22
-3.44 -1.11 1.25
-6.00 -1.55 0.85
-5.62 -1.46 0.91
-3.76 -1.07 1.20
-5.84 -1.40 0.87
-5.70 -1.36 0.90
-1.24 -0.61 1.60
-3.58 -0.98 1.23
-3.47 -0.94 1.25
-3.65 -0.96 1.22
-3.82 -0.97 1.19
-3.60 -0.92 1.23
-3.53 -0.90 1.24
-5.52 -1.17 0.93
-3.58 -0.86 1.23
-3.20 -0.79 1.29
-3.57 -0.83 1.23
-6.16 -1.16 0.83
-4.64 -0.94 1.06
-3.84 -0.82 1.19
-4.60 -0.90 1.07
-4.79 -0.91 1.04
-4.75 -0.89 1.05
-4.66 -0.86 1.06
-4.50 -0.82 1.09
-4.73 -0.83 1.05
-4.64 -0.80 1.06
-4.55 -0.78 1.08
-4.67 -0.77 1.06
-4.56 -0.74 1.08
-4.58 -0.73 1.07
-4.35 -0.69 1.11
-3.53 -0.59 1.24
-4.20 -0.64 1.13
-3.76 -0.58 1.20
-3.29 -0.53 1.28
-3.57 -0.54 1.23
-3.50 -0.52 1.24
-3.43 -0.50 1.25
-3.51 -0.49 1.24
-3.56 -0.48 1.23
-3.60 -0.47 1.23
-3.76 -0.47 1.20
-3.62 -0.44 1.22
-8.14 -0.74 0.52
-3.54 -0.41 1.24
-9.17 -0.76 0.36
-8.92 -0.71 0.40
-8.94 -0.69 0.39
-8.84 -0.60 0.41
-3.97 -0.31 1.17
-3.93 -0.29 1.17
-8.92 -0.50 0.40
-8.82 -0.47 0.41
-8.99 -0.44 0.38
-4.27 -0.23 1.12
-3.81 -0.18 1.19
-9.02 -0.31 0.38
-3.86 -0.15 1.18
-3.92 -0.14 1.17
-3.76 -0.12 1.20
-3.61 -0.10 1.22
-9.62 -0.15 0.28
-9.40 -0.12 0.32
-9.20 -0.09 0.35
-9.22 -0.06 0.34
-9.41 -0.04 0.31
-5.29 0.00 1.27
-5.04 0.02 1.31
-5.05 0.03 1.31
-9.54 0.08 0.57
-7.28 0.08 0.95
-7.24 0.09 0.95
-4.82 0.08 1.35
-7.07 0.13 0.98
-5.41 0.11 1.25
-5.57 0.13 1.22
-5.39 0.14 1.25
-4.92 0.14 1.33
-4.76 0.15 1.36
-7.04 0.23 0.98
-7.04 0.25 0.98
-5.08 0.19 1.30
-5.07 0.21 1.30
-5.05 0.22 1.31
-5.09 0.23 1.30
-4.92 0.24 1.33
-4.87 0.25 1.34
-4.97 0.27 1.32
-10.36 0.57 0.43
-9.80 0.56 0.52
-9.82 0.59 0.52
-9.66 0.60 0.55
-9.05 0.58 0.65
-8.64 0.58 0.71
-4.98 0.35 1.31
-8.78 0.63 0.69
-4.93 0.38 1.32
-8.55 0.66 0.73
-8.28 0.66 0.77
-8.24 0.68 0.78
-8.01 0.68 0.81
-7.68 0.67 0.87
-7.39 0.66 0.91
-7.73 0.71 0.86
-7.61 0.72 0.88
-7.77 0.76 0.85
-7.90 0.79 0.83
-7.68 0.79 0.86
-4.73 0.51 1.35
-4.45 0.49 1.40
-4.63 0.52 1.37
-4.85 0.56 1.33
-4.70 0.55 1.35
-4.87 0.58 1.33
-4.92 0.60 1.32
-4.70 0.59 1.35
-4.92 0.63 1.32
-4.85 0.63 1.33
-4.94 0.66 1.31
-4.76 0.65 1.34
-4.86 0.67 1.32
-4.87 0.68 1.32
-4.82 0.69 1.33
-4.85 0.71 1.32
-4.97 0.74 1.30
-9.84 1.44 0.49
-9.81 1.46 0.50
-9.88 1.50 0.48
-10.25 1.58 0.42
-9.59 1.55 0.53
-9.52 1.56 0.54
-9.57 1.60 0.53
-9.39 1.59 0.56
-9.35 1.61 0.57
-9.15 1.60 0.60
-9.03 1.60 0.62
-8.81 1.59 0.65
-8.81 1.61 0.65
-8.74 1.62 0.66
-8.92 1.67 0.63
-8.77 1.69 0.65
-6.19 1.31 1.08
-6.09 1.31 1.10
-5.96 1.29 1.12
-6.16 1.35 1.09
-6.19 1.37 1.08
-6.18 1.39 1.08
-6.07 1.38 1.10
-6.04 1.39 1.10
-4.10 0.98 1.43
-5.90 1.39 1.12
-6.45 1.53 1.03
-6.02 1.45 1.10
-5.72 1.40 1.15
-5.50 1.42 1.19
-3.16 0.86 1.58
-5.53 1.50 1.18
-6.10 1.67 1.08
-5.15 1.51 1.24
-1.89 -1.67 1.43
-2.20 -1.68 1.38
-2.01 -1.57 1.42
-1.94 -1.44 1.43
-2.09 -1.47 1.41
-1.88 -1.39 1.44
-1.79 -1.35 1.46
-2.01 -1.41 1.42
-2.12 -1.43 1.40
-2.16 -1.43 1.40
-2.26 -1.45 1.38
-2.19 -1.42 1.39
-2.17 -1.40 1.40
-2.27 -1.42 1.38
-2.35 -1.43 1.37
-2.17 -1.36 1.40
-2.31 -1.39 1.37
-1.99 -1.29 1.43
-2.10 -1.31 1.41
-2.07 -1.29 1.42
-2.03 -1.27 1.42
-2.08 -1.27 1.41
-2.35 -1.33 1.37
-2.12 -1.26 1.41
-2.06 -1.22 1.42
-1.95 -1.18 1.44
-2.00 -1.18 1.43
-2.10 -1.20 1.41
-2.03 -1.17 1.42
-1.80 -1.10 1.46
-3.47 -1.51 1.18
-2.02 -1.13 1.43
-2.02 -1.12 1.43
-1.95 -1.09 1.44
-3.02 -1.34 1.26
-3.28 -1.39 1.22
-3.44 -1.41 1.19
-1.46 -0.93 1.52
-1.86 -1.01 1.45
-2.06 -1.05 1.42
-1.99 -1.02 1.43
-2.16 -1.05 1.41
-1.72 -0.94 1.48
-1.52 -0.89 1.51
-1.51 -0.87 1.51
-1.72 -0.91 1.48
-1.50 -0.85 1.52
-1.78 -0.90 1.47
-1.36 -0.80 1.54
-3.54 -1.24 1.18
-3.54 -1.23 1.18
-1.27 -0.76 1.55
-3.30 -1.15 1.22
-3.57 -1.19 1.17
-1.71 -0.81 1.48
-3.51 -1.15 1.18
-1.47 -0.75 1.52
-3.50 -1.12 1.19
-3.48 -1.10 1.19
-3.34 -1.06 1.21
-3.46 -1.06 1.19
-3.44 -1.05 1.20
-3.40 -1.03 1.20
-3.58 -1.04 1.17
-3.75 -1.06 1.15
-3.62 -1.02 1.17
-3.28 -0.95 1.22
-3.84 -1.03 1.13
-3.62 -0.98 1.17
-5.18 -1.20 0.91
-3.65 -0.95 1.16
-3.72 -0.95 1.15
-5.41 -1.18 0.87
-5.27 -1.14 0.90
-5.55 -1.16 0.85
-5.86 -1.19 0.80
-6.03 -1.19 0.77
-6.22 -1.20 0.74
-6.23 -1.18 0.74
-6.19 -1.15 0.75
-4.82 -0.95 0.97
-4.57 -0.90 1.01
-4.60 -0.89 1.01
-4.64 -0.88 1.00
-4.57 -0.85 1.01
-4.49 -0.83 1.03
-4.60 -0.82 1.01
-4.48 -0.79 1.03
-4.49 -0.78 1.03
-4.36 -0.74 1.05
-4.50 -0.74 1.02
-4.52 -0.73 1.02
-4.56 -0.71 1.01
-4.52 -0.69 1.02
-4.56 -0.68 1.01
-4.46 -0.65 1.03
-4.70 -0.66 0.99
-4.38 -0.61 1.04
-4.58 -0.61 1.01
-4.13 -0.56 1.09
-4.14 -0.54 1.08
-3.64 -0.49 1.17
-3.78 -0.49 1.14
-3.95 -0.48 1.11
-3.93 -0.47 1.12
-3.96 -0.45 1.11
-4.09 -0.45 1.09
-3.85 -0.41 1.13
-3.65 -0.39 1.16
-3.96 -0.39 1.11
-4.04 -0.38 1.10
-5.35 -0.30 1.27
-5.43 -0.29 1.25
-5.57 -0.29 1.23
-5.45 -0.27 1.25
-5.28 -0.25 1.28
-5.16 -0.23 1.30
-5.15 -0.21 1.30
-5.31 -0.21 1.27
-5.24 -0.19 1.28
-5.27 -0.18 1.28
-5.28 -0.17 1.28
-5.27 -0.15 1.28
-5.23 -0.14 1.28
-5.11 -0.12 1.30
-5.22 -0.11 1.29
-5.17 -0.10 1.29
-5.19 -0.09 1.29
-5.22 -0.07 1.28
-5.32 -0.06 1.27
-5.14 -0.05 1.30
-5.35 -0.04 1.26
-5.18 -0.02 1.29
-5.18 -0.01 1.29
-3.71 -0.00 1.10
-3.63 0.01 1.11
-3.68 0.03 1.11
-4.86 0.04 1.30
-4.77 0.05 1.32
-4.77 0.06 1.32
-5.89 0.09 1.13
-5.78 0.10 1.15
-4.85 0.10 1.30
-4.84 0.11 1.31
-5.42 0.14 1.21
-9.68 0.27 0.47
-7.08 0.21 0.92
-7.33 0.24 0.88
-4.63 0.17 1.34
-4.70 0.18 1.33
-4.88 0.20 1.30
-9.52 0.40 0.50
-5.00 0.23 1.28
-5.02 0.24 1.27
-5.06 0.26 1.26
-5.16 0.27 1.25
-4.84 0.27 1.30
-5.06 0.29 1.26
-5.24 0.32 1.23
-5.27 0.33 1.23
-5.26 0.35 1.23
-5.18 0.35 1.24
-4.79 0.34 1.31
-8.76 0.63 0.62
-8.45 0.63 0.68
-8.67 0.67 0.64
-8.20 0.65 0.72
-4.97 0.42 1.27
-4.77 0.41 1.31
-4.59 0.41 1.34
-4.74 0.43 1.31
-4.63 0.44 1.33
-7.58 0.72 0.82
-7.65 0.74 0.81
-4.74 0.48 1.31
-4.82 0.50 1.30
-7.70 0.80 0.80
-4.81 0.52 1.30
-4.71 0.53 1.32
-4.69 0.54 1.32
-4.73 0.55 1.31
-4.73 0.56 1.31
-4.69 0.57 1.32
-4.78 0.59 1.30
-4.81 0.61 1.30
-4.77 0.62 1.30
-4.87 0.64 1.28
-4.75 0.64 1.30
-4.91 0.67 1.28
-4.81 0.67 1.29
-4.82 0.69 1.29
-4.90 0.71 1.28
-4.90 0.72 1.28
-4.92 0.74 1.27
-10.33 1.53 0.33
-5.04 0.78 1.25
-4.89 0.77 1.28
-5.05 0.81 1.25
-4.76 0.78 1.30
-4.67 0.78 1.31
-9.56 1.57 0.45
-5.25 0.89 1.21
-4.31 0.75 1.37
-4.71 0.83 1.30
-3.69 0.67 1.48
-9.11 1.61 0.53
-5.20 0.95 1.21
-9.11 1.66 0.53
-5.21 0.98 1.21
-5.32 1.02 1.19
-8.75 1.66 0.59
-8.68 1.67 0.60
-8.68 1.69 0.60
-5.81 1.24 1.10
-5.38 1.20 1.17
-4.25 0.97 1.37
-6.03 1.37 1.06
-6.24 1.43 1.02
-6.00 1.39 1.06
-5.88 1.38 1.08
-5.97 1.42 1.06
-6.03 1.45 1.05
-5.63 1.37 1.12
-5.50 1.36 1.14
-4.19 1.06 1.38
-5.43 1.37 1.16
-4.09 1.06 1.39
-5.51 1.42 1.14
-5.37 1.40 1.16
-5.32 1.40 1.17
-5.24 1.39 1.19
-4.02 1.10 1.40
-5.34 1.45 1.17
-5.20 1.44 1.19
-4.84 1.36 1.25
-4.69 1.34 1.28
-4.99 1.43 1.22
-4.68 1.36 1.28
-4.65 1.36 1.28
-1.76 -1.62 1.42
-2.00 -1.66 1.38
-2.08 -1.68 1.36
-2.12 -1.69 1.36
-2.07 -1.66 1.37
-2.17 -1.68 1.35
-2.16 -1.66 1.35
-2.10 -1.63 1.36
-2.16 -1.64 1.35
-2.21 -1.65 1.35
-2.13 -1.61 1.36
-2.26 -1.64 1.34
-2.10 -1.57 1.37
-2.19 -1.59 1.35
-1.83 -1.46 1.42
-1.92 -1.48 1.40
-2.15 -1.54 1.36
-2.13 -1.52 1.36
-1.99 -1.47 1.39
-2.07 -1.48 1.38
-2.05 -1.46 1.38
-2.00 -1.43 1.39
-2.00 -1.42 1.39
-2.02 -1.42 1.39
-2.12 -1.44 1.37
-1.97 -1.38 1.39
-2.03 -1.39 1.38
-2.16 -1.42 1.36
-2.11 -1.39 1.37
-2.16 -1.39 1.36
-2.12 -1.37 1.37
-2.12 -1.36 1.37
-2.14 -1.35 1.37
-2.13 -1.34 1.37
-2.09 -1.31 1.38
-2.17 -1.33 1.36
-2.10 -1.29 1.38
-2.14 -1.29 1.37
-2.13 -1.28 1.37
-2.09 -1.26 1.38
-1.86 -1.18 1.42
-1.92 -1.19 1.41
-1.92 -1.18 1.41
-1.92 -1.16 1.41
-1.95 -1.16 1.40
-1.99 -1.16 1.40
-1.93 -1.14 1.41
-1.69 -1.06 1.45
-1.80 -1.08 1.43
-1.79 -1.07 1.43
-1.56 -1.00 1.47
-1.78 -1.04 1.43
-2.12 -1.11 1.38
-1.78 -1.02 1.44
-1.75 -1.00 1.44
-1.86 -1.02 1.42
-1.57 -0.94 1.47
-1.89 -1.01 1.42
-1.58 -0.92 1.47
-1.65 -0.93 1.46
-1.75 -0.94 1.44
-1.56 -0.89 1.48
-1.81 -0.93 1.43
-1.56 -0.87 1.48
-1.74 -0.90 1.44
-1.33 -0.80 1.52
-3.24 -1.19 1.18
-1.78 -0.88 1.44
-3.35 -1.18 1.16
-1.53 -0.81 1.48
-1.36 -0.76 1.51
-1.33 -0.75 1.52
-1.27 -0.73 1.53
-1.33 -0.73 1.52
-1.44 -0.74 1.50
-1.59 -0.76 1.47
-3.31 -1.06 1.17
-3.26 -1.04 1.18
-3.31 -1.04 1.17
-3.25 -1.01 1.18
-3.41 -1.02 1.16
-1.78 -0.73 1.44
-3.24 -0.97 1.19
-3.20 -0.95 1.19
-3.20 -0.93 1.19
-3.32 -0.94 1.17
-3.48 -0.95 1.14
-3.46 -0.93 1.15
-3.46 -0.92 1.15
-1.63 -0.63 1.47
-3.49 -0.89 1.14
-5.49 -1.17 0.80
-3.54 -0.87 1.14
-5.83 -1.18 0.74
-5.89 -1.17 0.73
-3.60 -0.84 1.12
-3.70 -0.84 1.11
-4.72 -0.95 0.93
-4.33 -0.89 1.00
-4.45 -0.89 0.98
-4.30 -0.85 1.00
-4.39 -0.85 0.99
-4.29 -0.82 1.01
-4.34 -0.81 1.00
-4.35 -0.79 1.00
-4.35 -0.77 1.00
-4.38 -0.76 0.99
-4.43 -0.75 0.98
-4.40 -0.73 0.99
-4.44 -0.72 0.98
-4.36 -0.69 0.99
-3.71 -0.61 1.11
-4.42 -0.67 0.98
-4.42 -0.65 0.98
-4.69 -0.66 0.94
-4.00 -0.58 1.06
-3.61 -0.53 1.12
-3.52 -0.51 1.14
-3.52 -0.49 1.14
-3.52 -0.48 1.14
-3.52 -0.46 1.14
-3.57 -0.45 1.13
-3.70 -0.45 1.11
-3.82 -0.44 1.09
-3.89 -0.43 1.08
-3.87 -0.41 1.08
-4.05 -0.41 1.05
-3.66 -0.37 1.11
-3.86 -0.37 1.08
-4.05 -0.36 1.05
-4.11 -0.35 1.04
-4.15 -0.34 1.03
-4.08 -0.32 1.04
-4.15 -0.31 1.03
-4.14 -0.29 1.03
-4.04 -0.27 1.05
-4.06 -0.25 1.04
-4.10 -0.24 1.04
-3.99 -0.22 1.06
-3.85 -0.20 1.08
-3.88 -0.19 1.07
-3.96 -0.17 1.06
-3.85 -0.15 1.08
-3.86 -0.14 1.08
-3.85 -0.12 1.08
-3.84 -0.11 1.08
-3.85 -0.09 1.08
-3.68 -0.08 1.11
-3.85 -0.06 1.08
-3.82 -0.05 1.08
-3.63 -0.03 1.11
-3.73 -0.02 1.10
-5.23 0.00 1.20
-5.03 0.02 1.23
-6.05 0.03 1.05
-5.11 0.04 1.22
-7.14 0.08 0.85
-5.43 0.07 1.16
-6.63 0.10 0.94
-6.96 0.12 0.88
-6.39 0.13 0.99
-6.85 0.16 0.90
-6.60 0.17 0.95
-6.54 0.18 0.96
-6.84 0.21 0.90
-6.86 0.22 0.90
-7.09 0.25 0.86
-7.33 0.28 0.81
-8.48 0.34 0.60
-8.05 0.34 0.68
-8.11 0.36 0.67
-9.33 0.44 0.45
-9.07 0.45 0.50
-5.20 0.28 1.19
-5.24 0.29 1.19
-7.88 0.45 0.71
-5.03 0.31 1.22
-8.16 0.51 0.66
-8.02 0.52 0.68
-8.09 0.54 0.67
-8.11 0.56 0.67
-8.15 0.59 0.66
-8.05 0.60 0.67
-8.11 0.62 0.66
-7.66 0.61 0.74
-7.49 0.62 0.77
-7.60 0.64 0.75
-7.57 0.66 0.76
-7.47 0.67 0.78
-7.54 0.69 0.76
-7.61 0.72 0.75
-4.82 0.48 1.26
-4.87 0.49 1.25
-4.98 0.52 1.23
-4.76 0.51 1.26
-4.89 0.53 1.24
-4.89 0.55 1.24
-4.82 0.55 1.25
-4.74 0.55 1.27
-4.72 0.56 1.27
-4.72 0.58 1.27
-4.67 0.58 1.28
-4.83 0.61 1.25
-4.82 0.63 1.25
-4.83 0.64 1.25
-4.92 0.66 1.23
-4.90 0.67 1.23
-4.92 0.69 1.23
-4.88 0.70 1.24
-5.00 0.72 1.21
-4.98 0.74 1.22
-5.04 0.76 1.21
-5.02 0.77 1.21
-5.10 0.79 1.19
-5.03 0.79 1.21
-5.11 0.82 1.19
-5.10 0.83 1.19
-5.19 0.86 1.18
-5.15 0.87 1.18
-5.27 0.90 1.16
-5.26 0.91 1.16
-5.17 0.91 1.17
-5.23 0.93 1.16
-5.26 0.95 1.16
-5.32 0.98 1.15
-5.24 0.98 1.16
-5.50 1.04 1.11
-5.49 1.05 1.11
-5.63 1.09 1.09
-5.39 1.06 1.13
-5.52 1.10 1.10
-5.87 1.18 1.04
-5.94 1.21 1.03
-5.92 1.22 1.03
-6.05 1.26 1.00
-5.89 1.24 1.03
-6.03 1.29 1.01
-5.87 1.27 1.03
-6.25 1.37 0.96
-6.23 1.38 0.97
-5.92 1.33 1.02
-6.09 1.38 0.99
-6.00 1.38 1.01
-6.15 1.43 0.98
-5.91 1.39 1.02
-6.83 1.63 0.85
-6.03 1.46 1.00
-5.67 1.40 1.06
-5.83 1.45 1.03
-5.86 1.47 1.03
-5.80 1.47 1.04
-5.94 1.52 1.01
-6.18 1.62 0.96
-5.95 1.57 1.00
-5.76 1.54 1.04
-5.66 1.53 1.06
-5.58 1.53 1.07
-5.65 1.56 1.06
-5.50 1.54 1.08
-5.03 1.48 1.17
-5.11 1.52 1.15
-5.02 1.51 1.17
-5.16 1.56 1.14
-5.17 1.58 1.14
-5.05 1.56 1.16
-4.88 1.52 1.19
-4.71 1.49 1.22
-4.86 1.57 1.19
-4.98 1.62 1.17
-2.29 -1.58 1.29
-2.37 -1.59 1.28
-2.43 -1.60 1.27
-2.40 -1.57 1.27
-2.29 -1.51 1.29
-2.56 -1.58 1.25
-2.48 -1.54 1.26
-2.95 -1.67 1.17
-2.46 -1.51 1.27
-2.56 -1.53 1.25
-2.62 -1.53 1.24
-2.43 -1.45 1.27
-2.45 -1.44 1.27
-2.60 -1.48 1.24
-3.15 -1.62 1.14
-2.98 -1.56 1.17
-3.26 -1.61 1.12
-3.21 -1.58 1.13
-3.21 -1.57 1.13
-2.37 -1.32 1.29
-2.53 -1.36 1.26
-2.99 -1.47 1.17
-3.09 -1.46 1.16
-3.71 -1.61 1.04
-3.36 -1.49 1.11
-3.40 -1.49 1.10
-3.57 -1.52 1.07
-3.59 -1.50 1.07
-3.48 -1.45 1.09
-3.48 -1.43 1.09
-3.36 -1.39 1.11
-3.46 -1.40 1.09
-3.11 -1.30 1.16
-3.03 -1.27 1.17
-3.22 -1.30 1.14
-3.42 -1.33 1.10
-3.16 -1.26 1.15
-3.28 -1.27 1.13
-3.43 -1.29 1.10
-3.38 -1.26 1.11
-3.41 -1.26 1.10
-3.31 -1.22 1.12
-3.31 -1.21 1.12
-3.37 -1.20 1.11
-3.40 -1.20 1.11
-3.38 -1.18 1.11
-3.39 -1.16 1.11
-3.40 -1.15 1.11
-3.50 -1.16 1.09
-3.40 -1.12 1.11
-3.31 -1.09 1.12
-3.33 -1.08 1.12
-3.38 -1.08 1.11
-3.42 -1.07 1.10
-3.41 -1.05 1.11
-3.43 -1.04 1.10
-3.31 -1.01 1.12
-3.43 -1.01 1.10
-3.39 -0.99 1.11
-3.40 -0.98 1.11
-3.52 -0.99 1.09
-3.38 -0.95 1.11
-3.50 -0.95 1.09
-3.57 -0.95 1.08
-3.46 -0.92 1.10
-3.57 -0.92 1.08
-3.54 -0.90 1.08
-3.66 -0.91 1.06
-5.70 -1.18 0.69
-3.51 -0.85 1.09
-3.69 -0.87 1.06
-5.69 -1.12 0.69
-5.47 -1.08 0.73
-5.17 -1.02 0.79
-4.36 -0.89 0.94
-4.49 -0.89 0.91
-4.79 -0.91 0.86
-4.52 -0.86 0.91
