# .PCD v0.7 - Point Cloud Data file format
VERSION 0.7
FIELDS x y z
SIZE 4 4 4
TYPE F F F
COUNT 1 1 1
WIDTH 2872
HEIGHT 1
VIEWPOINT 0 0 0 1 0 0 0
POINTS 2872
DATA ASCII
-4.38 0.30 2.21
-9.12 -1.27 2.12
-8.76 -1.21 2.12
-9.05 -1.21 2.12
-8.87 -1.14 2.12
-8.92 -1.11 2.12
-8.86 -1.08 2.12
-8.91 -1.06 2.12
-9.16 -1.03 2.12
-8.77 -1.18 2.08
-8.70 -1.12 2.08
-8.83 -1.05 2.08
-3.23 0.00 2.14
-8.71 -1.42 2.05
-8.82 -1.40 2.05
-8.76 -1.26 2.05
-9.10 -1.27 2.05
-8.73 -1.20 2.05
-8.87 -1.19 2.05
-8.96 -1.17 2.05
-8.94 -1.15 2.05
-8.90 -1.11 2.05
-9.08 -1.10 2.05
-9.06 -1.07 2.05
-9.03 -1.04 2.05
-9.01 -1.01 2.05
-8.92 -0.98 2.05
-9.02 -0.96 2.05
-8.95 -0.93 2.05
-8.96 -0.87 2.05
-8.96 -0.82 2.05
-9.04 -0.80 2.04
-8.98 -0.77 2.04
-9.20 -0.67 2.04
-8.91 -1.55 1.99
-8.54 -1.42 1.99
-8.88 -0.84 1.98
-9.11 -0.61 1.98
-8.98 -1.61 1.95
-8.79 -1.53 1.95
-8.83 -1.51 1.95
-8.79 -1.48 1.95
-8.56 -1.42 1.96
-8.96 -0.65 1.94
-8.85 -0.62 1.95
-8.65 0.08 1.97
-9.05 -1.68 1.92
-9.10 -1.66 1.92
-8.90 -1.58 1.92
-8.71 -1.53 1.92
-8.68 -1.49 1.92
-8.84 -1.49 1.92
-8.74 -1.45 1.92
-8.88 -0.65 1.91
-9.06 -0.63 1.91
-9.05 -0.60 1.91
-8.97 -0.03 1.97
-8.80 0.00 1.88
-8.95 0.06 1.88
-8.97 -1.64 1.89
-8.76 -1.58 1.89
-8.83 -1.51 1.89
-9.02 -1.51 1.89
-8.86 -1.46 1.89
-8.71 -1.41 1.89
-8.88 -1.41 1.89
-8.95 -1.39 1.89
-8.58 -1.03 1.89
-9.05 -0.71 1.88
-9.07 -0.66 1.88
-9.04 -0.27 1.88
-8.97 -0.22 1.88
-9.02 -0.19 1.88
-8.80 -0.16 1.88
-8.95 0.02 1.91
-8.78 0.10 1.91
-13.10 1.69 1.77
-8.94 -1.67 1.85
-9.21 -1.68 1.84
-9.09 -1.63 1.84
-8.83 -1.54 1.85
-8.99 -1.51 1.84
-8.99 -1.48 1.84
-8.89 -1.42 1.85
-13.94 -1.61 1.70
-8.26 -1.00 1.86
-8.65 -0.77 1.85
-9.02 -0.66 1.84
-9.40 -0.48 1.90
-9.06 -0.25 1.91
-9.15 -0.23 1.90
-8.91 -0.20 1.91
-8.99 -0.18 1.91
-8.86 -0.16 1.91
-8.96 -0.14 1.91
-8.85 -0.11 1.91
-8.84 -0.07 1.91
-8.91 -0.05 1.91
-9.13 -0.03 1.90
-8.87 -0.00 1.91
-9.43 -1.57 1.75
-9.36 -1.53 1.75
-9.17 -1.48 1.76
-13.98 -1.49 1.58
-13.34 -0.61 1.60
-13.41 -0.53 1.60
-8.85 -0.13 1.85
-8.86 -0.11 1.85
-8.79 -0.09 1.85
-8.94 -0.07 1.85
-9.02 -0.05 1.84
-8.88 -0.00 1.85
-8.33 -0.00 1.74
-8.41 0.03 1.74
-8.57 0.13 1.73
-8.51 0.18 1.73
-8.45 -1.65 1.75
-9.07 -1.63 1.72
-9.27 -1.63 1.71
-9.20 -1.51 1.72
-13.97 -1.53 1.52
-14.27 -1.48 1.51
-13.84 -1.29 1.53
-8.97 -0.79 1.72
-13.03 -0.67 1.56
-13.25 -0.64 1.55
-13.31 -0.53 1.54
-8.63 -0.34 1.73
-13.04 -0.45 1.55
-13.14 -0.41 1.55
-13.14 -0.37 1.55
-8.49 -0.21 1.74
-8.34 -0.10 1.74
-8.34 -0.08 1.74
-8.54 -0.05 1.73
-8.42 -0.03 1.74
-8.74 0.04 1.79
-8.71 0.14 1.79
-8.57 0.16 1.79
-8.91 0.19 1.78
-8.88 0.21 1.78
-8.71 0.25 1.78
-8.47 0.33 1.79
-8.53 0.35 1.79
-8.59 0.37 1.79
-13.05 1.26 1.58
-9.02 -1.63 1.68
-13.53 -1.61 1.48
-13.86 -1.60 1.46
-13.79 -1.56 1.46
-14.16 -1.51 1.45
-13.32 -0.87 1.48
-13.17 -0.64 1.49
-8.63 -0.28 1.79
-8.84 -0.26 1.78
-8.89 -0.24 1.78
-8.84 -0.22 1.78
-8.97 -0.20 1.78
-8.82 -0.18 1.78
-8.85 -0.16 1.78
-8.73 -0.13 1.79
-8.79 -0.11 1.78
-8.81 -0.09 1.78
-8.28 0.02 1.66
-8.46 0.10 1.65
-8.48 0.13 1.65
-8.47 0.21 1.65
-8.37 0.23 1.65
-13.95 -1.61 1.39
-13.89 -1.56 1.40
-14.01 -1.54 1.39
-13.27 -0.53 1.42
-8.50 -0.34 1.65
-13.25 -0.45 1.42
-13.20 -0.41 1.42
-13.09 -0.37 1.43
-13.00 -0.33 1.43
-8.40 -0.10 1.65
-8.59 0.02 1.72
-8.44 0.04 1.72
-8.46 0.06 1.72
-8.34 0.08 1.73
-8.52 0.10 1.72
-8.53 0.12 1.72
-8.42 0.14 1.72
-8.33 0.16 1.73
-8.35 0.22 1.73
-8.57 0.25 1.72
-8.55 0.27 1.72
-8.56 0.29 1.72
-8.46 -1.65 1.61
-8.54 -1.64 1.60
-8.38 -1.59 1.61
-8.21 -1.54 1.62
-9.27 -1.66 1.57
-8.40 -1.51 1.61
-8.30 -1.47 1.62
-8.22 -1.41 1.62
-8.10 -1.37 1.63
-8.29 -1.37 1.62
-8.14 -1.22 1.62
-8.32 -1.22 1.61
-8.24 -1.16 1.62
-8.15 -1.07 1.62
-8.05 -1.03 1.63
-13.67 -1.55 1.33
-13.70 -1.51 1.33
-7.95 -0.87 1.63
-13.08 -1.23 1.36
-8.87 -0.48 1.71
-8.85 -0.46 1.71
-8.85 -0.44 1.71
-8.83 -0.41 1.71
-8.82 -0.39 1.71
-8.76 -0.37 1.71
-8.66 -0.34 1.72
-8.66 -0.32 1.72
-8.59 -0.30 1.72
-8.57 -0.28 1.72
-8.53 -0.26 1.72
-8.59 -0.24 1.72
-8.67 -0.22 1.71
-8.59 -0.19 1.72
-8.63 -0.17 1.72
-8.57 -0.15 1.72
-8.77 -0.13 1.71
-8.75 -0.09 1.71
-8.59 -0.07 1.72
-8.76 -0.05 1.71
-8.44 0.08 1.69
-8.54 0.10 1.68
-8.49 0.12 1.69
-8.39 0.06 1.65
-8.24 0.07 1.66
-8.46 0.10 1.65
-8.52 0.12 1.64
-8.56 0.14 1.64
-8.52 0.16 1.64
-8.57 0.18 1.64
-8.59 0.20 1.64
-8.52 0.22 1.64
-8.49 0.24 1.64
-8.48 0.28 1.64
-8.46 -1.63 1.51
-8.23 -1.57 1.53
-8.23 -1.54 1.53
-8.42 -1.46 1.51
-8.83 -1.33 1.49
-8.20 -1.23 1.53
-6.48 -0.99 1.63
-8.08 -1.14 1.54
-8.05 -1.11 1.54
-13.49 -1.61 1.20
-7.90 -1.02 1.55
-13.13 -1.49 1.22
-7.79 -0.93 1.55
-7.48 -0.67 1.57
-12.89 -0.59 1.23
-13.13 -0.56 1.22
-13.03 -0.49 1.23
-8.53 -0.07 1.65
-8.53 -0.05 1.65
-8.46 -0.03 1.65
-8.27 0.02 1.46
-8.11 0.05 1.47
-7.82 0.22 1.49
-8.34 0.30 1.61
-8.45 -1.57 1.46
-7.29 -0.63 1.53
-7.44 -0.62 1.52
-7.19 -0.58 1.54
-7.28 -0.56 1.53
-7.74 -0.51 1.50
-12.43 -0.68 1.18
-6.84 -0.36 1.56
-7.79 -0.37 1.49
-7.46 -0.33 1.52
-7.20 -0.30 1.53
-8.15 -0.31 1.47
-8.29 -0.29 1.46
-8.38 -0.24 1.45
-8.21 -0.21 1.46
-7.98 -0.18 1.48
-8.01 -0.15 1.48
-8.40 0.01 1.56
-8.32 0.03 1.57
-8.36 0.05 1.56
-8.35 0.08 1.57
-8.32 0.10 1.57
-8.37 0.12 1.56
-8.32 0.14 1.57
-8.16 0.17 1.58
-8.30 0.20 1.57
-14.05 0.36 1.15
-8.08 0.23 1.58
-8.12 0.25 1.58
-13.94 0.46 1.16
-7.84 0.36 1.60
-7.46 0.36 1.63
-7.01 0.36 1.66
-7.30 0.39 1.64
-9.44 0.57 1.48
-6.46 0.46 1.70
-6.95 0.51 1.66
-6.59 0.50 1.69
-7.22 0.65 1.64
-8.25 -1.62 1.41
-4.44 -1.03 1.69
-8.11 -1.53 1.42
-8.32 -1.53 1.41
-8.51 -1.50 1.39
-4.56 -0.95 1.68
-8.16 -1.40 1.42
-8.16 -1.38 1.42
-8.81 -1.38 1.37
-8.31 -1.27 1.41
-8.29 -1.24 1.41
-8.17 -1.20 1.42
-8.16 -1.17 1.42
-8.04 -1.11 1.43
-7.97 -1.08 1.43
-13.63 -1.58 1.03
-13.61 -1.54 1.03
-7.35 -0.92 1.48
-7.05 -0.87 1.50
-6.50 -0.78 1.54
-7.75 -0.86 1.45
-1.96 -0.35 1.86
-7.28 -0.75 1.48
-7.98 -0.78 1.43
-7.17 -0.69 1.49
-3.35 -0.39 1.76
-7.36 -0.64 1.47
-7.36 -0.59 1.47
-7.34 -0.57 1.47
-3.19 -0.31 1.77
-7.39 -0.52 1.47
-6.82 -0.45 1.51
-2.85 -0.24 1.80
-6.98 -0.39 1.50
-7.15 -0.37 1.49
-7.25 -0.35 1.48
-8.48 -0.28 1.56
-8.46 -0.25 1.56
-8.54 -0.24 1.55
-8.43 -0.21 1.56
-8.50 -0.19 1.56
-8.56 -0.17 1.55
-8.59 -0.15 1.55
-8.62 -0.13 1.55
-8.47 -0.11 1.56
-8.39 -0.09 1.56
-8.35 -0.07 1.57
-8.39 -0.05 1.56
-8.55 -0.03 1.55
-8.35 -0.01 1.57
-12.79 1.67 1.16
-8.08 -1.57 1.37
-8.29 -1.39 1.36
-8.30 -1.21 1.36
-8.18 -1.17 1.36
-8.02 -1.10 1.38
-7.83 -0.99 1.39
-7.69 -0.80 1.40
-7.73 -0.78 1.40
-7.47 -0.74 1.42
-7.09 -0.69 1.45
-7.33 -0.66 1.43
-7.55 -0.65 1.41
-7.14 -0.55 1.44
-7.18 -0.53 1.44
-7.09 -0.50 1.45
-7.00 -0.48 1.45
-7.09 -0.46 1.45
-7.25 -0.44 1.43
-7.28 -0.42 1.43
-7.16 -0.39 1.44
-7.43 -0.33 1.42
-7.54 -0.31 1.41
-7.06 -0.28 1.45
-7.78 -0.15 1.39
-7.70 -0.12 1.40
-7.93 -0.03 1.38
-8.31 0.01 1.48
-8.18 0.03 1.49
-8.26 0.05 1.48
-8.18 0.07 1.49
-7.96 0.19 1.50
-7.63 0.24 1.53
-7.50 0.31 1.54
-6.73 0.29 1.60
-7.17 0.33 1.57
-6.71 0.32 1.60
-6.61 0.35 1.61
-6.66 0.37 1.61
-6.94 0.40 1.58
-6.78 0.41 1.60
-6.78 0.43 1.60
-6.92 0.46 1.59
-6.81 0.47 1.59
-6.93 0.49 1.58
-6.89 0.50 1.59
-6.46 0.49 1.62
-9.78 0.76 1.35
-6.63 0.54 1.61
-6.42 0.54 1.62
-9.66 0.82 1.35
-12.93 1.69 1.07
-12.51 1.67 1.11
-6.27 0.97 1.63
-6.39 1.12 1.61
-5.91 1.16 1.65
-6.05 1.31 1.64
-6.27 -1.49 1.46
-4.40 -1.13 1.61
-6.19 -1.40 1.46
-4.81 -1.16 1.58
-6.16 -1.35 1.47
-7.89 -1.60 1.32
-4.65 -1.08 1.59
-4.37 -0.99 1.62
-4.50 -0.99 1.60
-4.29 -0.94 1.62
-8.11 -1.45 1.31
-6.12 -1.16 1.47
-4.59 -0.93 1.60
-8.12 -1.38 1.31
-8.33 -1.38 1.29
-4.50 -0.87 1.60
-7.79 -1.26 1.33
-8.26 -1.29 1.29
-8.19 -1.23 1.30
-7.88 -1.17 1.32
-7.21 -1.05 1.38
-7.23 -1.03 1.38
-6.85 -0.96 1.41
-8.34 -1.09 1.29
-7.60 -0.99 1.35
-6.46 -0.86 1.44
-7.33 -0.92 1.37
-6.58 -0.83 1.43
-7.29 -0.84 1.37
-7.01 -0.80 1.40
-6.94 -0.77 1.40
-6.94 -0.75 1.40
-7.88 -0.80 1.32
-7.48 -0.74 1.36
-3.28 -0.42 1.70
-2.93 -0.38 1.73
-7.01 -0.64 1.40
-2.72 -0.34 1.75
-7.32 -0.61 1.37
-7.40 -0.59 1.36
-7.43 -0.57 1.36
-8.53 -0.46 1.46
-8.41 -0.44 1.47
-8.32 -0.41 1.48
-8.37 -0.40 1.47
-8.44 -0.38 1.47
-8.52 -0.36 1.46
-8.31 -0.33 1.48
-8.25 -0.31 1.48
-8.38 -0.29 1.47
-8.36 -0.27 1.47
-8.32 -0.25 1.48
-8.32 -0.23 1.48
-8.38 -0.21 1.47
-8.39 -0.19 1.47
-8.35 -0.17 1.48
-8.32 -0.15 1.48
-8.43 -0.13 1.47
-8.19 -0.11 1.49
-8.22 -0.09 1.49
-8.23 -0.07 1.48
-8.22 -0.05 1.48
-8.25 -0.03 1.48
-8.31 -0.01 1.48
-2.90 0.00 1.70
-10.99 0.07 1.20
-11.03 0.13 1.19
-7.38 0.21 1.51
-6.88 0.42 1.55
-6.81 0.46 1.56
-6.60 0.47 1.57
-6.57 0.48 1.58
-9.71 0.73 1.30
-9.88 0.76 1.28
-9.87 0.79 1.28
-9.70 0.80 1.30
-9.69 0.82 1.30
-9.85 0.96 1.28
-13.19 1.66 0.98
-12.74 1.64 1.02
-6.50 -1.46 1.39
-6.31 -1.39 1.41
-7.84 -1.36 1.27
-7.44 -1.12 1.31
-7.05 -1.03 1.34
-7.01 -1.00 1.35
-7.79 -1.03 1.28
-7.82 -0.99 1.27
-7.71 -0.90 1.28
-7.15 -0.74 1.33
-7.46 -0.74 1.31
-7.56 -0.70 1.30
-7.44 -0.67 1.31
-7.57 -0.63 1.30
-7.36 -0.59 1.31
-7.20 -0.56 1.33
-7.14 -0.53 1.33
-7.49 -0.50 1.30
-7.27 -0.47 1.32
-2.85 -0.23 1.71
-2.82 -0.20 1.71
-7.06 -0.32 1.34
-3.21 -0.18 1.68
-6.95 -0.27 1.35
-6.87 -0.23 1.35
-2.87 -0.06 1.71
-2.85 -0.03 1.71
-8.05 0.01 1.40
-7.85 0.03 1.42
-7.84 0.07 1.42
-7.68 0.09 1.44
-8.01 0.11 1.41
-11.23 0.18 1.10
-7.60 0.14 1.45
-4.23 0.09 1.76
-11.09 0.31 1.12
-7.05 0.24 1.49
-11.16 0.40 1.11
-7.12 0.29 1.49
-6.75 0.29 1.52
-6.77 0.33 1.52
-6.82 0.36 1.51
-6.64 0.37 1.53
-6.42 0.37 1.55
-7.15 0.43 1.48
-7.25 0.46 1.47
-6.91 0.47 1.50
-6.99 0.49 1.50
-6.59 0.48 1.53
-6.75 0.51 1.52
-6.80 0.53 1.51
-7.08 0.57 1.49
-6.78 0.56 1.51
-7.02 0.62 1.49
-9.99 0.89 1.21
-9.83 0.93 1.22
-9.95 0.96 1.21
-10.27 1.10 1.18
-10.50 1.22 1.16
-12.99 1.63 0.92
-12.89 1.66 0.92
-4.34 -1.16 1.54
-4.50 -1.17 1.52
-6.35 -1.46 1.35
-6.20 -1.42 1.36
-6.30 -1.41 1.36
-6.49 -1.42 1.34
-6.21 -1.36 1.36
-4.57 -1.08 1.52
-7.70 -1.49 1.22
-7.37 -1.42 1.25
-4.86 -1.00 1.49
-7.99 -1.31 1.20
-7.85 -1.26 1.21
-8.00 -1.26 1.20
-8.06 -1.24 1.19
-7.78 -1.18 1.22
-6.85 -1.05 1.30
-6.77 -1.02 1.31
-7.07 -1.03 1.28
-6.90 -0.99 1.30
-6.78 -0.96 1.31
-7.10 -0.97 1.28
-6.64 -0.90 1.32
-7.78 -0.99 1.22
-7.44 -0.90 1.25
-7.49 -0.89 1.24
-7.36 -0.85 1.26
-6.96 -0.79 1.29
-7.40 -0.81 1.25
-7.35 -0.78 1.26
-7.44 -0.76 1.25
-7.20 -0.72 1.27
-7.35 -0.71 1.26
-7.14 -0.67 1.27
-7.13 -0.65 1.28
-7.21 -0.63 1.27
-7.25 -0.61 1.26
-7.36 -0.59 1.25
-7.27 -0.56 1.26
-7.42 -0.55 1.25
-7.11 -0.51 1.28
-7.07 -0.48 1.28
-3.79 -0.30 1.59
-7.44 -0.45 1.25
-7.36 -0.43 1.25
-2.90 -0.22 1.67
-3.03 -0.21 1.66
-3.18 -0.20 1.65
-3.28 -0.19 1.64
-6.83 -0.29 1.30
-2.60 -0.15 1.70
-2.88 -0.14 1.67
-2.93 -0.13 1.67
-7.12 -0.21 1.27
-3.01 -0.11 1.66
-2.93 -0.09 1.67
-8.05 -0.09 1.41
-8.04 -0.07 1.41
-8.01 -0.05 1.41
-8.00 -0.03 1.41
-8.20 -0.01 1.39
-2.85 0.00 1.64
-2.93 0.01 1.63
-2.78 0.03 1.65
-7.88 0.07 1.14
-2.58 0.05 1.67
-10.37 0.18 0.89
-7.75 0.17 1.15
-7.12 0.18 1.45
-7.45 0.21 1.41
-7.01 0.23 1.46
-11.58 0.41 1.00
-11.83 0.45 0.97
-13.31 0.63 0.82
-7.12 0.40 1.44
-6.73 0.39 1.48
-6.93 0.42 1.46
-7.08 0.45 1.45
-6.62 0.43 1.49
-6.96 0.47 1.46
-6.49 0.46 1.50
-6.61 0.48 1.49
-6.80 0.51 1.47
-9.71 0.75 1.18
-6.84 0.55 1.47
-6.90 0.57 1.46
-6.73 0.57 1.48
-9.79 0.85 1.17
-9.62 0.86 1.19
-9.99 0.92 1.15
-9.87 0.93 1.16
-10.14 0.98 1.13
-10.37 1.08 1.11
-10.42 1.11 1.10
-10.19 1.11 1.13
-10.24 1.14 1.12
-10.39 1.18 1.10
-10.35 1.21 1.11
-10.52 1.25 1.09
-10.56 1.28 1.08
-10.45 1.29 1.09
-12.89 1.62 0.85
-12.74 1.63 0.86
-12.01 1.66 0.93
-10.52 1.56 1.08
-1.03 -1.20 1.83
-4.40 -1.30 1.49
-6.55 -1.63 1.28
-6.35 -1.51 1.30
-4.39 -1.15 1.49
-6.28 -1.45 1.30
-6.45 -1.46 1.29
-7.74 -1.64 1.16
-4.45 -1.10 1.49
-6.13 -1.34 1.32
-4.57 -1.08 1.48
-4.47 -1.05 1.49
-4.72 -1.07 1.46
-5.60 -1.18 1.37
-4.98 -1.07 1.44
-7.79 -1.45 1.15
-5.35 -1.09 1.40
-7.74 -1.35 1.16
-7.82 -1.33 1.15
-7.97 -1.33 1.14
-7.89 -1.29 1.14
-7.98 -1.28 1.14
-7.90 -1.24 1.14
-7.71 -1.20 1.16
-1.93 -0.51 1.74
-7.61 -1.14 1.17
-6.91 -1.04 1.24
-6.64 -0.98 1.27
-6.75 -0.97 1.26
-7.62 -1.04 1.17
-7.53 -1.01 1.18
-7.53 -0.98 1.18
-7.36 -0.94 1.20
-7.83 -0.96 1.15
-2.68 -0.47 1.67
-6.52 -0.73 1.28
-7.32 -0.73 1.20
-7.34 -0.71 1.20
-7.24 -0.68 1.21
-7.15 -0.65 1.22
-7.32 -0.64 1.20
-7.29 -0.61 1.20
-6.48 -0.54 1.28
-2.75 -0.30 1.66
-2.74 -0.29 1.66
-2.95 -0.29 1.64
-3.13 -0.28 1.62
-2.83 -0.25 1.65
-7.28 -0.45 1.20
-3.18 -0.24 1.61
-3.25 -0.23 1.61
-3.00 -0.21 1.63
-3.11 -0.20 1.62
-3.05 -0.19 1.63
-6.56 -0.28 1.27
-2.83 -0.15 1.65
-2.83 -0.14 1.65
-2.53 -0.12 1.68
-2.77 -0.11 1.65
-2.62 -0.10 1.67
-3.01 -0.09 1.63
-2.97 -0.08 1.63
-2.79 -0.06 1.65
-2.95 -0.05 1.63
-3.17 -0.04 1.61
-2.81 -0.03 1.65
-2.81 -0.01 1.65
-7.95 0.01 1.31
-7.76 0.03 1.33
-7.60 0.05 1.35
-10.76 0.09 1.01
-7.62 0.09 1.34
-7.46 0.10 1.36
-4.66 0.08 1.66
-4.46 0.08 1.68
-7.27 0.15 1.38
-7.26 0.17 1.38
-7.12 0.18 1.40
-7.24 0.21 1.38
-11.31 0.35 0.95
-7.04 0.23 1.40
-11.45 0.41 0.93
-6.94 0.27 1.41
-7.35 0.30 1.37
-7.04 0.32 1.40
-6.88 0.33 1.42
-6.81 0.35 1.43
-6.89 0.37 1.42
-7.15 0.40 1.39
-7.27 0.42 1.38
-6.73 0.41 1.43
-6.85 0.43 1.42
-6.72 0.44 1.43
-6.56 0.45 1.45
-6.54 0.46 1.45
-6.50 0.48 1.46
-6.55 0.50 1.45
-6.73 0.53 1.43
-6.71 0.54 1.43
-6.96 0.58 1.41
-6.74 0.58 1.43
-6.77 0.60 1.43
-6.99 0.63 1.40
-6.69 0.62 1.43
-6.56 0.63 1.45
-9.87 0.98 1.09
-10.03 1.02 1.07
-10.27 1.22 1.04
-10.29 1.30 1.04
-4.85 -1.65 1.39
-4.28 -1.35 1.46
-4.36 -1.35 1.45
-4.60 -1.38 1.42
-6.26 -1.64 1.25
-6.40 -1.65 1.23
-6.22 -1.59 1.25
-6.23 -1.57 1.25
-6.38 -1.58 1.23
-6.34 -1.55 1.24
-6.45 -1.55 1.23
-6.07 -1.44 1.27
-5.96 -1.40 1.28
-6.00 -1.39 1.27
-5.86 -1.35 1.29
-7.58 -1.60 1.11
-5.83 -1.30 1.29
-4.83 -1.13 1.40
-4.63 -1.08 1.42
-4.64 -1.06 1.42
-5.59 -1.18 1.32
-5.64 -1.17 1.31
-5.29 -1.08 1.35
-5.50 -1.09 1.33
-4.52 -0.94 1.43
-7.73 -1.35 1.09
-2.37 -0.62 1.66
-7.09 -1.20 1.16
-6.96 -1.16 1.17
-7.02 -1.14 1.17
-6.82 -1.10 1.19
-6.65 -1.05 1.21
-6.71 -1.04 1.20
-2.18 -0.52 1.68
-6.42 -0.96 1.23
-7.00 -1.00 1.17
-6.87 -0.97 1.18
-7.59 -1.02 1.11
-7.38 -0.97 1.13
-7.41 -0.95 1.13
-3.96 -0.60 1.49
-2.94 -0.50 1.60
-4.22 -0.60 1.46
-3.49 -0.52 1.54
-3.55 -0.51 1.54
-3.73 -0.51 1.52
-3.92 -0.51 1.50
-4.12 -0.51 1.48
-4.07 -0.49 1.48
-3.88 -0.46 1.50
-5.68 -0.57 1.31
-3.42 -0.40 1.55
-3.25 -0.37 1.57
-3.73 -0.39 1.52
-3.22 -0.34 1.57
-3.43 -0.34 1.55
-3.09 -0.31 1.58
-3.08 -0.29 1.59
-3.08 -0.28 1.59
-3.27 -0.28 1.56
-3.02 -0.25 1.59
-2.92 -0.23 1.60
-2.99 -0.22 1.59
-3.27 -0.22 1.56
-8.15 -0.29 1.29
-8.10 -0.27 1.30
-8.14 -0.25 1.29
-8.24 -0.23 1.28
-8.14 -0.21 1.29
-8.25 -0.19 1.28
-8.08 -0.17 1.30
-8.18 -0.15 1.29
-8.19 -0.13 1.29
-8.04 -0.11 1.30
-8.13 -0.09 1.29
-8.05 -0.07 1.30
-10.08 0.08 0.75
-8.38 0.20 0.94
-8.77 0.23 0.90
-8.57 0.31 0.92
-9.20 0.49 0.85
-9.94 0.74 1.02
-9.88 0.76 1.03
-10.14 0.81 1.00
-9.49 0.85 1.07
-10.33 1.30 0.97
-6.39 -1.66 1.18
-6.03 -1.37 1.22
-6.08 -1.35 1.21
-1.64 -0.57 1.72
-1.72 -0.55 1.71
-6.96 -1.13 1.11
-6.82 -1.09 1.13
-6.70 -1.06 1.14
-6.83 -1.05 1.13
-7.55 -1.06 1.05
-7.61 -0.99 1.04
-7.53 -0.96 1.05
-7.48 -0.88 1.05
-7.33 -0.80 1.07
-7.31 -0.78 1.07
-7.41 -0.76 1.06
-7.51 -0.74 1.05
-7.48 -0.72 1.05
-2.05 -0.17 1.67
-9.24 -0.06 0.85
-9.27 -0.04 0.85
-10.58 0.02 0.89
-10.63 0.04 0.88
-10.82 0.09 0.86
-11.01 0.12 0.83
-10.91 0.15 0.84
-11.12 0.18 0.82
-11.19 0.21 0.81
-11.41 0.24 0.78
-11.58 0.27 0.76
-11.66 0.30 0.75
-11.29 0.35 0.80
-11.16 0.37 0.81
-13.72 0.55 0.50
-9.00 0.43 1.07
-9.04 0.48 1.06
-8.99 0.56 1.07
-9.55 0.62 1.00
-9.94 0.69 0.95
-9.97 0.75 0.95
-9.77 0.75 0.97
-9.90 0.79 0.95
-9.87 0.81 0.96
-10.06 0.85 0.93
-10.06 0.88 0.93
-6.89 0.71 1.31
-1.81 -0.64 1.66
-6.68 -1.19 1.08
-6.33 -1.12 1.12
-6.32 -1.08 1.12
-1.71 -0.49 1.68
-7.37 -1.14 1.00
-6.63 -1.03 1.09
-6.55 -1.00 1.09
-6.87 -1.01 1.06
-7.29 -1.04 1.01
-6.69 -0.95 1.08
-7.80 -0.99 0.94
-7.01 -0.89 1.04
-7.28 -0.89 1.01
-7.41 -0.81 0.99
-7.53 -0.72 0.98
-2.03 -0.30 1.63
-11.41 -0.62 0.79
-7.62 -0.40 1.24
-11.57 -0.57 0.77
-8.13 -0.27 1.18
-7.99 -0.24 1.20
-8.05 -0.23 1.19
-8.06 -0.21 1.19
-8.41 -0.17 1.15
-10.78 -0.12 0.86
-10.74 -0.09 0.87
-10.63 -0.06 0.88
-10.73 -0.04 0.87
-10.63 -0.01 0.88
-2.99 -0.00 1.48
-2.71 0.01 1.52
-4.60 0.03 1.57
-10.60 0.09 0.81
-10.59 0.12 0.81
-10.77 0.15 0.79
-6.93 0.11 1.27
-10.77 0.20 0.79
-10.64 0.22 0.80
-10.74 0.25 0.79
-10.88 0.28 0.77
-10.66 0.30 0.80
-10.33 0.32 0.84
-10.32 0.34 0.84
-9.13 0.32 0.99
-9.33 0.35 0.97
-9.22 0.37 0.98
-9.24 0.40 0.98
-9.17 0.42 0.99
-9.18 0.44 0.98
-9.14 0.46 0.99
-7.00 0.37 1.26
-9.02 0.50 1.00
-9.22 0.53 0.98
-6.77 0.41 1.29
-6.75 0.42 1.29
-6.62 0.43 1.31
-6.79 0.46 1.29
-6.45 0.45 1.33
-6.54 0.48 1.32
-6.73 0.51 1.29
-6.65 0.52 1.30
-9.95 0.79 0.88
-9.86 0.81 0.89
-9.89 0.83 0.89
-9.87 0.86 0.89
-10.12 0.90 0.86
-10.21 0.94 0.84
-10.20 0.96 0.85
-14.71 1.41 0.27
-10.16 1.01 0.85
-10.13 1.03 0.85
-10.26 1.07 0.84
-14.36 1.52 0.31
-14.38 1.56 0.31
-13.83 1.57 0.38
-13.87 1.60 0.37
-10.14 1.28 0.85
-7.40 1.04 1.19
-7.23 1.03 1.22
-7.16 1.04 1.22
-6.31 -1.69 1.06
-6.42 -1.67 1.05
-6.09 -1.55 1.09
-6.08 -1.52 1.09
-6.14 -1.49 1.08
-6.08 -1.46 1.09
-1.88 -0.73 1.63
-1.88 -0.72 1.63
-1.99 -0.73 1.61
-1.93 -0.71 1.62
-1.99 -0.71 1.61
-1.95 -0.69 1.62
-2.02 -0.69 1.61
-1.92 -0.67 1.62
-1.94 -0.66 1.62
-1.96 -0.65 1.62
-2.03 -0.65 1.61
-4.76 -1.03 1.26
-6.41 -1.24 1.05
-1.98 -0.61 1.62
-1.79 -0.57 1.64
-2.10 -0.60 1.60
-6.19 -1.10 1.08
-6.21 -1.09 1.08
-6.16 -1.06 1.08
-6.40 -1.07 1.05
-6.46 -1.05 1.05
-6.55 -1.04 1.03
-6.55 -1.02 1.03
-6.51 -0.99 1.04
-7.06 -1.03 0.97
-7.04 -1.01 0.97
-2.09 -0.47 1.60
-5.55 -0.81 1.16
-2.05 -0.45 1.60
-4.00 -0.62 1.36
-4.05 -0.57 1.35
-3.88 -0.54 1.37
-4.66 -0.58 1.27
-4.90 -0.59 1.24
-4.83 -0.56 1.25
-4.71 -0.54 1.27
-4.79 -0.52 1.26
-4.45 -0.48 1.30
-4.57 -0.47 1.28
-4.88 -0.48 1.25
-4.97 -0.47 1.23
-3.53 -0.36 1.42
-3.26 -0.33 1.45
-3.37 -0.32 1.44
-3.27 -0.31 1.45
-5.75 -0.42 1.13
-3.28 -0.28 1.45
-3.26 -0.26 1.45
-5.71 -0.36 1.14
-2.90 -0.22 1.49
-3.45 -0.23 1.42
-3.42 -0.21 1.43
-2.93 -0.18 1.49
-2.93 -0.17 1.49
-2.87 -0.16 1.50
-2.93 -0.14 1.49
-2.80 -0.13 1.51
-2.85 -0.12 1.50
-2.66 -0.10 1.52
-2.73 -0.09 1.51
-2.62 -0.07 1.53
-2.70 -0.06 1.52
-2.59 -0.05 1.53
-2.91 -0.04 1.49
-2.97 -0.03 1.48
-2.58 -0.01 1.53
-10.26 0.01 0.78
-10.38 0.04 0.76
-10.22 0.06 0.78
-10.07 0.09 0.80
-6.97 0.08 1.22
-9.82 0.13 0.84
-10.22 0.16 0.78
-9.67 0.18 0.85
-7.18 0.15 1.19
-7.00 0.16 1.21
-9.03 0.23 0.94
-6.86 0.19 1.23
-6.96 0.21 1.22
-8.92 0.29 0.95
-9.13 0.32 0.92
-9.18 0.35 0.92
-9.24 0.37 0.91
-5.62 0.24 1.39
-9.16 0.41 0.92
-6.76 0.32 1.24
-6.99 0.35 1.21
-9.27 0.49 0.90
-6.86 0.38 1.23
-6.81 0.39 1.23
-6.67 0.40 1.25
-6.60 0.41 1.26
-6.73 0.44 1.24
-6.58 0.45 1.26
-6.53 0.46 1.27
-6.45 0.47 1.28
-6.57 0.50 1.26
-6.43 0.50 1.28
-6.73 0.54 1.24
-10.03 0.82 0.79
-6.55 0.56 1.26
-6.90 0.61 1.21
-10.08 0.90 0.79
-10.07 0.92 0.79
-10.17 0.96 0.77
-6.51 0.64 1.27
-10.05 1.00 0.79
-5.81 0.60 1.36
-10.38 1.18 0.74
-6.84 0.82 1.22
-1.48 -1.12 1.64
-6.17 -1.65 1.01
-6.20 -1.63 1.01
-6.41 -1.65 0.98
-5.99 -1.55 1.04
-6.24 -1.55 1.01
-2.08 -0.80 1.57
-2.06 -0.79 1.57
-2.09 -0.78 1.57
-2.05 -0.76 1.57
-2.20 -0.78 1.55
-2.00 -0.73 1.58
-1.91 -0.71 1.59
-2.10 -0.73 1.56
-2.09 -0.71 1.57
-1.98 -0.69 1.58
-1.97 -0.67 1.58
-5.87 -1.25 1.06
-5.93 -1.23 1.05
-6.09 -1.24 1.03
-2.11 -0.65 1.56
-1.94 -0.62 1.59
-6.00 -1.16 1.04
-2.28 -0.64 1.54
-2.05 -0.60 1.57
-6.07 -1.11 1.03
-5.93 -1.07 1.05
-5.81 -1.04 1.07
-2.25 -0.58 1.55
-6.31 -1.06 1.00
-6.43 -1.05 0.98
-2.26 -0.55 1.54
-6.16 -0.98 1.02
-2.20 -0.52 1.55
-2.40 -0.53 1.52
-2.39 -0.52 1.53
-2.35 -0.50 1.53
-2.17 -0.47 1.55
-2.43 -0.48 1.52
-5.74 -0.79 1.08
-5.55 -0.75 1.10
-5.82 -0.76 1.07
-5.54 -0.71 1.10
-5.14 -0.66 1.16
-6.71 -0.78 0.95
-5.60 -0.66 1.09
-3.90 -0.51 1.32
-5.64 -0.63 1.09
-5.44 -0.59 1.12
-5.34 -0.57 1.13
-5.07 -0.53 1.16
-5.05 -0.51 1.17
-4.89 -0.48 1.19
-4.55 -0.44 1.24
-4.95 -0.45 1.18
-4.84 -0.42 1.20
-5.11 -0.42 1.16
-3.51 -0.32 1.37
-5.46 -0.40 1.11
-5.53 -0.39 1.10
-3.48 -0.27 1.38
-3.55 -0.26 1.37
-3.35 -0.24 1.39
-3.15 -0.22 1.42
-2.97 -0.20 1.44
-3.06 -0.19 1.43
-2.99 -0.17 1.44
-3.10 -0.16 1.43
-2.83 -0.14 1.46
-2.92 -0.13 1.45
-2.79 -0.12 1.47
-2.86 -0.10 1.46
-2.71 -0.09 1.48
-10.04 -0.13 0.81
-9.87 -0.11 0.83
-9.96 -0.08 0.82
-10.00 -0.06 0.81
-10.21 -0.04 0.79
-10.07 -0.01 0.80
-2.81 -0.00 1.43
-2.80 0.01 1.43
-6.19 0.04 0.95
-6.08 0.06 0.96
-2.85 0.05 1.42
-8.20 0.12 0.66
-8.74 0.15 0.59
-4.53 0.11 1.18
-4.35 0.13 1.21
-4.63 0.15 1.17
-8.78 0.26 0.58
-9.22 0.26 0.85
-5.78 0.18 1.33
-5.08 0.17 1.43
-9.08 0.32 0.86
-9.24 0.35 0.84
-9.14 0.37 0.86
-9.14 0.39 0.86
-9.16 0.41 0.85
-9.25 0.44 0.84
-6.68 0.34 1.20
-6.56 0.35 1.22
-6.50 0.36 1.23
-6.68 0.39 1.20
-6.48 0.39 1.23
-6.35 0.40 1.25
-6.44 0.42 1.23
-6.44 0.44 1.23
-9.80 0.68 0.76
-6.85 0.50 1.17
-6.83 0.51 1.18
-9.62 0.74 0.78
-9.79 0.78 0.76
-9.74 0.80 0.76
-9.91 0.83 0.74
-9.97 0.86 0.73
-10.29 0.92 0.68
-10.08 0.92 0.71
-10.07 0.95 0.71
-9.87 0.95 0.74
-9.91 0.98 0.73
-10.26 1.04 0.68
-9.94 1.03 0.73
-10.34 1.12 0.67
-12.40 1.56 0.37
-7.18 0.93 1.12
-7.22 0.99 1.11
-7.13 1.00 1.12
-7.11 1.03 1.12
-7.02 1.04 1.14
-7.12 1.07 1.12
-7.09 1.08 1.12
-7.43 1.21 1.07
-7.80 1.54 1.01
-6.30 -1.67 0.93
-1.95 -0.82 1.55
-1.87 -0.79 1.57
-1.94 -0.80 1.56
-1.85 -0.77 1.57
-2.04 -0.79 1.54
-1.80 -0.74 1.58
-1.92 -0.75 1.56
-1.95 -0.74 1.55
-1.88 -0.72 1.56
-1.96 -0.72 1.55
-1.96 -0.71 1.55
-2.02 -0.71 1.55
-5.79 -1.29 1.01
-1.98 -0.68 1.55
-1.89 -0.66 1.56
-2.05 -0.67 1.54
-5.67 -1.20 1.03
-5.64 -1.17 1.03
-5.16 -1.08 1.10
-2.07 -0.63 1.54
-5.71 -1.12 1.02
-2.06 -0.61 1.54
-2.15 -0.61 1.53
-2.09 -0.59 1.53
-2.00 -0.57 1.55
-2.69 -0.65 1.45
-2.24 -0.58 1.51
-2.15 -0.56 1.53
-2.11 -0.54 1.53
-2.15 -0.53 1.53
-2.15 -0.52 1.53
-2.25 -0.52 1.51
-2.15 -0.50 1.53
-2.07 -0.48 1.54
-2.09 -0.47 1.54
-2.01 -0.45 1.55
-2.07 -0.45 1.54
-2.22 -0.45 1.52
-2.06 -0.42 1.54
-5.16 -0.70 1.10
-2.41 -0.43 1.49
-5.01 -0.65 1.12
-5.14 -0.64 1.10
-5.27 -0.63 1.09
-4.05 -0.52 1.26
-5.14 -0.59 1.10
-5.37 -0.59 1.07
-3.23 -0.41 1.37
-3.98 -0.45 1.27
-4.78 -0.49 1.15
-3.56 -0.39 1.33
-4.58 -0.44 1.18
-4.12 -0.40 1.25
-4.02 -0.38 1.26
-5.29 -0.43 1.08
-2.73 -0.28 1.44
-2.35 -0.24 1.50
-3.24 -0.28 1.37
-3.34 -0.27 1.36
-3.28 -0.25 1.36
-2.86 -0.22 1.42
-3.12 -0.22 1.39
-2.62 -0.18 1.46
-2.75 -0.18 1.44
-2.89 -0.17 1.42
-2.64 -0.15 1.45
-2.68 -0.14 1.45
-2.68 -0.13 1.45
-2.60 -0.11 1.46
-2.52 -0.10 1.47
-2.57 -0.09 1.46
-2.58 -0.07 1.46
-2.64 -0.06 1.45
-2.46 -0.05 1.48
-2.47 -0.04 1.48
-2.57 -0.03 1.46
-2.59 -0.01 1.46
-9.23 0.01 0.77
-9.41 0.03 0.75
-9.49 0.06 0.73
-9.56 0.08 0.72
-9.51 0.10 0.73
-9.61 0.13 0.71
-9.54 0.15 0.72
-7.02 0.13 1.10
-7.05 0.15 1.09
-9.81 0.23 0.68
-10.17 0.26 0.63
-6.47 0.18 1.18
-6.87 0.21 1.12
-6.90 0.23 1.12
-6.90 0.25 1.11
-6.64 0.25 1.15
-6.51 0.26 1.17
-6.85 0.29 1.12
-7.00 0.32 1.10
-6.88 0.33 1.12
-6.77 0.34 1.13
-6.71 0.35 1.14
-6.86 0.38 1.12
-6.68 0.39 1.14
-6.70 0.40 1.14
-6.70 0.42 1.14
-6.96 0.45 1.10
-6.89 0.47 1.11
-6.97 0.49 1.10
-7.17 0.52 1.07
-6.99 0.53 1.10
-6.99 0.54 1.10
-9.60 0.76 0.70
-9.76 0.80 0.68
-9.67 0.82 0.69
-9.75 0.85 0.68
-9.81 0.88 0.67
-9.96 0.91 0.65
-9.65 0.91 0.69
-9.77 0.94 0.68
-9.64 0.96 0.69
-9.76 0.99 0.67
-7.33 0.92 1.03
-7.21 0.92 1.05
-7.06 0.92 1.07
-7.10 0.94 1.07
-7.03 0.95 1.08
-7.16 0.99 1.06
-7.13 1.00 1.06
-7.02 1.00 1.08
-7.04 1.02 1.07
-7.05 1.04 1.07
-7.07 1.06 1.07
-7.18 1.10 1.05
-7.15 1.11 1.05
-7.57 1.41 0.98
-7.61 1.51 0.97
-7.62 1.53 0.97
-4.59 -1.45 1.12
-2.13 -0.89 1.49
-2.05 -0.86 1.50
-6.37 -1.67 0.85
-6.42 -1.65 0.85
-6.35 -1.62 0.86
-2.06 -0.82 1.50
-2.07 -0.81 1.50
-2.06 -0.80 1.50
-2.12 -0.80 1.49
-2.12 -0.79 1.49
-2.10 -0.77 1.49
-2.15 -0.77 1.49
-1.98 -0.73 1.51
-2.02 -0.73 1.51
-6.00 -1.35 0.91
-2.14 -0.72 1.49
-2.16 -0.72 1.49
-2.15 -0.70 1.49
-2.20 -0.70 1.48
-2.14 -0.68 1.49
-2.11 -0.66 1.49
-2.08 -0.65 1.50
-2.16 -0.65 1.49
-2.38 -0.67 1.45
-2.51 -0.67 1.43
-2.44 -0.65 1.44
-2.43 -0.64 1.44
-2.49 -0.64 1.44
-2.49 -0.62 1.44
-5.42 -0.97 1.00
-4.94 -0.89 1.07
-2.84 -0.63 1.38
-2.93 -0.63 1.37
-4.84 -0.83 1.09
-2.83 -0.59 1.39
-2.70 -0.56 1.41
-2.55 -0.53 1.43
-2.49 -0.52 1.44
-2.59 -0.51 1.42
-2.58 -0.50 1.42
-2.51 -0.48 1.43
-2.79 -0.50 1.39
-2.65 -0.47 1.41
-2.67 -0.46 1.41
-4.81 -0.63 1.09
-4.38 -0.58 1.15
-4.66 -0.59 1.11
-4.45 -0.55 1.14
-3.32 -0.45 1.31
-3.62 -0.46 1.27
-3.55 -0.44 1.28
-4.17 -0.47 1.18
-3.90 -0.43 1.22
-3.94 -0.42 1.22
-4.09 -0.41 1.20
-4.38 -0.42 1.15
-4.41 -0.40 1.15
-4.31 -0.38 1.16
-4.23 -0.36 1.18
-4.83 -0.37 1.08
-5.12 -0.37 1.04
-4.84 -0.34 1.08
-4.77 -0.32 1.09
-3.27 -0.24 1.32
-5.15 -0.30 1.04
-2.74 -0.19 1.40
-8.95 -0.29 0.82
-9.27 -0.28 0.77
-9.02 -0.25 0.81
-9.37 -0.24 0.76
-9.16 -0.21 0.78
-9.21 -0.19 0.78
-9.07 -0.17 0.80
-9.15 -0.15 0.79
-9.33 -0.13 0.76
-9.33 -0.10 0.76
-9.14 -0.08 0.79
-8.93 -0.05 0.82
-9.07 -0.03 0.80
-9.09 -0.01 0.79
-8.04 0.02 0.53
-8.17 0.07 0.51
-8.24 0.09 0.50
-8.28 0.12 0.49
-6.51 0.12 0.77
-4.96 0.12 1.01
-8.49 0.23 0.46
-6.69 0.23 0.74
-6.74 0.26 0.73
-6.72 0.30 0.73
-6.95 0.33 0.69
-7.39 0.39 0.62
-6.82 0.41 0.71
-9.90 0.49 0.60
-9.62 0.55 0.64
-9.65 0.57 0.63
-9.60 0.60 0.64
-9.45 0.61 0.66
-9.77 0.65 0.61
-9.41 0.68 0.67
-9.38 0.70 0.67
-9.51 0.73 0.65
-9.54 0.76 0.65
-9.68 0.79 0.62
-9.69 0.81 0.62
-9.54 0.83 0.65
-9.71 0.86 0.62
-9.72 0.89 0.62
-9.60 0.90 0.63
-7.01 0.91 1.03
-6.47 -1.66 0.78
-6.57 -1.65 0.76
-6.48 -1.62 0.77
-1.83 -0.75 1.51
-5.94 -1.40 0.86
-1.90 -0.71 1.50
-1.96 -0.71 1.49
-1.90 -0.69 1.50
-2.09 -0.71 1.47
-2.11 -0.69 1.46
-2.07 -0.66 1.47
-2.12 -0.66 1.46
-2.30 -0.68 1.43
-2.17 -0.65 1.45
-2.30 -0.65 1.43
-2.20 -0.62 1.45
-2.28 -0.60 1.44
-2.29 -0.58 1.44
-2.33 -0.58 1.43
-2.30 -0.56 1.43
-2.47 -0.56 1.41
-2.50 -0.54 1.40
-2.42 -0.52 1.42
-2.36 -0.50 1.42
-2.34 -0.49 1.43
-2.37 -0.48 1.42
-2.34 -0.45 1.43
-2.37 -0.43 1.42
-2.23 -0.41 1.44
-2.94 -0.43 1.33
-2.42 -0.36 1.41
-2.59 -0.35 1.39
-2.56 -0.34 1.39
-3.55 -0.39 1.24
-3.47 -0.37 1.25
-2.57 -0.30 1.39
-2.30 -0.26 1.43
-2.48 -0.25 1.40
-2.31 -0.23 1.43
-2.28 -0.22 1.43
-2.40 -0.21 1.42
-2.24 -0.19 1.44
-2.12 -0.17 1.46
-2.18 -0.15 1.45
-2.27 -0.14 1.44
-2.21 -0.13 1.44
-2.15 -0.11 1.45
-2.10 -0.10 1.46
-2.24 -0.08 1.44
-2.56 -0.06 1.39
-2.24 -0.05 1.44
-7.91 -0.08 0.55
-7.87 -0.06 0.56
-7.68 -0.03 0.59
-9.19 0.01 0.63
-9.27 0.03 0.62
-9.64 0.06 0.56
-9.75 0.08 0.54
-5.24 0.06 1.28
-5.14 0.07 1.30
-9.64 0.15 0.56
-9.31 0.17 0.61
-9.88 0.20 0.52
-9.75 0.22 0.54
-9.69 0.25 0.55
-9.23 0.26 0.62
-7.03 0.21 0.98
-6.85 0.23 1.01
-6.97 0.25 0.99
-7.06 0.27 0.98
-6.92 0.28 1.00
-6.92 0.30 1.00
-7.04 0.32 0.98
-6.94 0.33 1.00
-7.08 0.36 0.97
-6.85 0.36 1.01
-7.05 0.39 0.98
-7.45 0.43 0.91
-7.53 0.45 0.90
-9.08 0.57 0.64
-9.21 0.60 0.62
-9.21 0.62 0.62
-9.35 0.65 0.60
-9.37 0.68 0.59
-9.25 0.69 0.61
-9.41 0.72 0.58
-9.34 0.74 0.60
-9.43 0.77 0.58
-9.21 0.78 0.62
-9.27 0.81 0.60
-9.32 0.83 0.60
-9.30 0.85 0.60
-7.39 0.92 0.91
-6.96 0.92 0.98
-7.29 0.99 0.92
-6.83 0.94 1.00
-7.09 1.00 0.95
-6.87 0.98 0.99
-7.07 1.03 0.95
-7.19 1.06 0.93
-7.07 1.06 0.95
-6.94 1.06 0.97
-7.29 1.13 0.91
-7.62 1.22 0.86
-7.43 1.21 0.89
-7.41 1.23 0.89
-7.44 1.27 0.88
-7.61 1.32 0.86
-7.43 1.31 0.89
-7.54 1.34 0.87
-7.67 1.39 0.84
-7.72 1.41 0.83
-7.60 1.41 0.85
-7.71 1.45 0.83
-7.62 1.46 0.85
-7.64 1.50 0.84
-7.93 1.62 0.79
-7.88 1.63 0.80
-6.10 -1.64 0.76
-6.31 -1.66 0.72
-2.07 -0.84 1.43
-1.94 -0.79 1.45
-6.28 -1.55 0.73
-2.12 -0.80 1.42
-1.91 -0.75 1.45
-2.11 -0.78 1.42
-6.13 -1.44 0.76
-6.05 -1.40 0.77
-2.24 -0.76 1.40
-2.28 -0.76 1.39
-2.29 -0.75 1.39
-2.40 -0.76 1.37
-2.29 -0.73 1.39
-2.48 -0.74 1.36
-2.42 -0.72 1.37
-2.48 -0.72 1.36
-2.52 -0.71 1.35
-2.42 -0.69 1.37
-2.49 -0.68 1.36
-2.58 -0.69 1.34
-5.71 -1.09 0.83
-2.76 -0.68 1.31
-2.27 -0.61 1.39
-2.28 -0.60 1.39
-4.91 -0.91 0.96
-5.11 -0.92 0.93
-2.81 -0.63 1.30
-5.26 -0.90 0.90
-5.00 -0.85 0.95
-5.31 -0.87 0.89
-5.49 -0.87 0.86
-2.32 -0.51 1.39
-4.86 -0.76 0.97
-4.96 -0.76 0.95
-4.94 -0.74 0.95
-5.13 -0.74 0.92
-4.50 -0.66 1.03
-3.94 -0.59 1.12
-4.07 -0.59 1.10
-4.93 -0.65 0.96
-4.66 -0.60 1.00
-4.47 -0.57 1.03
-3.83 -0.50 1.14
-3.50 -0.46 1.19
-3.46 -0.45 1.20
-3.93 -0.47 1.12
-2.98 -0.38 1.28
-3.17 -0.38 1.25
-3.98 -0.42 1.11
-3.88 -0.40 1.13
-3.67 -0.37 1.16
-4.45 -0.40 1.04
-8.84 -0.49 0.70
-8.67 -0.46 0.72
-8.73 -0.44 0.71
-8.66 -0.41 0.72
-8.80 -0.40 0.70
-6.96 -0.30 1.00
-9.25 -0.37 0.63
-6.56 -0.25 1.07
-6.61 -0.24 1.06
-6.47 -0.22 1.08
-8.88 -0.27 0.69
-6.49 -0.19 1.08
-6.34 -0.17 1.10
-9.04 -0.21 0.66
-9.16 -0.19 0.64
-9.41 -0.17 0.60
-9.28 -0.15 0.62
-9.24 -0.13 0.63
-9.31 -0.10 0.62
-9.34 -0.08 0.61
-9.18 -0.06 0.64
-9.08 -0.03 0.65
-9.24 -0.01 0.62
-4.80 -0.01 0.92
-2.32 0.01 1.34
-4.85 0.03 0.91
-5.43 0.04 1.21
-5.27 0.06 1.23
-5.45 0.07 1.20
-5.39 0.08 1.21
-5.57 0.10 1.18
-5.35 0.11 1.22
-9.85 0.23 0.44
-5.39 0.14 1.21
-6.68 0.19 0.99
-6.90 0.21 0.95
-6.84 0.22 0.96
-6.77 0.24 0.97
-6.71 0.27 0.98
-6.87 0.29 0.96
-6.58 0.30 1.00
-6.66 0.32 0.99
-6.72 0.34 0.98
-6.91 0.36 0.95
-9.48 0.52 0.50
-9.44 0.54 0.51
-9.37 0.56 0.52
-9.01 0.56 0.58
-9.23 0.60 0.54
-5.25 0.36 1.23
-9.21 0.64 0.55
-9.29 0.67 0.53
-9.28 0.69 0.53
-8.02 0.62 0.75
-7.89 0.63 0.77
-7.99 0.66 0.75
-8.20 0.69 0.72
-8.16 0.71 0.72
-8.83 0.79 0.61
-7.92 0.73 0.76
-7.70 0.73 0.80
-7.59 0.74 0.82
-7.40 0.74 0.85
-7.26 0.74 0.87
-6.92 0.72 0.93
-7.20 0.77 0.88
-7.15 0.78 0.89
-6.95 0.78 0.93
-6.72 0.79 0.97
-7.01 0.84 0.91
-6.75 0.83 0.96
-6.58 0.84 0.99
-6.77 0.88 0.95
-6.91 0.92 0.93
-6.96 0.94 0.92
-7.27 1.00 0.86
-6.97 0.98 0.92
-7.24 1.03 0.87
-7.28 1.05 0.86
-7.14 1.05 0.89
-7.19 1.08 0.88
-7.25 1.11 0.86
-7.29 1.13 0.86
-7.49 1.18 0.82
-7.56 1.21 0.81
-7.58 1.23 0.80
-7.60 1.25 0.80
-7.54 1.26 0.81
-7.46 1.27 0.82
-7.50 1.30 0.81
-7.57 1.33 0.80
-7.88 1.40 0.75
-7.63 1.37 0.79
-7.95 1.45 0.73
-7.93 1.47 0.73
-7.97 1.49 0.73
-7.77 1.48 0.76
-7.93 1.53 0.73
-7.81 1.53 0.75
-7.69 1.52 0.77
-7.67 1.54 0.77
-7.65 1.55 0.78
-7.79 1.60 0.75
-7.82 1.63 0.75
-7.82 1.65 0.74
-3.61 1.01 1.48
-3.52 1.16 1.48
-3.63 1.25 1.46
-3.57 1.36 1.46
-1.51 -1.04 1.49
-1.09 -0.91 1.56
-1.38 -0.96 1.51
-1.23 -0.89 1.54
-1.28 -0.87 1.53
-1.27 -0.86 1.53
-1.25 -0.84 1.53
-1.17 -0.82 1.55
-1.85 -0.84 1.43
-1.88 -0.84 1.43
-6.17 -1.65 0.68
-1.96 -0.83 1.41
-1.89 -0.81 1.42
-1.89 -0.80 1.42
-2.05 -0.82 1.40
-1.98 -0.79 1.41
-1.99 -0.79 1.41
-2.10 -0.79 1.39
-2.03 -0.77 1.40
-2.15 -0.78 1.38
-2.18 -0.77 1.37
-2.15 -0.76 1.38
-2.16 -0.75 1.38
-2.19 -0.74 1.37
-2.26 -0.74 1.36
-2.33 -0.74 1.35
-2.34 -0.73 1.35
-2.36 -0.72 1.34
-2.34 -0.71 1.35
-2.40 -0.71 1.34
-2.52 -0.71 1.32
-2.57 -0.70 1.31
-2.59 -0.70 1.30
-2.67 -0.69 1.29
-2.33 -0.64 1.35
-2.40 -0.63 1.34
-2.44 -0.63 1.33
-4.47 -0.87 0.98
-2.78 -0.65 1.27
-2.57 -0.61 1.31
-2.88 -0.63 1.25
-2.77 -0.61 1.27
-2.85 -0.60 1.26
-2.97 -0.60 1.24
-2.67 -0.56 1.29
-2.17 -0.49 1.38
-2.62 -0.53 1.30
-2.36 -0.49 1.34
-2.38 -0.48 1.34
-2.41 -0.47 1.33
-2.49 -0.47 1.32
-3.62 -0.56 1.13
-3.24 -0.51 1.19
-2.27 -0.41 1.36
-4.31 -0.57 1.01
-3.34 -0.48 1.17
-3.67 -0.49 1.12
-3.19 -0.44 1.20
-3.24 -0.43 1.19
-3.17 -0.41 1.20
-3.20 -0.40 1.20
-2.87 -0.36 1.25
-4.76 -0.47 0.93
-3.76 -0.39 1.10
-3.52 -0.36 1.14
-3.58 -0.35 1.13
-3.94 -0.36 1.07
-3.71 -0.33 1.11
-3.68 -0.31 1.11
-3.12 -0.27 1.21
-2.47 -0.23 1.32
-2.48 -0.22 1.32
-2.44 -0.20 1.33
-2.40 -0.19 1.33
-2.21 -0.17 1.37
-2.21 -0.16 1.37
-2.14 -0.15 1.38
-2.28 -0.14 1.35
-2.30 -0.13 1.35
-2.31 -0.12 1.35
-2.29 -0.11 1.35
-2.60 -0.10 1.30
-2.83 -0.09 1.26
-2.35 -0.07 1.34
-4.66 -0.09 0.94
-2.38 -0.05 1.34
-4.69 -0.06 0.94
-7.01 -0.05 0.53
-4.83 -0.02 0.91
-6.32 0.02 1.00
-6.54 0.04 0.96
-6.85 0.06 0.90
-9.50 0.10 0.43
-9.43 0.15 0.44
-6.70 0.12 0.93
-6.80 0.16 0.91
-6.83 0.17 0.91
-6.83 0.19 0.91
-6.72 0.20 0.92
-6.85 0.24 0.90
-6.87 0.26 0.90
-6.65 0.28 0.93
-6.64 0.30 0.94
-6.90 0.33 0.89
-7.12 0.36 0.85
-7.05 0.39 0.86
-7.24 0.42 0.83
-7.35 0.46 0.81
-7.41 0.48 0.79
-7.68 0.52 0.74
-7.87 0.55 0.71
-7.65 0.57 0.75
-7.60 0.59 0.76
-7.69 0.63 0.74
-7.79 0.66 0.72
-7.80 0.68 0.72
-8.03 0.74 0.68
-7.78 0.74 0.72
-7.53 0.73 0.76
-7.74 0.79 0.73
-7.51 0.79 0.77
-7.44 0.80 0.78
-7.29 0.80 0.81
-7.13 0.82 0.83
-7.21 0.85 0.82
-7.10 0.87 0.84
-7.02 0.88 0.85
-6.93 0.88 0.87
-6.89 0.90 0.87
-6.99 0.94 0.85
-7.14 1.00 0.82
-7.18 1.02 0.82
-7.06 1.02 0.84
-7.25 1.07 0.80
-7.11 1.07 0.83
-7.15 1.11 0.82
-7.19 1.15 0.81
-7.33 1.19 0.78
-7.22 1.19 0.80
-7.32 1.23 0.78
-7.75 1.32 0.70
-7.50 1.31 0.75
-7.42 1.34 0.76
-7.49 1.37 0.75
-7.60 1.41 0.73
-7.69 1.44 0.71
-7.72 1.47 0.70
-7.61 1.49 0.72
-7.52 1.51 0.73
-7.68 1.56 0.70
-7.57 1.56 0.72
-7.55 1.58 0.73
-3.60 1.45 1.41
-1.52 -0.90 1.45
-1.40 -0.85 1.47
-1.93 -0.87 1.38
-2.11 -0.90 1.35
-2.27 -0.92 1.32
-2.15 -0.88 1.34
-2.23 -0.89 1.32
-2.18 -0.87 1.33
-2.11 -0.84 1.35
-2.08 -0.83 1.35
-2.02 -0.80 1.36
-2.18 -0.82 1.33
-2.15 -0.80 1.34
-2.26 -0.81 1.32
-2.31 -0.81 1.31
-2.33 -0.80 1.31
-2.33 -0.79 1.31
-2.30 -0.77 1.31
-2.30 -0.76 1.31
-2.38 -0.76 1.30
-2.47 -0.76 1.28
-2.52 -0.76 1.27
-2.54 -0.75 1.27
-2.63 -0.75 1.25
-2.74 -0.75 1.23
-2.97 -0.78 1.19
-2.61 -0.71 1.26
-2.85 -0.73 1.21
-2.86 -0.72 1.21
-2.65 -0.68 1.25
-3.02 -0.72 1.18
-5.75 -1.05 0.69
-5.60 -1.01 0.72
-5.21 -0.95 0.79
-4.64 -0.86 0.89
-4.52 -0.83 0.91
-5.14 -0.88 0.80
-5.34 -0.89 0.76
-5.15 -0.85 0.80
-4.84 -0.80 0.85
-4.64 -0.76 0.89
-4.51 -0.73 0.91
-4.25 -0.68 0.96
-3.99 -0.64 1.01
-3.55 -0.58 1.09
-4.96 -0.70 0.83
-4.79 -0.67 0.86
-4.74 -0.65 0.87
-4.82 -0.64 0.86
-4.86 -0.62 0.85
-5.04 -0.62 0.82
-5.08 -0.60 0.81
-5.08 -0.59 0.81
-4.83 -0.55 0.86
-4.62 -0.52 0.89
-4.69 -0.50 0.88
-4.17 -0.45 0.97
-4.14 -0.43 0.98
-4.21 -0.42 0.97
-4.67 -0.43 0.88
-4.86 -0.43 0.85
-4.90 -0.41 0.84
-4.54 -0.38 0.91
-4.35 -0.35 0.94
-4.61 -0.35 0.89
-4.50 -0.32 0.91
-4.50 -0.31 0.91
-4.58 -0.29 0.90
-4.79 -0.28 0.86
-4.85 -0.27 0.85
-2.27 -0.16 1.32
-2.51 -0.16 1.27
-4.93 -0.22 0.83
-4.85 -0.20 0.85
-4.70 -0.18 0.88
-4.74 -0.16 0.87
-2.16 -0.09 1.33
-2.65 -0.09 1.24
-9.68 -0.13 0.40
-6.72 -0.08 0.93
-9.47 -0.08 0.43
-9.51 -0.04 0.43
-6.47 -0.01 0.97
-4.75 -0.01 0.80
-4.53 0.01 0.84
-4.88 0.03 0.78
-4.97 0.05 0.76
-4.78 0.06 0.80
-5.43 0.09 0.67
-5.09 0.10 0.74
-5.30 0.12 0.70
-5.35 0.14 0.69
-5.18 0.16 0.72
-5.32 0.18 0.69
-6.97 0.19 0.82
-7.48 0.23 0.72
-6.71 0.22 0.87
-7.08 0.25 0.80
-7.31 0.27 0.75
-7.37 0.30 0.74
-7.65 0.32 0.69
-7.70 0.35 0.68
-7.47 0.35 0.72
-7.12 0.36 0.79
-7.82 0.41 0.65
-7.37 0.40 0.74
-7.60 0.44 0.69
-7.54 0.45 0.71
-7.50 0.47 0.71
-7.47 0.48 0.72
-7.49 0.50 0.71
-7.49 0.52 0.71
-7.65 0.55 0.68
-7.75 0.58 0.66
-7.54 0.58 0.70
-7.58 0.60 0.69
-7.80 0.64 0.65
-7.88 0.66 0.64
-8.02 0.70 0.61
-7.74 0.69 0.66
-7.59 0.70 0.69
-7.85 0.74 0.64
-7.58 0.73 0.69
-7.17 0.71 0.77
-7.14 0.73 0.77
-7.30 0.76 0.74
-7.06 0.76 0.79
-7.08 0.78 0.78
-7.16 0.80 0.77
-7.17 0.82 0.76
-7.27 0.85 0.74
-7.10 0.85 0.77
-7.11 0.87 0.77
-7.04 0.88 0.79
-6.94 0.88 0.80
-7.10 0.92 0.77
-6.92 0.92 0.81
-6.98 0.94 0.79
-6.81 0.94 0.83
-7.13 1.00 0.76
-7.29 1.04 0.73
-7.28 1.05 0.73
-7.23 1.06 0.74
-7.11 1.06 0.77
-7.11 1.08 0.76
-7.02 1.09 0.78
-7.08 1.12 0.77
-6.52 1.05 0.88
-6.91 1.12 0.80
-6.92 1.14 0.80
-7.18 1.20 0.75
-6.78 1.16 0.82
-6.50 1.13 0.87
-6.51 1.15 0.87
-6.84 1.22 0.81
-7.70 1.40 0.64
-7.54 1.40 0.67
-7.60 1.43 0.66
-7.52 1.43 0.67
-7.01 1.35 0.77
-6.38 1.27 0.89
-6.49 1.31 0.87
-6.17 1.35 0.92
-3.27 1.43 1.44
-3.14 1.39 1.46
-1.20 -0.95 1.48
-1.30 -0.97 1.46
-1.35 -0.97 1.45
-1.32 -0.93 1.46
-1.31 -0.92 1.46
-1.30 -0.91 1.46
-1.37 -0.92 1.45
-1.36 -0.90 1.45
-1.32 -0.87 1.46
-1.06 -0.80 1.51
-1.30 -0.85 1.46
-1.30 -0.84 1.46
-1.21 -0.81 1.48
-1.14 -0.78 1.49
-1.69 -0.84 1.39
-1.75 -0.84 1.38
-1.75 -0.83 1.38
-1.71 -0.82 1.38
-6.21 -1.66 0.52
-6.45 -1.68 0.48
-1.82 -0.80 1.36
-1.95 -0.81 1.34
-2.02 -0.81 1.33
-2.10 -0.81 1.31
-2.15 -0.81 1.30
-2.19 -0.81 1.29
-2.37 -0.83 1.26
-2.18 -0.78 1.29
-2.31 -0.79 1.27
-2.28 -0.78 1.28
-2.30 -0.77 1.27
-2.32 -0.76 1.27
-2.36 -0.76 1.26
-2.27 -0.73 1.28
-2.42 -0.74 1.25
-2.38 -0.73 1.26
-2.55 -0.74 1.23
-2.74 -0.75 1.19
-2.48 -0.70 1.24
-2.28 -0.66 1.28
-2.47 -0.68 1.24
-2.32 -0.65 1.27
-2.35 -0.64 1.26
-2.27 -0.62 1.28
-2.41 -0.62 1.25
-2.36 -0.60 1.26
-2.46 -0.61 1.24
-2.49 -0.60 1.24
-2.77 -0.62 1.18
-3.26 -0.66 1.09
-3.87 -0.72 0.97
-3.70 -0.68 1.01
-3.86 -0.69 0.98
-4.15 -0.70 0.92
-3.17 -0.59 1.11
-3.62 -0.62 1.02
-3.36 -0.58 1.07
-4.37 -0.66 0.88
-2.80 -0.50 1.18
-2.97 -0.50 1.15
-2.74 -0.47 1.19
-2.99 -0.48 1.14
-3.08 -0.47 1.12
-2.77 -0.43 1.18
-3.75 -0.50 1.00
-3.58 -0.47 1.03
-4.12 -0.49 0.93
-3.89 -0.46 0.97
-4.05 -0.46 0.94
-3.46 -0.40 1.05
-3.50 -0.39 1.04
-3.70 -0.39 1.01
-4.37 -0.42 0.88
-3.92 -0.37 0.96
-4.32 -0.38 0.89
-2.41 -0.26 1.25
-2.01 -0.23 1.33
-2.24 -0.23 1.28
-2.19 -0.22 1.29
-1.94 -0.19 1.34
-2.00 -0.19 1.33
-2.21 -0.18 1.29
-2.06 -0.17 1.31
-2.05 -0.15 1.32
-1.89 -0.14 1.35
-1.96 -0.13 1.33
-1.94 -0.12 1.34
-2.42 -0.12 1.25
-4.71 -0.16 0.81
-4.59 -0.14 0.84
-4.59 -0.12 0.84
-4.59 -0.11 0.83
-4.61 -0.09 0.83
-4.54 -0.07 0.84
-4.73 -0.06 0.81
-4.55 -0.04 0.84
-4.63 -0.02 0.83
-8.34 0.01 0.49
-8.45 0.03 0.46
-8.34 0.05 0.48
-8.35 0.07 0.48
-8.09 0.09 0.53
-7.64 0.10 0.62
-7.65 0.12 0.62
-7.40 0.13 0.67
-7.38 0.15 0.67
-7.34 0.17 0.68
-7.36 0.19 0.67
-7.40 0.21 0.67
-7.23 0.22 0.70
-7.23 0.24 0.70
-7.17 0.25 0.71
-7.31 0.28 0.68
-7.47 0.30 0.65
-7.12 0.30 0.72
-7.14 0.32 0.71
-7.07 0.34 0.73
-7.04 0.35 0.73
-7.01 0.37 0.74
-6.98 0.38 0.74
-7.07 0.41 0.73
-6.99 0.42 0.74
-7.02 0.44 0.74
-7.00 0.45 0.74
-7.12 0.48 0.71
-6.91 0.48 0.76
-7.16 0.52 0.71
-7.11 0.53 0.71
-7.14 0.55 0.71
-7.14 0.57 0.71
-7.04 0.58 0.73
-7.04 0.60 0.73
-7.09 0.62 0.72
-7.08 0.64 0.72
-7.16 0.66 0.70
-7.19 0.68 0.70
-7.03 0.68 0.73
-6.90 0.69 0.75
-6.92 0.71 0.75
-6.66 0.70 0.80
-6.65 0.71 0.80
-6.58 0.72 0.81
-6.50 0.73 0.83
-6.73 0.77 0.78
-6.44 0.76 0.84
-6.59 0.79 0.81
-6.84 0.84 0.76
-6.83 0.85 0.76
-6.89 0.88 0.75
-6.97 0.91 0.73
-6.87 0.91 0.75
-6.90 0.93 0.74
-6.75 0.93 0.77
-6.64 0.93 0.79
-6.81 0.97 0.76
-6.77 0.98 0.76
-6.78 1.00 0.76
-6.78 1.02 0.76
-6.61 1.01 0.80
-6.50 1.01 0.82
-6.63 1.05 0.79
-6.53 1.05 0.81
-6.46 1.06 0.82
-6.17 1.03 0.88
-6.39 1.08 0.83
-6.29 1.08 0.85
-6.55 1.14 0.80
-6.17 1.09 0.88
-6.42 1.15 0.83
-6.35 1.15 0.84
-6.38 1.18 0.83
-6.24 1.17 0.86
-6.34 1.20 0.84
-6.48 1.24 0.81
-6.19 1.21 0.87
-6.18 1.22 0.87
-6.19 1.24 0.86
-6.12 1.24 0.88
-6.13 1.26 0.87
-6.03 1.26 0.89
-6.19 1.30 0.86
-6.21 1.32 0.86
-6.22 1.34 0.85
-6.16 1.35 0.86
-6.19 1.37 0.86
-6.16 1.38 0.86
-6.17 1.40 0.86
-6.14 1.41 0.86
-6.20 1.44 0.85
-6.16 1.44 0.86
-6.17 1.46 0.85
-6.30 1.51 0.83
-6.20 1.50 0.85
-6.25 1.53 0.84
-6.20 1.54 0.85
-6.24 1.56 0.84
-1.76 -0.88 1.33
-5.93 -1.69 0.50
-5.97 -1.68 0.49
-2.37 -0.95 1.21
-5.96 -1.63 0.49
-2.30 -0.91 1.22
-2.37 -0.92 1.21
-2.26 -0.88 1.23
-2.36 -0.89 1.21
-2.54 -0.91 1.18
-2.57 -0.90 1.17
-2.44 -0.87 1.20
-2.49 -0.87 1.19
-2.53 -0.86 1.18
-2.53 -0.85 1.18
-2.45 -0.82 1.20
-2.49 -0.82 1.19
-2.57 -0.82 1.17
-2.53 -0.80 1.18
-2.42 -0.77 1.20
-2.59 -0.78 1.17
-2.57 -0.77 1.17
-2.59 -0.76 1.17
-2.88 -0.79 1.11
-2.79 -0.76 1.13
-2.63 -0.73 1.16
-2.79 -0.74 1.13
-2.94 -0.75 1.10
-3.14 -0.76 1.06
-3.39 -0.78 1.01
-3.11 -0.73 1.07
-3.10 -0.72 1.07
-2.42 -0.62 1.20
-3.31 -0.71 1.03
-3.22 -0.69 1.04
-3.32 -0.69 1.02
-3.65 -0.71 0.96
-4.88 -0.84 0.71
-4.18 -0.74 0.85
-4.24 -0.73 0.84
-4.40 -0.73 0.81
-4.59 -0.74 0.77
-4.32 -0.69 0.83
-4.45 -0.69 0.80
-4.71 -0.70 0.75
-4.93 -0.70 0.70
-5.04 -0.69 0.68
-4.84 -0.66 0.72
-4.79 -0.63 0.73
-4.69 -0.61 0.75
-4.68 -0.59 0.75
-4.57 -0.56 0.78
-4.63 -0.55 0.76
-3.63 -0.46 0.96
-3.81 -0.46 0.93
-4.43 -0.49 0.80
-5.01 -0.51 0.69
-4.78 -0.48 0.73
-3.97 -0.41 0.89
-4.26 -0.41 0.84
-4.36 -0.40 0.82
-4.56 -0.40 0.78
-4.26 -0.36 0.84
-4.69 -0.37 0.75
-4.61 -0.35 0.77
-4.53 -0.33 0.78
-2.32 -0.21 1.22
-4.69 -0.30 0.75
-4.56 -0.28 0.78
-5.71 -0.21 1.01
-5.70 -0.19 1.01
-5.65 -0.18 1.02
-5.79 -0.17 0.99
-5.55 -0.15 1.04
-6.11 -0.15 0.93
-8.13 -0.17 0.53
-6.16 -0.12 0.92
-8.19 -0.13 0.52
-8.38 -0.12 0.48
-6.31 -0.07 0.89
-8.57 -0.08 0.44
-8.23 -0.05 0.51
-5.87 -0.03 0.97
-8.29 -0.01 0.49
-5.63 -0.01 0.50
-5.72 0.01 0.48
-5.02 0.03 0.62
-5.65 0.05 0.49
-5.01 0.06 0.62
-5.33 0.08 0.56
-4.96 0.10 0.63
-5.09 0.12 0.61
-5.08 0.14 0.61
-4.75 0.15 0.68
-4.91 0.17 0.64
-4.90 0.19 0.65
-5.10 0.21 0.60
-6.14 0.26 0.39
-4.61 0.23 0.70
-6.13 0.30 0.39
-6.11 0.32 0.39
-5.90 0.35 0.43
-6.02 0.38 0.41
-7.19 0.36 0.65
-6.84 0.36 0.72
-6.96 0.38 0.69
-6.94 0.40 0.70
-6.91 0.43 0.70
-7.00 0.45 0.68
-6.91 0.48 0.70
-6.67 0.48 0.75
-6.97 0.52 0.69
-6.92 0.53 0.70
-6.83 0.54 0.72
-7.03 0.59 0.67
-7.26 0.65 0.62
-7.22 0.66 0.63
-7.18 0.68 0.64
-6.93 0.69 0.69
-6.87 0.72 0.70
-6.84 0.75 0.71
-6.99 0.78 0.67
-6.86 0.78 0.70
-6.06 0.73 0.87
-6.98 0.87 0.67
-6.65 0.86 0.74
-6.57 0.87 0.76
-6.16 0.83 0.84
-6.27 0.86 0.82
-6.30 0.88 0.81
-6.12 0.89 0.85
-5.63 0.84 0.95
-6.45 0.97 0.78
-6.42 0.98 0.78
-6.25 0.99 0.82
-6.02 0.97 0.86
-6.16 1.02 0.83
-6.12 1.03 0.84
-5.73 0.98 0.92
-5.72 0.99 0.92
-6.31 1.13 0.80
-6.17 1.12 0.83
-6.27 1.17 0.80
-6.04 1.16 0.85
-6.00 1.18 0.86
-6.04 1.20 0.85
-5.99 1.24 0.85
-1.07 -0.91 1.44
-1.35 -0.97 1.38
-1.18 -0.92 1.42
-1.07 -0.88 1.44
-1.51 -0.97 1.35
-1.14 -0.86 1.43
-1.24 -0.88 1.41
-1.40 -0.90 1.38
-1.21 -0.84 1.41
-1.15 -0.82 1.43
-1.08 -0.80 1.44
-1.24 -0.82 1.41
-1.29 -0.82 1.40
-1.01 -0.75 1.46
-1.23 -0.79 1.41
-1.18 -0.77 1.42
-1.36 -0.80 1.38
-5.96 -1.69 0.43
-1.88 -0.86 1.28
-1.97 -0.87 1.26
-1.70 -0.80 1.32
-1.71 -0.79 1.31
-1.94 -0.83 1.27
-2.16 -0.86 1.22
-2.06 -0.83 1.24
-2.27 -0.86 1.20
-2.35 -0.86 1.18
-2.27 -0.83 1.20
-2.25 -0.82 1.20
-2.37 -0.83 1.18
-2.35 -0.81 1.18
-2.30 -0.79 1.19
-2.14 -0.76 1.22
-2.15 -0.75 1.22
-2.12 -0.73 1.23
-2.11 -0.72 1.23
-2.23 -0.72 1.21
-2.15 -0.70 1.22
-2.20 -0.70 1.21
-2.18 -0.68 1.22
-2.22 -0.68 1.21
-2.66 -0.73 1.12
-2.35 -0.67 1.18
-2.74 -0.72 1.10
-2.17 -0.63 1.22
-2.14 -0.61 1.23
-2.63 -0.66 1.12
-2.26 -0.60 1.20
-2.21 -0.59 1.21
-2.47 -0.61 1.16
-2.58 -0.61 1.14
-3.11 -0.66 1.02
-3.36 -0.68 0.97
-3.01 -0.62 1.05
-2.50 -0.55 1.15
-1.81 -0.46 1.29
-2.20 -0.50 1.21
-2.07 -0.47 1.24
-2.12 -0.47 1.23
-2.26 -0.47 1.20
-2.09 -0.44 1.24
-4.75 -0.68 0.69
-1.99 -0.41 1.26
-4.92 -0.66 0.65
-5.31 -0.68 0.57
-4.97 -0.63 0.64
-4.08 -0.54 0.82
-3.41 -0.47 0.96
-3.31 -0.45 0.98
-3.47 -0.45 0.95
-3.29 -0.42 0.99
-3.47 -0.42 0.95
-3.46 -0.40 0.95
-3.43 -0.39 0.96
-4.88 -0.46 0.66
-4.63 -0.41 0.71
-1.99 -0.25 1.25
-2.11 -0.24 1.23
-2.00 -0.23 1.25
-2.69 -0.25 1.11
-2.46 -0.23 1.16
-1.81 -0.19 1.29
-1.88 -0.18 1.28
-1.81 -0.17 1.29
-2.12 -0.17 1.23
-4.57 -0.24 0.72
-1.90 -0.14 1.27
-2.93 -0.12 1.06
-4.93 -0.15 0.65
-4.88 -0.13 0.66
-4.80 -0.11 0.67
-4.92 -0.10 0.65
-4.69 -0.08 0.69
-4.80 -0.06 0.67
-5.00 -0.03 0.63
-5.83 0.00 0.87
-5.87 0.02 0.86
-5.64 0.03 0.91
-8.00 0.08 0.40
-7.85 0.10 0.43
-7.93 0.12 0.42
-8.01 0.16 0.40
-7.88 0.18 0.43
-8.25 0.21 0.35
-6.60 0.20 0.70
-6.69 0.22 0.68
-6.65 0.23 0.69
-6.74 0.27 0.67
-6.89 0.29 0.64
-6.70 0.30 0.68
-6.68 0.33 0.68
-6.77 0.36 0.66
-6.71 0.37 0.67
-7.04 0.42 0.60
-6.93 0.43 0.62
-6.94 0.45 0.62
-6.68 0.47 0.68
-6.87 0.50 0.64
-6.97 0.52 0.61
-6.95 0.55 0.62
-7.01 0.58 0.60
-6.98 0.59 0.61
-7.01 0.63 0.60
-7.07 0.65 0.59
-6.40 0.61 0.73
-6.54 0.65 0.70
-6.47 0.66 0.71
-6.35 0.67 0.74
-6.37 0.70 0.73
-6.28 0.71 0.75
-6.22 0.72 0.77
-6.27 0.75 0.75
-6.55 0.80 0.69
-6.84 0.85 0.63
-6.59 0.86 0.68
-6.69 0.89 0.66
-6.76 0.91 0.64
-5.64 0.80 0.89
-6.71 0.96 0.65
-6.22 0.91 0.76
-6.29 0.95 0.74
-6.31 0.97 0.73
-6.48 1.01 0.70
-5.83 0.94 0.84
-5.54 0.91 0.90
-5.68 0.95 0.87
-5.80 1.00 0.84
-5.98 1.04 0.80
-5.84 1.04 0.83
-5.91 1.08 0.81
-5.88 1.09 0.82
-6.03 1.13 0.79
-5.95 1.15 0.80
-6.11 1.19 0.76
-6.05 1.20 0.78
-5.95 1.21 0.80
-6.10 1.27 0.76
-6.09 1.30 0.76
-6.02 1.30 0.78
-5.94 1.30 0.79
-6.09 1.36 0.76
-6.17 1.40 0.74
-6.13 1.41 0.75
-6.05 1.42 0.76
-6.12 1.45 0.75
-6.06 1.46 0.76
-5.20 1.30 0.95
-4.88 1.24 1.02
-4.69 1.22 1.06
-4.65 1.22 1.07
-4.95 1.31 1.00
-4.82 1.32 1.02
-1.45 -0.98 1.32
-1.27 -0.92 1.36
-1.41 -0.94 1.33
-4.51 -1.68 0.65
-1.38 -0.92 1.33
-1.29 -0.89 1.35
-1.34 -0.89 1.34
-1.43 -0.90 1.32
-1.33 -0.87 1.35
-1.55 -0.91 1.30
-1.42 -0.87 1.33
-1.31 -0.84 1.35
-1.83 -0.94 1.24
-2.03 -0.97 1.19
-2.34 -1.02 1.12
-2.14 -0.96 1.17
-2.18 -0.96 1.16
-2.22 -0.96 1.15
-2.30 -0.96 1.14
-2.44 -0.98 1.11
-2.31 -0.94 1.13
-2.48 -0.96 1.10
-2.29 -0.91 1.14
-2.40 -0.92 1.11
-2.44 -0.92 1.11
-2.45 -0.91 1.10
-2.47 -0.90 1.10
-2.39 -0.87 1.12
-2.38 -0.86 1.12
-2.41 -0.85 1.11
-2.47 -0.85 1.10
-2.39 -0.83 1.12
-2.56 -0.84 1.08
-2.68 -0.85 1.05
-2.53 -0.81 1.09
-2.72 -0.83 1.05
-2.31 -0.76 1.13
-2.48 -0.77 1.10
-2.32 -0.73 1.13
-2.36 -0.73 1.13
-2.74 -0.77 1.04
-3.11 -0.81 0.96
-3.05 -0.79 0.98
-3.02 -0.77 0.98
-3.06 -0.76 0.97
-3.01 -0.75 0.98
-3.63 -0.81 0.85
-3.83 -0.83 0.81
-3.83 -0.81 0.81
-5.19 -0.97 0.51
-5.22 -0.95 0.51
-5.02 -0.91 0.55
-3.87 -0.75 0.80
-3.87 -0.74 0.80
-4.87 -0.84 0.58
-3.67 -0.69 0.84
-3.77 -0.68 0.82
-4.30 -0.72 0.71
-3.99 -0.68 0.77
-4.85 -0.75 0.59
-5.34 -0.78 0.48
-5.21 -0.75 0.51
-5.00 -0.71 0.56
-4.97 -0.69 0.56
-5.04 -0.68 0.55
-4.73 -0.63 0.61
-4.62 -0.60 0.64
-4.76 -0.60 0.61
-4.82 -0.59 0.59
-4.53 -0.55 0.66
-4.88 -0.56 0.58
-4.94 -0.54 0.57
-4.94 -0.52 0.57
-4.86 -0.50 0.59
-4.72 -0.47 0.62
-4.77 -0.46 0.60
-4.57 -0.43 0.65
-4.62 -0.42 0.64
-7.58 -0.42 0.50
-7.91 -0.42 0.43
-7.81 -0.40 0.45
-7.90 -0.36 0.43
-7.63 -0.33 0.49
-7.92 -0.32 0.42
-5.55 -0.22 0.93
-5.32 -0.20 0.99
-5.29 -0.18 0.99
-5.73 -0.17 0.90
-5.57 -0.14 0.93
-5.66 -0.11 0.91
-5.66 -0.10 0.91
-5.80 -0.08 0.88
-5.65 -0.05 0.91
-5.59 -0.04 0.92
-5.53 -0.02 0.94
-4.48 -0.01 0.60
-4.20 0.01 0.66
-4.35 0.02 0.62
-5.58 0.04 0.87
-5.74 0.06 0.83
-5.71 0.07 0.84
-5.62 0.09 0.86
-5.99 0.11 0.78
-5.90 0.12 0.80
-5.83 0.13 0.81
-5.98 0.15 0.78
-6.03 0.17 0.77
-5.95 0.18 0.79
-6.20 0.20 0.73
-6.36 0.22 0.69
-6.60 0.25 0.64
-6.40 0.26 0.68
-6.52 0.28 0.65
-6.56 0.29 0.64
-6.71 0.32 0.61
-6.52 0.33 0.65
-7.04 0.37 0.53
-7.17 0.39 0.50
-7.33 0.42 0.47
-7.70 0.46 0.38
-7.01 0.44 0.54
-6.89 0.45 0.57
-6.79 0.46 0.59
-6.81 0.47 0.58
-6.78 0.49 0.59
-6.92 0.52 0.56
-7.04 0.54 0.53
-6.99 0.56 0.54
-6.91 0.57 0.56
-5.33 0.45 0.92
-7.05 0.61 0.52
-5.33 0.48 0.91
-6.41 0.59 0.67
-6.26 0.59 0.70
-6.55 0.64 0.64
-6.13 0.61 0.73
-6.19 0.63 0.71
-5.93 0.62 0.77
-5.89 0.63 0.78
-5.90 0.65 0.78
-6.04 0.68 0.75
-5.79 0.67 0.80
-5.60 0.66 0.85
-5.56 0.67 0.85
-5.79 0.71 0.80
-5.49 0.69 0.87
-5.58 0.72 0.85
-5.57 0.73 0.85
-5.51 0.73 0.86
-5.55 0.75 0.85
-5.76 0.80 0.80
-5.75 0.81 0.81
-5.42 0.78 0.88
-5.34 0.78 0.90
-5.83 0.87 0.78
-5.62 0.85 0.83
-5.42 0.83 0.88
-5.37 0.84 0.89
-5.40 0.86 0.88
-5.40 0.87 0.88
-5.46 0.90 0.86
-5.38 0.90 0.88
-5.46 0.92 0.86
-5.50 0.95 0.85
-5.53 0.97 0.85
-5.69 1.01 0.81
-5.60 1.01 0.83
-5.54 1.01 0.84
-5.44 1.01 0.86
-5.58 1.05 0.83
-5.65 1.07 0.81
-5.80 1.11 0.78
-5.94 1.16 0.74
-5.94 1.17 0.74
-5.94 1.19 0.74
-5.89 1.19 0.75
-5.96 1.22 0.74
-6.00 1.25 0.73
-6.01 1.26 0.72
-6.08 1.29 0.71
-6.01 1.30 0.72
-6.00 1.31 0.72
-6.09 1.34 0.70
-1.53 -0.85 1.27
-1.69 -0.87 1.23
-1.57 -0.84 1.26
-1.52 -0.82 1.27
-1.69 -0.84 1.23
-1.96 -0.89 1.17
-1.68 -0.82 1.23
-1.64 -0.81 1.24
-1.74 -0.81 1.22
-1.92 -0.84 1.18
-2.05 -0.85 1.15
-2.12 -0.85 1.13
-2.02 -0.83 1.16
-2.20 -0.85 1.12
-2.17 -0.83 1.12
-2.12 -0.81 1.14
-2.06 -0.79 1.15
-1.87 -0.75 1.19
-1.94 -0.75 1.18
-1.87 -0.72 1.19
-1.83 -0.71 1.20
-1.85 -0.70 1.20
-1.86 -0.69 1.20
-1.86 -0.68 1.20
-1.84 -0.67 1.20
-2.05 -0.69 1.15
-1.87 -0.65 1.19
-2.12 -0.68 1.14
-2.27 -0.69 1.10
-2.24 -0.67 1.11
-2.43 -0.69 1.06
-2.29 -0.66 1.10
-2.42 -0.66 1.07
-2.30 -0.63 1.10
-1.75 -0.55 1.22
-1.66 -0.53 1.24
-1.60 -0.51 1.25
-1.67 -0.51 1.24
-1.54 -0.49 1.27
-1.51 -0.47 1.27
-1.42 -0.45 1.30
-3.33 -0.66 0.86
-1.64 -0.46 1.24
-3.68 -0.67 0.78
-1.68 -0.44 1.24
-1.74 -0.44 1.22
-1.41 -0.39 1.30
-1.76 -0.42 1.22
-1.68 -0.40 1.24
-4.64 -0.67 0.57
-4.61 -0.65 0.57
-4.54 -0.63 0.59
-4.64 -0.62 0.57
-4.54 -0.60 0.59
-4.62 -0.59 0.57
-4.59 -0.57 0.58
-4.52 -0.54 0.59
-4.90 -0.56 0.51
-4.60 -0.52 0.58
-4.43 -0.49 0.61
-4.43 -0.47 0.61
-4.67 -0.47 0.56
-4.64 -0.45 0.57
-5.02 -0.46 0.48
-4.26 -0.40 0.65
-4.70 -0.40 0.55
-4.68 -0.39 0.56
-4.82 -0.38 0.52
-4.87 -0.36 0.51
-2.13 -0.21 1.13
-4.51 -0.31 0.60
-4.66 -0.30 0.56
-4.73 -0.28 0.54
-4.68 -0.27 0.55
-4.87 -0.26 0.51
-4.70 -0.23 0.55
-4.86 -0.22 0.51
-4.44 -0.19 0.61
-4.57 -0.18 0.58
-4.52 -0.16 0.59
-4.63 -0.15 0.57
-4.62 -0.13 0.57
-4.77 -0.11 0.53
-4.60 -0.09 0.57
-4.56 -0.08 0.58
-4.80 -0.06 0.53
-4.61 -0.04 0.57
-7.35 0.02 0.40
-5.88 0.03 0.75
-5.83 0.05 0.76
-8.16 0.08 0.21
-6.41 0.08 0.62
-5.90 0.09 0.74
-5.91 0.10 0.74
-5.95 0.12 0.73
-5.99 0.14 0.72
-5.89 0.15 0.74
-6.03 0.17 0.71
