# .PCD v0.7 - Point Cloud Data file format
VERSION 0.7
FIELDS x y z
SIZE 4 4 4
TYPE F F F
COUNT 1 1 1
WIDTH 2789
HEIGHT 1
VIEWPOINT 0 0 0 1 0 0 0
POINTS 2789
DATA ASCII
-4.17 0.39 2.13
-4.84 0.19 2.03
-13.64 -0.37 1.77
-12.13 -0.34 1.65
-11.66 -0.33 1.61
-12.20 -0.24 1.59
-13.28 -0.24 1.59
-4.83 1.55 1.89
-9.19 -0.66 1.57
-12.09 -0.57 1.54
-12.12 -0.25 1.53
-12.61 -0.23 1.51
-12.89 -0.20 1.49
-12.21 0.04 1.34
-9.37 -0.76 1.51
-9.32 -0.73 1.51
-12.27 -0.07 1.34
-11.46 0.80 1.46
-9.78 -0.87 1.43
-9.35 -0.73 1.46
-14.09 -0.98 1.17
-13.87 -0.93 1.18
-9.00 -0.62 1.48
-9.26 -0.61 1.46
-9.29 -0.58 1.46
-8.20 -0.45 1.53
-8.80 -0.45 1.49
-8.23 -0.40 1.52
-8.14 -0.38 1.53
-8.26 -0.35 1.52
-8.28 -0.33 1.52
-8.23 -0.30 1.52
-9.38 -0.31 1.45
-12.46 -0.13 1.40
-12.30 0.00 1.19
-12.39 0.04 1.19
-12.36 0.07 1.19
-12.40 0.11 1.18
-12.33 0.22 1.19
-11.45 0.63 1.40
-11.29 0.65 1.41
-11.77 0.70 1.37
-11.83 0.76 1.37
-11.66 0.78 1.38
-9.64 -0.86 1.38
-9.30 -0.81 1.40
-13.77 -1.08 1.10
-9.04 -0.68 1.42
-8.96 -0.62 1.42
-9.46 -0.62 1.39
-9.28 -0.58 1.40
-8.54 -0.52 1.45
-8.59 -0.50 1.44
-9.19 -0.47 1.40
-8.24 -0.40 1.47
-8.21 -0.38 1.47
-7.96 -0.34 1.49
-8.05 -0.32 1.48
-7.95 -0.29 1.49
-8.07 -0.27 1.48
-9.08 -0.27 1.41
-8.69 -0.24 1.44
-9.23 -0.22 1.40
-9.48 -0.17 1.38
-12.28 -0.07 1.19
-12.41 -0.03 1.19
-12.81 0.05 1.25
-13.21 0.08 1.22
-13.26 0.15 1.21
-7.14 0.24 1.65
-7.12 0.25 1.65
-11.23 0.56 1.35
-11.71 0.61 1.32
-11.54 0.69 1.33
-11.76 0.73 1.31
-11.71 0.76 1.32
-11.73 0.79 1.31
-11.84 0.82 1.31
-11.85 0.85 1.31
-11.73 0.87 1.31
-11.70 0.90 1.32
-15.96 1.65 1.00
-4.20 0.94 1.84
-4.28 0.99 1.84
-4.53 1.07 1.82
-4.98 1.47 1.78
-5.20 1.59 1.76
-5.08 1.57 1.77
-4.85 1.54 1.78
-4.82 1.55 1.78
-4.92 1.61 1.78
-4.88 1.68 1.78
-13.92 -1.44 1.01
-13.89 -1.36 1.01
-9.50 -0.97 1.32
-13.78 -1.28 1.02
-10.20 -0.93 1.27
-9.88 -0.88 1.30
-9.87 -0.85 1.30
-10.09 -0.84 1.28
-8.88 -0.73 1.37
-8.57 -0.68 1.39
-10.66 -0.78 1.24
-10.33 -0.73 1.26
-9.30 -0.64 1.34
-10.54 -0.68 1.25
-8.80 -0.56 1.37
-8.34 -0.51 1.41
-8.17 -0.48 1.42
-8.42 -0.46 1.40
-9.31 -0.47 1.34
-9.16 -0.44 1.35
-8.26 -0.38 1.41
-10.42 -0.32 1.42
-11.38 -0.32 1.35
-11.99 -0.30 1.31
-11.95 -0.27 1.31
-12.13 -0.25 1.30
-10.82 -0.17 1.39
-12.45 -0.16 1.27
-10.64 -0.12 1.40
-12.70 -0.08 1.26
-12.95 -0.01 1.24
-11.18 0.56 1.30
-11.61 0.61 1.27
-11.45 0.63 1.28
-10.18 -0.99 1.21
-10.16 -0.93 1.21
-8.73 -0.74 1.32
-8.76 -0.72 1.32
-9.01 -0.68 1.30
-8.64 -0.61 1.33
-8.23 -0.56 1.36
-8.41 -0.54 1.35
-8.47 -0.52 1.34
-8.31 -0.49 1.35
-8.20 -0.45 1.36
-8.12 -0.43 1.37
-9.43 -0.45 1.27
-8.43 -0.39 1.34
-9.52 -0.40 1.26
-9.36 -0.33 1.27
-9.67 -0.31 1.25
-9.23 -0.28 1.28
-9.37 -0.14 1.27
-12.32 -0.07 1.04
-12.93 0.02 1.10
-10.15 0.04 1.32
-9.69 0.06 1.36
-3.87 0.03 1.84
-9.88 0.11 1.35
-9.67 0.13 1.36
-7.33 0.15 1.55
-7.18 0.18 1.57
-7.18 0.20 1.57
-7.01 0.21 1.58
-6.83 0.26 1.60
-14.54 0.58 0.96
-14.69 0.66 0.94
-6.95 0.33 1.58
-7.19 0.36 1.56
-11.27 0.59 1.23
-6.84 0.41 1.59
-11.48 0.71 1.21
-11.66 0.75 1.19
-11.54 0.77 1.20
-11.27 0.78 1.22
-11.35 0.82 1.22
-11.54 0.86 1.20
-11.84 0.91 1.17
-4.51 0.95 1.77
-4.47 0.97 1.77
-4.71 1.08 1.75
-4.77 1.10 1.74
-4.69 1.10 1.75
-5.19 1.30 1.70
-4.84 1.31 1.73
-4.91 1.34 1.73
-4.88 1.36 1.73
-5.15 1.45 1.70
-5.07 1.50 1.71
-4.95 1.48 1.72
-4.78 1.45 1.73
-4.87 1.58 1.72
-10.27 -1.31 1.13
-10.51 -1.30 1.11
-10.30 -1.25 1.13
-10.26 -1.12 1.13
-10.13 -1.08 1.14
-10.31 -1.00 1.13
-13.67 -1.23 0.85
-8.17 -0.73 1.30
-8.28 -0.72 1.29
-8.44 -0.70 1.28
-8.28 -0.66 1.29
-8.19 -0.63 1.30
-8.56 -0.63 1.27
-9.62 -0.53 1.37
-9.82 -0.51 1.36
-9.77 -0.49 1.36
-10.23 -0.48 1.32
-10.28 -0.46 1.32
-10.13 -0.43 1.33
-10.34 -0.41 1.31
-10.24 -0.39 1.32
-10.15 -0.36 1.33
-10.48 -0.34 1.30
-10.24 -0.31 1.32
-10.25 -0.29 1.32
-10.16 -0.26 1.33
-9.99 -0.23 1.34
-10.14 -0.21 1.33
-11.71 -0.21 1.20
-10.36 -0.16 1.31
-10.22 -0.14 1.32
-10.25 -0.11 1.32
-10.43 -0.09 1.30
-10.19 -0.06 1.32
-12.88 -0.05 1.10
-12.79 -0.02 1.11
-12.75 0.11 1.04
-9.84 0.11 1.30
-9.72 0.13 1.31
-11.14 0.74 1.17
-11.33 0.81 1.15
-3.92 0.96 1.79
-10.22 -1.12 1.07
-8.35 -0.77 1.23
-8.34 -0.67 1.23
-8.67 -0.66 1.20
-8.60 -0.63 1.21
-10.50 -0.71 1.04
-10.56 -0.68 1.04
-10.35 -0.64 1.05
-10.45 -0.61 1.04
-8.86 -0.51 1.18
-8.08 -0.45 1.25
-9.81 -0.50 1.10
-8.43 -0.41 1.22
-7.87 -0.34 1.27
-9.94 -0.35 1.09
-10.24 -0.33 1.06
-9.56 -0.28 1.12
-9.66 -0.26 1.11
-9.32 -0.17 1.14
-9.43 -0.11 1.13
-9.18 -0.05 1.15
-10.00 0.01 1.22
-10.04 0.04 1.22
-9.91 0.06 1.23
-10.06 0.08 1.21
-10.06 0.11 1.21
-10.08 0.13 1.21
-7.71 0.12 1.43
-9.88 0.18 1.23
-9.76 0.20 1.24
-9.97 0.23 1.22
-7.20 0.18 1.48
-7.20 0.20 1.48
-10.23 0.31 1.20
-7.23 0.24 1.48
-7.20 0.27 1.48
-11.51 0.46 1.07
-7.14 0.34 1.48
-7.11 0.36 1.49
-11.17 0.66 1.10
-11.19 0.69 1.10
-11.11 0.71 1.11
-11.10 0.74 1.11
-7.30 0.51 1.47
-11.41 0.82 1.08
-11.39 0.84 1.08
-7.56 0.59 1.44
-11.48 0.96 1.07
-11.85 1.02 1.03
-12.00 1.06 1.02
-7.24 0.85 1.47
-6.83 1.10 1.50
-4.85 0.91 1.68
-4.94 1.09 1.67
-4.67 1.13 1.69
-5.06 1.28 1.65
-4.62 1.21 1.70
-4.50 1.20 1.71
-4.89 1.40 1.66
-4.77 1.45 1.67
-4.52 1.68 1.69
-10.29 -1.43 0.98
-10.05 -1.25 1.01
-9.89 -1.15 1.02
-9.96 -1.13 1.01
-10.19 -1.12 0.99
-10.15 -1.08 1.00
-10.28 -1.06 0.98
-9.99 -1.01 1.01
-10.25 -1.00 0.99
-10.40 -0.98 0.97
-10.42 -0.95 0.97
-10.51 -0.93 0.96
-8.59 -0.76 1.14
-8.16 -0.71 1.18
-8.57 -0.71 1.14
-9.11 -0.72 1.09
-8.41 -0.65 1.16
-8.28 -0.61 1.17
-8.98 -0.63 1.11
-8.66 -0.58 1.13
-10.05 -0.63 1.00
-9.93 -0.59 1.02
-9.97 -0.56 1.01
-7.88 -0.44 1.21
-10.23 -0.51 0.99
-8.06 -0.40 1.19
-2.26 -0.17 1.74
-10.17 -0.42 0.99
-9.68 -0.35 1.04
-9.71 -0.32 1.03
-9.54 -0.26 1.05
-9.58 -0.23 1.05
-9.38 -0.20 1.06
-10.19 -0.14 1.20
-9.97 -0.11 1.23
-10.26 -0.09 1.20
-10.01 -0.06 1.22
-10.68 -0.04 1.16
-10.38 -0.01 1.19
-9.47 0.00 0.98
-9.45 0.03 0.99
-9.63 0.06 0.97
-9.60 0.09 0.97
-9.69 0.12 0.96
-9.66 0.15 0.96
-9.66 0.17 0.96
-9.35 0.20 0.99
-7.89 0.22 1.37
-7.40 0.22 1.42
-7.02 0.23 1.46
-7.26 0.26 1.43
-7.55 0.34 1.40
-14.50 0.68 0.70
-7.12 0.36 1.44
-7.50 0.43 1.40
-11.04 0.66 1.05
-11.07 0.68 1.04
-11.09 0.71 1.04
-11.24 0.75 1.03
-11.08 0.77 1.04
-11.23 0.80 1.03
-7.22 0.54 1.43
-11.42 0.87 1.01
-11.36 0.90 1.01
-11.52 0.94 0.99
-7.34 0.62 1.42
-7.08 0.62 1.44
-7.55 0.68 1.39
-7.49 0.69 1.40
-7.31 0.69 1.42
-7.19 0.70 1.43
-7.26 0.72 1.42
-7.19 0.73 1.43
-7.04 0.76 1.44
-7.13 0.82 1.43
-7.03 0.82 1.44
-7.23 0.86 1.42
-7.12 0.92 1.43
-7.06 0.93 1.44
-7.01 0.95 1.44
-7.03 0.97 1.44
-7.12 1.00 1.43
-7.06 1.01 1.44
-6.99 1.01 1.44
-7.15 1.05 1.42
-6.99 1.05 1.44
-7.17 1.09 1.42
-7.11 1.10 1.43
-4.42 0.82 1.70
-4.53 0.94 1.68
-4.75 1.15 1.66
-4.43 1.09 1.69
-4.63 1.16 1.67
-4.77 1.25 1.65
-4.89 1.30 1.64
-4.03 1.52 1.71
-4.48 1.69 1.66
-10.25 -1.43 0.91
-10.08 -1.35 0.93
-9.99 -1.19 0.94
-10.10 -1.17 0.93
-10.16 -1.14 0.92
-10.43 -1.14 0.89
-10.01 -1.07 0.94
-10.00 -1.04 0.94
-9.98 -1.01 0.94
-10.21 -1.00 0.92
-8.08 -0.80 1.13
-10.15 -0.93 0.92
-10.25 -0.91 0.91
-9.87 -0.85 0.95
-9.97 -0.83 0.94
-10.45 -0.83 0.89
-10.61 -0.81 0.87
-8.14 -0.63 1.12
-8.31 -0.61 1.10
-10.39 -0.70 0.90
-8.22 -0.56 1.11
-8.46 -0.55 1.09
-8.42 -0.52 1.09
-8.14 -0.48 1.12
-7.97 -0.45 1.14
-7.81 -0.41 1.15
-2.04 -0.17 1.73
-2.13 -0.16 1.72
-10.26 -0.42 0.91
-10.32 -0.40 0.90
-9.68 -0.35 0.97
-9.70 -0.32 0.96
-9.53 -0.28 0.98
-9.60 -0.26 0.97
-9.57 -0.23 0.97
-9.80 -0.20 0.95
-9.67 -0.17 0.96
-8.02 -0.12 1.13
-9.68 -0.11 0.96
-9.72 -0.09 0.96
-9.61 -0.06 0.97
-9.65 -0.03 0.97
-9.96 0.01 1.10
-10.14 0.03 1.08
-6.86 0.04 1.43
-12.59 0.10 0.82
-10.22 0.11 1.07
-7.99 0.11 1.30
-10.00 0.16 1.09
-10.01 0.18 1.09
-7.32 0.15 1.38
-7.26 0.17 1.38
-7.23 0.18 1.38
-6.95 0.19 1.41
-7.11 0.22 1.40
-7.08 0.23 1.40
-7.07 0.25 1.40
-6.94 0.26 1.41
-14.67 0.69 0.59
-6.96 0.35 1.41
-7.27 0.38 1.38
-10.88 0.59 0.99
-7.16 0.41 1.39
-7.50 0.45 1.35
-7.09 0.44 1.39
-7.24 0.47 1.38
-7.18 0.49 1.38
-7.15 0.50 1.39
-7.32 0.53 1.37
-10.94 0.81 0.98
-11.51 0.88 0.92
-11.39 0.90 0.93
-7.40 0.61 1.36
-7.42 0.63 1.36
-7.55 0.66 1.34
-7.24 0.65 1.37
-7.46 0.69 1.35
-11.67 1.09 0.90
-7.26 0.71 1.37
-7.08 0.71 1.39
-7.05 0.72 1.39
-6.97 0.73 1.40
-6.91 0.74 1.41
-7.01 0.77 1.40
-7.05 0.79 1.39
-7.12 0.82 1.38
-7.11 0.84 1.38
-7.11 0.85 1.38
-4.93 0.61 1.62
-6.94 0.87 1.40
-7.12 0.91 1.38
-7.00 0.91 1.39
-7.09 0.94 1.38
-7.04 0.95 1.39
-7.17 0.99 1.37
-7.10 1.00 1.38
-7.10 1.01 1.38
-7.08 1.03 1.38
-7.12 1.05 1.38
-6.98 1.05 1.39
-7.03 1.08 1.39
-6.92 1.08 1.40
-6.90 1.09 1.40
-4.80 1.10 1.62
-4.68 1.12 1.63
-4.75 1.16 1.62
-4.70 1.17 1.62
-4.70 1.20 1.62
-4.49 1.16 1.65
-4.48 1.17 1.65
-4.67 1.24 1.62
-4.85 1.31 1.60
-4.46 1.24 1.65
-4.92 1.37 1.59
-4.64 1.34 1.62
-5.04 1.47 1.58
-4.83 1.45 1.60
-5.06 1.55 1.57
-4.78 1.48 1.60
-4.93 1.55 1.59
-4.85 1.57 1.59
-4.44 1.49 1.64
-4.61 1.56 1.62
-4.54 1.58 1.62
-4.75 1.66 1.60
-4.50 1.62 1.62
-4.48 1.66 1.63
-4.45 1.67 1.63
-2.75 -1.61 1.62
-10.07 -1.47 0.85
-10.00 -1.43 0.85
-9.93 -1.36 0.86
-10.01 -1.34 0.85
-10.10 -1.32 0.84
-10.12 -1.29 0.84
-10.06 -1.26 0.85
-10.09 -1.23 0.84
-9.94 -1.18 0.86
-10.28 -1.19 0.82
-10.01 -1.13 0.85
-10.01 -1.10 0.85
-10.03 -1.07 0.85
-9.91 -1.03 0.86
-9.47 -0.97 0.91
-9.49 -0.94 0.91
-9.60 -0.92 0.90
-9.65 -0.90 0.89
-9.88 -0.88 0.87
-9.90 -0.86 0.86
-9.81 -0.79 0.87
-10.10 -0.78 0.84
-9.43 -0.71 0.91
-8.63 -0.63 1.00
-8.58 -0.61 1.00
-10.35 -0.67 0.81
-10.81 -0.66 0.77
-8.55 -0.50 1.01
-8.03 -0.45 1.06
-8.16 -0.43 1.05
-8.01 -0.40 1.06
-10.02 -0.45 0.85
-10.36 -0.34 1.06
-9.96 -0.30 1.10
-9.80 -0.28 1.12
-10.01 -0.26 1.09
-9.95 -0.23 1.10
-9.92 -0.21 1.10
-10.01 -0.18 1.09
-9.95 -0.16 1.10
-10.29 -0.14 1.06
-10.03 -0.11 1.09
-10.19 -0.09 1.07
-10.43 -0.07 1.05
-10.18 -0.04 1.07
-10.04 -0.01 1.09
-9.22 0.00 0.86
-9.16 0.03 0.86
-9.09 0.06 0.87
-9.37 0.11 0.84
-9.53 0.14 0.82
-5.24 0.20 1.30
-5.18 0.22 1.31
-4.84 0.23 1.35
-4.98 0.25 1.33
-4.69 0.26 1.36
-4.64 0.27 1.37
-4.87 0.30 1.34
-10.12 0.57 0.75
-11.93 1.14 0.79
-11.89 1.17 0.80
-11.85 1.19 0.80
-11.94 1.26 0.79
-4.26 1.60 1.62
-10.04 -1.43 0.77
-9.96 -1.27 0.78
-9.87 -1.21 0.79
-9.80 -1.17 0.80
-9.56 -1.12 0.82
-9.74 -1.11 0.80
-9.85 -1.09 0.79
-9.65 -1.04 0.81
-9.68 -1.01 0.81
-9.36 -0.96 0.85
-9.31 -0.93 0.85
-9.30 -0.90 0.85
-9.40 -0.88 0.84
-9.70 -0.87 0.81
-10.06 -0.87 0.77
-10.04 -0.83 0.77
-9.86 -0.79 0.79
-8.50 -0.68 0.94
-7.75 -0.49 1.03
-8.07 -0.48 0.99
-10.14 -0.54 0.76
-10.57 -0.53 0.71
-10.24 -0.45 0.74
-10.09 -0.42 0.76
-9.84 -0.38 0.79
-10.56 -0.37 0.71
-11.02 -0.29 0.65
-9.54 -0.23 0.82
-9.49 -0.20 0.83
-9.51 -0.17 0.82
-9.35 -0.08 0.84
-9.63 -0.06 0.81
-9.61 -0.03 0.81
-10.15 0.01 0.94
-10.28 0.03 0.92
-10.27 0.06 0.92
-10.47 0.09 0.90
-10.25 0.11 0.92
-10.25 0.13 0.92
-10.20 0.16 0.93
-11.31 0.20 0.80
-10.23 0.21 0.92
-10.25 0.23 0.92
-11.24 0.28 0.80
-4.49 0.19 1.61
-10.85 0.49 0.85
-10.98 0.52 0.83
-14.45 0.75 0.41
-4.09 0.27 1.66
-10.96 0.73 0.83
-11.31 0.81 0.78
-11.67 0.86 0.74
-12.07 0.92 0.69
-11.60 0.92 0.75
-11.79 0.96 0.72
-11.77 0.99 0.73
-11.66 1.01 0.74
-11.66 1.03 0.74
-11.96 1.12 0.70
-11.93 1.15 0.70
-11.86 1.17 0.71
-11.93 1.20 0.70
-11.83 1.22 0.72
-12.49 1.51 0.63
-3.81 1.30 1.65
-9.87 -1.39 0.70
-10.26 -1.40 0.65
-10.05 -1.35 0.68
-9.86 -1.30 0.70
-9.35 -1.19 0.76
-9.30 -1.15 0.77
-9.37 -1.13 0.76
-9.22 -1.09 0.78
-9.57 -1.09 0.74
-9.74 -1.08 0.72
-9.60 -1.04 0.73
-9.03 -0.96 0.80
-9.19 -0.95 0.78
-8.90 -0.90 0.82
-9.11 -0.89 0.79
-10.00 -0.92 0.68
-10.17 -0.91 0.66
-10.32 -0.89 0.65
-6.12 -0.55 1.15
-10.39 -0.77 0.64
-10.35 -0.57 0.92
-10.71 -0.56 0.87
-10.56 -0.53 0.89
-10.78 -0.51 0.87
-10.97 -0.50 0.84
-8.67 -0.37 1.12
-10.84 -0.44 0.86
-10.71 -0.41 0.87
-10.67 -0.38 0.88
-10.77 -0.36 0.87
-10.28 -0.32 0.92
-10.39 -0.29 0.91
-10.17 -0.26 0.94
-10.55 -0.25 0.89
-10.38 -0.22 0.91
-10.05 -0.19 0.95
-10.45 -0.17 0.90
-9.99 -0.14 0.96
-10.48 -0.12 0.90
-10.19 -0.09 0.93
-10.05 -0.06 0.95
-10.07 -0.04 0.95
-10.12 -0.02 0.94
-4.90 0.00 1.24
-5.11 0.02 1.22
-5.16 0.04 1.21
-10.05 0.08 0.88
-10.08 0.11 0.87
-7.05 0.09 1.26
-7.39 0.11 1.21
-10.40 0.19 0.83
-10.59 0.21 0.81
-10.69 0.24 0.80
-10.60 0.27 0.81
-10.48 0.29 0.82
-8.17 0.27 1.11
-9.39 0.35 0.96
-10.19 0.41 0.86
-10.64 0.45 0.80
-14.32 0.64 0.33
-14.65 0.69 0.29
-10.31 0.51 0.84
-10.30 0.56 0.84
-10.46 0.59 0.82
-10.50 0.62 0.81
-10.74 0.66 0.78
-11.14 0.74 0.73
-7.13 0.50 1.24
-6.97 0.52 1.26
-7.17 0.55 1.23
-7.06 0.56 1.25
-7.08 0.58 1.25
-7.02 0.61 1.25
-6.97 0.63 1.26
-6.88 0.65 1.27
-6.74 0.66 1.29
-6.79 0.69 1.28
-6.77 0.71 1.28
-6.87 0.74 1.27
-6.88 0.77 1.27
-6.96 0.80 1.25
-6.89 0.81 1.26
-6.95 0.83 1.25
-6.86 0.84 1.27
-6.73 0.84 1.28
-6.71 0.86 1.28
-6.61 0.88 1.30
-6.78 0.92 1.27
-6.99 0.96 1.25
-6.97 0.99 1.25
-7.23 1.05 1.21
-7.13 1.09 1.22
-6.88 1.07 1.26
-6.93 1.09 1.25
-6.79 1.09 1.27
-7.03 1.14 1.24
-6.97 1.15 1.24
-6.94 1.17 1.25
-7.07 1.22 1.23
-6.99 1.23 1.24
-7.06 1.26 1.23
-4.09 0.84 1.61
-4.44 1.22 1.55
-9.26 -1.40 0.69
-7.29 -1.14 0.94
-9.63 -1.36 0.65
-9.84 -1.35 0.62
-9.31 -1.27 0.69
-9.26 -1.23 0.70
-9.42 -1.22 0.67
-9.28 -1.18 0.69
-9.33 -1.16 0.69
-9.21 -1.12 0.70
-9.29 -1.10 0.69
-9.69 -1.10 0.64
-8.88 -1.00 0.74
-9.06 -0.99 0.72
-8.76 -0.94 0.76
-8.80 -0.92 0.75
-5.85 -0.66 1.13
-5.85 -0.64 1.13
-8.88 -0.84 0.74
-8.91 -0.81 0.74
-9.10 -0.80 0.71
-9.69 -0.81 0.64
-9.26 -0.76 0.69
-6.33 -0.52 1.06
-9.91 -0.71 0.61
-10.07 -0.69 0.59
-9.83 -0.59 0.62
-9.66 -0.55 0.64
-8.82 -0.49 0.75
-9.15 -0.47 0.71
-8.53 -0.42 0.79
-8.19 -0.38 0.83
-10.21 -0.42 0.57
-7.80 -0.32 0.88
-10.55 -0.37 0.53
-8.23 -0.28 0.82
-7.96 -0.25 0.86
-9.31 -0.25 0.68
-9.38 -0.23 0.68
-8.90 -0.19 0.74
-9.17 -0.17 0.70
-9.09 -0.14 0.71
-8.93 -0.11 0.73
-8.98 -0.08 0.73
-9.02 -0.06 0.72
-4.89 -0.02 1.24
-6.79 0.00 1.24
-7.04 0.02 1.21
-6.55 0.04 1.27
-9.87 0.08 0.83
-9.79 0.10 0.84
-9.89 0.15 0.83
-10.75 0.19 0.71
-11.30 0.23 0.63
-9.99 0.23 0.81
-10.29 0.28 0.77
-10.06 0.30 0.80
-9.99 0.32 0.81
-10.02 0.35 0.80
-10.02 0.37 0.80
-10.08 0.40 0.80
-9.89 0.42 0.82
-6.64 0.30 1.26
-10.25 0.48 0.77
-6.33 0.32 1.30
-6.82 0.36 1.23
-6.67 0.37 1.25
-6.55 0.38 1.27
-10.22 0.61 0.77
-7.10 0.44 1.19
-6.53 0.42 1.27
-6.90 0.46 1.22
-6.63 0.46 1.25
-6.74 0.49 1.24
-6.76 0.51 1.24
-6.96 0.54 1.21
-6.90 0.55 1.22
-6.82 0.56 1.23
-6.89 0.58 1.22
-6.77 0.59 1.23
-6.89 0.62 1.22
-8.54 0.78 0.99
-6.79 0.64 1.23
-8.62 0.83 0.98
-6.96 0.69 1.20
-6.78 0.69 1.23
-6.79 0.73 1.23
-6.72 0.74 1.24
-6.71 0.75 1.24
-6.87 0.79 1.21
-6.87 0.81 1.21
-6.72 0.81 1.23
-6.64 0.81 1.24
-6.61 0.83 1.25
-6.70 0.85 1.23
-9.76 1.25 0.82
-6.82 0.90 1.22
-6.90 0.93 1.21
-6.91 0.95 1.20
-6.68 0.94 1.23
-6.79 0.97 1.22
-6.66 0.97 1.24
-6.88 1.02 1.20
-6.77 1.02 1.22
-6.89 1.05 1.20
-7.13 1.11 1.17
-6.97 1.10 1.19
-7.19 1.15 1.16
-6.85 1.12 1.21
-6.84 1.13 1.21
-7.04 1.18 1.18
-7.12 1.21 1.17
-7.17 1.24 1.16
-7.10 1.25 1.17
-7.09 1.26 1.17
-7.03 1.27 1.18
-7.11 1.30 1.17
-7.11 1.32 1.16
-7.11 1.34 1.16
-7.13 1.36 1.16
-6.81 1.32 1.20
-6.95 1.37 1.18
-7.08 1.41 1.17
-6.91 1.39 1.19
-6.94 1.42 1.18
-6.78 1.40 1.20
-6.95 1.46 1.18
-7.00 1.48 1.17
-6.80 1.46 1.20
-6.88 1.49 1.19
-6.89 1.52 1.19
-6.84 1.52 1.19
-6.73 1.52 1.21
-6.91 1.57 1.18
-6.89 1.59 1.18
-4.17 1.13 1.55
-4.46 1.21 1.51
-4.57 1.26 1.49
-4.19 1.18 1.55
-4.50 1.27 1.50
-4.21 1.21 1.54
-4.30 1.24 1.53
-4.28 1.25 1.53
-4.40 1.31 1.51
-4.70 1.40 1.47
-4.29 1.36 1.53
-4.45 1.48 1.50
-4.38 1.48 1.51
-4.67 1.62 1.46
-4.44 1.56 1.50
-4.36 1.55 1.51
-4.30 1.55 1.51
-7.82 -1.43 0.80
-9.17 -1.53 0.62
-9.30 -1.52 0.60
-7.73 -1.27 0.81
-8.16 -1.30 0.76
-7.51 -1.19 0.84
-7.69 -1.19 0.82
-9.40 -1.36 0.59
-9.41 -1.34 0.59
-9.35 -1.30 0.60
-9.35 -1.27 0.60
-9.16 -1.22 0.62
-9.26 -1.21 0.61
-8.99 -1.15 0.65
-9.01 -1.12 0.64
-8.95 -1.09 0.65
-8.50 -1.02 0.71
-8.72 -1.02 0.68
-9.02 -1.02 0.64
-9.07 -0.99 0.63
-8.87 -0.95 0.66
-8.93 -0.93 0.65
-8.81 -0.89 0.67
-5.90 -0.64 1.06
-8.91 -0.84 0.66
-8.81 -0.81 0.67
-8.90 -0.79 0.66
-8.78 -0.75 0.67
-6.49 -0.58 0.98
-9.27 -0.73 0.61
-6.03 -0.51 1.04
-4.77 -0.41 1.21
-4.68 -0.39 1.22
-8.13 -0.53 0.76
-8.90 -0.54 0.66
-9.20 -0.53 0.61
-9.39 -0.51 0.59
-3.57 -0.24 1.37
-8.07 -0.40 0.77
-7.81 -0.37 0.80
-7.97 -0.35 0.78
-4.73 -0.22 1.21
-8.22 -0.31 0.75
-9.68 -0.32 0.55
-9.11 -0.28 0.63
-4.37 -0.13 1.26
-4.91 -0.12 1.19
-9.97 -0.14 0.82
-9.86 -0.11 0.83
-10.01 -0.09 0.81
-6.45 -0.04 1.29
-9.79 -0.04 0.84
-9.75 -0.02 0.85
-8.61 0.02 0.61
-4.59 0.03 1.18
-4.37 0.05 1.21
-4.46 0.07 1.20
-4.67 0.09 1.17
-4.62 0.10 1.17
-4.67 0.12 1.17
-4.83 0.14 1.14
-4.80 0.16 1.15
-4.82 0.19 1.14
-9.83 0.29 0.76
-10.66 0.34 0.64
-10.24 0.36 0.70
-9.71 0.36 0.77
-9.70 0.39 0.78
-6.68 0.28 1.20
-9.72 0.43 0.77
-9.74 0.46 0.77
-9.64 0.48 0.78
-9.94 0.56 0.74
-10.05 0.59 0.72
-10.40 0.64 0.67
-6.84 0.44 1.18
-10.35 0.69 0.68
-7.02 0.49 1.15
-8.97 0.64 0.87
-9.09 0.67 0.86
-8.66 0.66 0.92
-7.05 0.56 1.14
-6.54 0.54 1.22
-8.56 0.72 0.93
-8.58 0.74 0.93
-8.53 0.76 0.93
-10.96 1.00 0.59
-10.79 1.01 0.61
-6.73 0.65 1.19
-6.77 0.69 1.18
-10.62 1.10 0.63
-10.09 1.07 0.71
-6.55 0.72 1.21
-6.50 0.73 1.22
-10.14 1.15 0.70
-9.75 1.13 0.75
-6.83 0.82 1.17
-9.61 1.16 0.77
-9.69 1.20 0.76
-9.74 1.23 0.75
-9.73 1.25 0.75
-9.76 1.28 0.75
-7.26 0.98 1.10
-6.73 0.92 1.18
-6.83 0.96 1.16
-6.97 0.99 1.14
-6.85 0.99 1.16
-6.78 1.00 1.17
-6.73 1.01 1.18
-6.65 1.02 1.19
-6.98 1.08 1.14
-6.82 1.07 1.16
-6.95 1.11 1.14
-6.99 1.14 1.14
-7.11 1.17 1.12
-6.98 1.17 1.13
-7.06 1.20 1.12
-7.21 1.26 1.10
-7.09 1.26 1.12
-7.21 1.30 1.10
-7.18 1.31 1.10
-7.15 1.33 1.11
-7.01 1.32 1.13
-7.16 1.36 1.10
-7.03 1.36 1.12
-7.16 1.40 1.10
-7.00 1.39 1.12
-7.08 1.42 1.11
-7.07 1.44 1.11
-6.86 1.42 1.14
-6.74 1.41 1.16
-6.87 1.45 1.14
-6.88 1.47 1.14
-6.83 1.48 1.14
-6.72 1.48 1.16
-6.88 1.53 1.13
-6.82 1.53 1.14
-6.85 1.56 1.14
-6.83 1.57 1.14
-6.76 1.57 1.15
-6.76 1.59 1.15
-6.86 1.63 1.13
-1.46 -0.69 1.63
-7.79 -1.50 0.73
-9.21 -1.62 0.53
-9.26 -1.60 0.52
-9.16 -1.56 0.54
-9.18 -1.53 0.54
-7.26 -1.26 0.81
-6.33 -1.11 0.94
-1.47 -0.49 1.63
-7.53 -1.22 0.77
-7.52 -1.19 0.77
-9.09 -1.35 0.55
-9.10 -1.33 0.55
-9.05 -1.29 0.55
-8.68 -1.23 0.61
-8.60 -1.19 0.62
-8.51 -1.15 0.63
-8.86 -1.16 0.58
-8.74 -1.13 0.60
-8.77 -1.10 0.59
-8.83 -1.08 0.59
-8.77 -1.05 0.60
-8.93 -1.04 0.57
-8.81 -1.00 0.59
-8.45 -0.94 0.64
-8.84 -0.95 0.59
-9.16 -0.95 0.54
-8.87 -0.89 0.58
-8.97 -0.88 0.57
-9.15 -0.86 0.54
-8.65 -0.80 0.61
-8.62 -0.77 0.62
-8.43 -0.73 0.64
-8.45 -0.71 0.64
-9.17 -0.72 0.54
-8.20 -0.64 0.67
-6.13 -0.49 0.97
-8.32 -0.59 0.66
-8.75 -0.59 0.60
-8.81 -0.57 0.59
-6.32 -0.42 0.94
-8.31 -0.49 0.66
-8.55 -0.47 0.62
-7.82 -0.42 0.73
-8.21 -0.41 0.67
-7.76 -0.37 0.73
-7.55 -0.34 0.76
-7.76 -0.32 0.73
-8.36 -0.31 0.65
-7.99 -0.28 0.70
-7.54 -0.24 0.77
-7.64 -0.22 0.75
-5.32 -0.15 1.08
-8.02 -0.15 0.70
-8.42 -0.13 0.64
-8.55 -0.11 0.62
-8.63 -0.08 0.61
-8.63 -0.05 0.61
-4.39 -0.02 1.21
-6.41 0.00 1.19
-6.36 0.02 1.20
-6.13 0.03 1.23
-6.37 0.05 1.20
-9.59 0.10 0.72
-6.30 0.08 1.21
-9.91 0.15 0.67
-6.48 0.12 1.18
-10.38 0.21 0.60
-9.36 0.21 0.75
-9.37 0.23 0.75
-5.86 0.16 1.27
-9.43 0.28 0.74
-9.48 0.31 0.73
-9.38 0.33 0.74
-7.41 0.28 1.04
-6.15 0.25 1.23
-7.32 0.31 1.05
-6.04 0.27 1.24
-6.20 0.30 1.22
-9.32 0.46 0.75
-9.64 0.50 0.70
-9.70 0.53 0.69
-9.50 0.54 0.72
-9.50 0.56 0.72
-6.49 0.41 1.17
-6.69 0.43 1.14
-6.67 0.45 1.14
-8.16 0.57 0.92
-9.70 0.69 0.69
-8.36 0.62 0.89
-8.71 0.67 0.84
-7.07 0.56 1.08
-9.90 0.81 0.66
-8.95 0.75 0.80
-7.73 0.67 0.98
-9.60 0.85 0.70
-8.96 0.82 0.80
-9.40 0.88 0.73
-6.82 0.66 1.12
-6.65 0.66 1.14
-6.62 0.68 1.15
-6.75 0.71 1.13
-6.61 0.71 1.15
-6.61 0.73 1.15
-6.70 0.75 1.13
-6.60 0.76 1.15
-6.51 0.77 1.16
-6.47 0.78 1.16
-6.47 0.79 1.16
-6.49 0.81 1.16
-9.77 1.23 0.67
-6.86 0.89 1.10
-6.71 0.89 1.13
-6.90 0.93 1.10
-6.67 0.92 1.13
-6.81 0.96 1.11
-6.90 0.98 1.09
-6.89 1.00 1.09
-6.74 1.00 1.12
-6.93 1.04 1.09
-6.86 1.05 1.10
-6.79 1.06 1.11
-6.88 1.09 1.09
-6.89 1.11 1.09
-6.79 1.11 1.11
-6.89 1.14 1.09
-7.14 1.20 1.05
-7.07 1.21 1.06
-7.12 1.23 1.05
-6.98 1.23 1.07
-7.01 1.25 1.07
-7.06 1.28 1.06
-7.08 1.30 1.06
-7.12 1.32 1.05
-7.24 1.36 1.03
-7.14 1.36 1.05
-7.19 1.39 1.04
-7.06 1.39 1.06
-7.31 1.45 1.02
-7.19 1.45 1.03
-7.08 1.44 1.05
-3.83 0.82 1.55
-7.13 1.49 1.04
-6.89 1.46 1.08
-6.87 1.47 1.08
-6.59 1.44 1.12
-6.87 1.51 1.08
-6.70 1.49 1.10
-6.73 1.52 1.10
-6.77 1.54 1.09
-6.73 1.55 1.10
-6.81 1.59 1.08
-6.72 1.59 1.10
-6.91 1.65 1.07
-6.81 1.64 1.08
-6.74 1.64 1.09
-6.63 1.64 1.11
-4.33 1.25 1.45
-4.30 1.25 1.46
-4.40 1.29 1.44
-4.69 1.43 1.39
-4.58 1.41 1.41
-4.53 1.41 1.42
-4.57 1.43 1.41
-4.50 1.42 1.42
-4.57 1.48 1.41
-4.60 1.51 1.40
-4.46 1.48 1.42
-4.58 1.67 1.39
-7.33 -1.39 0.72
-9.30 -1.64 0.42
-7.67 -1.39 0.67
-7.53 -1.34 0.69
-7.54 -1.32 0.69
-7.64 -1.31 0.67
-7.73 -1.30 0.66
-7.49 -1.24 0.69
-7.68 -1.24 0.67
-7.71 -1.22 0.66
-7.91 -1.22 0.63
-7.83 -1.18 0.64
-7.96 -1.17 0.62
-9.01 -1.26 0.47
-8.17 -1.15 0.59
-8.22 -1.13 0.59
-8.07 -1.08 0.61
-7.86 -1.04 0.64
-8.03 -1.03 0.62
-8.37 -1.04 0.56
-8.38 -1.01 0.56
-8.78 -1.02 0.50
-8.86 -1.00 0.49
-3.61 -0.52 1.27
-4.10 -0.55 1.20
-3.73 -0.50 1.25
-4.13 -0.52 1.20
-5.19 -0.59 1.04
-8.98 -0.85 0.47
-5.51 -0.57 0.99
-5.58 -0.56 0.98
-5.44 -0.53 1.00
-6.14 -0.56 0.90
-5.74 -0.51 0.95
-8.50 -0.66 0.54
-4.94 -0.43 1.07
-4.68 -0.39 1.11
-5.30 -0.41 1.02
-7.71 -0.51 0.66
-7.85 -0.49 0.64
-8.23 -0.49 0.58
-7.78 -0.44 0.65
-7.71 -0.42 0.66
-7.79 -0.39 0.65
-7.77 -0.37 0.65
-8.55 -0.29 0.88
-9.25 -0.29 0.77
-8.39 -0.24 0.90
-5.25 -0.14 1.37
-5.46 -0.13 1.34
-10.28 -0.22 0.62
-9.90 -0.19 0.68
-5.92 -0.10 1.27
-9.71 -0.14 0.70
-5.79 -0.07 1.29
-5.82 -0.05 1.28
-9.81 -0.06 0.69
-6.40 -0.03 1.19
-6.16 -0.01 1.23
-8.44 -0.00 0.47
-8.47 0.02 0.47
-8.55 0.05 0.45
-4.58 0.07 1.08
-4.60 0.08 1.07
-4.51 0.10 1.09
-4.57 0.12 1.08
-4.45 0.13 1.09
-4.61 0.15 1.07
-4.57 0.17 1.07
-4.61 0.19 1.07
-4.69 0.20 1.05
-11.47 0.56 0.35
-11.47 0.62 0.35
-11.70 0.66 0.31
-11.05 0.65 0.41
-9.68 0.60 0.63
-9.10 0.61 0.72
-9.63 0.66 0.63
-8.13 0.58 0.87
-9.65 0.71 0.63
-8.25 0.63 0.85
-9.93 0.78 0.58
-8.95 0.73 0.74
-9.46 0.79 0.66
-9.63 0.83 0.63
-10.01 0.89 0.57
-10.01 0.93 0.57
-9.88 0.95 0.59
-9.96 0.98 0.58
-10.16 1.02 0.54
-10.08 1.04 0.55
-10.41 1.10 0.50
-10.18 1.10 0.54
-10.24 1.13 0.53
-10.40 1.17 0.50
-3.37 0.41 1.61
-10.35 1.22 0.51
-10.15 1.22 0.54
-10.00 1.23 0.56
-9.89 1.24 0.58
-10.06 1.29 0.55
-10.18 1.33 0.53
-9.66 1.29 0.61
-6.83 0.94 1.06
-7.30 1.02 0.98
-7.14 1.03 1.01
-7.03 1.03 1.02
-7.19 1.09 1.00
-7.34 1.13 0.97
-3.53 0.58 1.58
-7.07 1.27 1.01
-7.24 1.47 0.97
-7.04 1.47 1.00
-6.67 1.53 1.06
-3.18 1.04 1.60
-7.56 -1.39 0.61
-7.37 -1.34 0.64
-7.18 -1.29 0.67
-7.32 -1.26 0.65
-9.35 -1.50 0.33
-9.15 -1.45 0.37
-8.95 -1.39 0.40
-7.68 -1.21 0.60
-9.11 -1.36 0.37
-7.79 -1.18 0.58
-7.64 -1.14 0.60
-7.92 -1.14 0.56
-7.89 -1.11 0.56
-8.93 -1.20 0.40
-8.67 -1.15 0.44
-8.20 -1.07 0.52
-7.92 -1.02 0.56
-8.00 -1.00 0.55
-7.95 -0.97 0.55
-8.16 -0.97 0.52
-9.07 -1.02 0.38
-8.96 -0.98 0.40
-8.93 -0.95 0.40
-8.76 -0.91 0.43
-8.45 -0.86 0.48
-8.49 -0.84 0.47
-6.47 -0.66 0.79
-8.96 -0.82 0.40
-6.89 -0.65 0.72
-7.98 -0.70 0.55
-8.09 -0.68 0.53
-7.40 -0.59 0.64
-8.82 -0.62 0.42
-7.44 -0.50 0.63
-7.27 -0.47 0.66
-7.76 -0.47 0.58
-7.76 -0.44 0.58
-7.60 -0.41 0.61
-7.67 -0.39 0.60
-7.54 -0.36 0.62
-7.51 -0.34 0.62
-7.71 -0.32 0.59
-7.73 -0.29 0.59
-7.61 -0.27 0.61
-2.62 -0.12 1.38
-7.88 -0.22 0.56
-7.74 -0.20 0.58
-8.58 -0.19 0.45
-8.36 -0.16 0.49
-8.40 -0.13 0.48
-8.30 -0.11 0.50
-8.39 -0.08 0.48
-8.09 -0.05 0.53
-8.36 -0.03 0.49
-5.80 0.00 1.19
-5.75 0.02 1.20
-5.64 0.03 1.22
-9.92 0.08 0.51
-10.35 0.11 0.44
-9.68 0.12 0.55
-5.55 0.08 1.23
-5.61 0.10 1.22
-5.82 0.12 1.18
-5.31 0.12 1.27
-6.00 0.15 1.15
-5.79 0.16 1.19
-5.65 0.17 1.21
-5.37 0.18 1.26
-5.42 0.19 1.25
-5.44 0.21 1.24
-5.38 0.22 1.25
-5.41 0.23 1.25
-5.55 0.25 1.22
-5.59 0.27 1.22
-5.54 0.28 1.23
-5.52 0.29 1.23
-7.41 0.41 0.92
-5.66 0.33 1.20
-5.60 0.34 1.21
-5.66 0.36 1.20
-5.56 0.36 1.22
-5.60 0.38 1.21
-8.14 0.56 0.79
-9.03 0.65 0.65
-9.01 0.67 0.65
-9.13 0.70 0.63
-8.61 0.68 0.71
-8.85 0.72 0.67
-9.00 0.76 0.65
-9.31 0.80 0.60
-6.82 0.61 1.01
-9.81 0.89 0.51
-8.70 0.82 0.70
-8.32 0.80 0.76
-10.14 1.00 0.46
-10.16 1.03 0.45
-10.21 1.06 0.44
-6.57 0.71 1.05
-6.33 0.70 1.08
-6.37 0.72 1.08
-10.27 1.16 0.43
-6.51 0.77 1.05
-10.16 1.20 0.45
-10.29 1.24 0.42
-7.07 0.88 0.96
-6.79 0.87 1.00
-6.94 0.90 0.98
-7.11 0.94 0.95
-6.97 0.94 0.97
-7.07 0.97 0.95
-7.15 1.00 0.94
-7.11 1.01 0.95
-7.25 1.05 0.92
-7.30 1.08 0.91
-7.11 1.07 0.95
-7.16 1.09 0.94
-6.97 1.08 0.97
-7.04 1.11 0.95
-7.04 1.13 0.95
-7.01 1.14 0.96
-7.18 1.19 0.93
-7.05 1.18 0.95
-6.85 1.17 0.98
-7.11 1.23 0.94
-3.89 0.71 1.48
-6.84 1.22 0.98
-6.75 1.22 1.00
-3.95 0.75 1.46
-6.84 1.27 0.98
-7.00 1.32 0.95
-6.90 1.32 0.97
-7.08 1.37 0.94
-7.01 1.38 0.95
-7.07 1.41 0.94
-7.03 1.42 0.94
-6.95 1.42 0.95
-6.89 1.43 0.97
-7.08 1.48 0.93
-6.99 1.48 0.95
-7.03 1.51 0.94
-7.07 1.54 0.93
-6.93 1.52 0.95
-6.92 1.54 0.95
-6.70 1.51 0.99
-6.95 1.62 0.95
-6.75 1.59 0.98
-6.84 1.63 0.96
-6.73 1.64 0.98
-4.32 1.24 1.38
-3.88 1.28 1.45
-4.31 1.43 1.37
-7.82 -1.48 0.48
-7.61 -1.43 0.52
-7.59 -1.40 0.52
-7.70 -1.39 0.50
-7.75 -1.37 0.50
-7.66 -1.34 0.51
-7.66 -1.31 0.51
-7.59 -1.28 0.52
-8.09 -1.32 0.44
-8.18 -1.30 0.43
-8.24 -1.28 0.42
-7.95 -1.20 0.46
-7.75 -1.15 0.50
-7.81 -1.13 0.49
-7.60 -1.09 0.52
-7.48 -1.05 0.54
-7.64 -1.04 0.52
-7.56 -1.01 0.53
-9.37 -1.16 0.23
-8.08 -1.01 0.44
-7.98 -0.98 0.46
-7.92 -0.95 0.47
-8.54 -0.98 0.37
-3.68 -0.53 1.17
-3.74 -0.52 1.16
-8.21 -0.87 0.42
-8.23 -0.85 0.42
-7.98 -0.80 0.46
-7.55 -0.74 0.53
-8.59 -0.80 0.36
-7.86 -0.72 0.48
-7.82 -0.69 0.49
-7.28 -0.63 0.57
-7.06 -0.59 0.61
-7.91 -0.62 0.47
-6.28 -0.50 0.74
-8.17 -0.59 0.43
-4.55 -0.25 1.40
-4.39 -0.23 1.42
-4.80 -0.24 1.36
-8.52 -0.39 0.75
-8.63 -0.37 0.73
-9.08 -0.37 0.65
-9.26 -0.36 0.63
-9.37 -0.34 0.61
-9.56 -0.32 0.58
-9.63 -0.30 0.56
-9.59 -0.27 0.57
-10.48 -0.27 0.42
-11.08 -0.26 0.33
-10.36 -0.22 0.44
-9.53 -0.18 0.58
-10.39 -0.17 0.44
-10.83 -0.15 0.37
-9.80 -0.11 0.54
-9.83 -0.09 0.53
-9.78 -0.07 0.54
-9.98 -0.04 0.50
-5.98 -0.01 1.16
-4.22 -0.00 1.02
-4.37 0.02 0.99
-4.30 0.03 1.01
-5.40 0.04 1.21
-5.55 0.06 1.19
-5.56 0.07 1.18
-5.43 0.08 1.20
-5.36 0.09 1.22
-5.28 0.11 1.23
-5.30 0.12 1.23
-5.22 0.13 1.24
-5.38 0.15 1.21
-5.42 0.16 1.21
-5.25 0.17 1.23
-5.27 0.19 1.23
-5.32 0.20 1.22
-5.25 0.21 1.23
-5.37 0.23 1.21
-5.26 0.24 1.23
-5.24 0.25 1.23
-5.33 0.27 1.22
-5.24 0.28 1.23
-5.37 0.30 1.21
-5.37 0.31 1.21
-5.42 0.33 1.20
-5.52 0.34 1.18
-5.29 0.34 1.22
-5.35 0.36 1.21
-7.70 0.53 0.81
-7.94 0.57 0.76
-7.88 0.58 0.77
-8.41 0.64 0.68
-8.74 0.69 0.62
-8.41 0.68 0.68
-5.49 0.47 1.18
-8.55 0.74 0.66
-6.11 0.55 1.08
-6.13 0.57 1.07
-5.96 0.57 1.10
-3.33 0.33 1.56
-5.96 0.60 1.10
-3.28 0.35 1.57
-3.38 0.37 1.55
-3.54 0.39 1.52
-6.23 0.68 1.05
-6.22 0.70 1.05
-6.39 0.73 1.02
-6.22 0.73 1.05
-6.45 0.77 1.01
-6.38 0.78 1.02
-10.07 1.24 0.38
-7.00 0.89 0.91
-6.88 0.89 0.93
-6.80 0.90 0.95
-7.15 0.96 0.88
-7.00 0.96 0.91
-7.08 0.99 0.90
-7.09 1.01 0.89
-7.07 1.02 0.90
-7.12 1.05 0.89
-7.19 1.08 0.87
-6.96 1.06 0.91
-4.17 0.66 1.40
-4.05 0.66 1.42
-7.00 1.12 0.90
-3.59 0.60 1.50
-4.17 0.71 1.40
-3.84 0.66 1.46
-3.88 0.68 1.45
-6.81 1.18 0.93
-3.73 0.68 1.47
-6.66 1.19 0.96
-3.98 0.74 1.43
-6.71 1.23 0.95
-4.03 0.77 1.42
-6.78 1.28 0.94
-6.77 1.29 0.93
-6.76 1.31 0.94
-6.79 1.33 0.93
-6.84 1.36 0.92
-6.88 1.38 0.91
-6.88 1.40 0.91
-6.90 1.42 0.91
-6.98 1.46 0.89
-3.98 0.87 1.42
-3.85 0.85 1.44
-3.92 0.88 1.43
-3.90 0.88 1.43
-3.94 0.90 1.43
-6.99 1.57 0.88
-7.03 1.60 0.88
-6.99 1.61 0.88
-6.85 1.59 0.91
-3.63 0.89 1.48
-3.91 0.96 1.43
-3.90 0.97 1.43
-4.24 1.20 1.36
-4.08 1.17 1.39
-4.06 1.18 1.39
-4.05 1.18 1.39
-3.92 1.17 1.41
-4.02 1.22 1.39
-4.40 1.34 1.33
-4.05 1.25 1.39
-3.91 1.22 1.41
-3.98 1.32 1.39
-4.06 1.37 1.38
-4.18 1.43 1.35
-7.77 -1.52 0.41
-7.69 -1.49 0.43
-7.61 -1.45 0.44
-7.67 -1.43 0.43
-7.46 -1.38 0.46
-7.35 -1.34 0.49
-7.39 -1.32 0.48
-7.30 -1.29 0.49
-7.28 -1.26 0.50
-7.22 -1.23 0.51
-7.63 -1.26 0.44
-7.42 -1.21 0.47
-7.21 -1.16 0.51
-7.24 -1.14 0.50
-7.24 -1.12 0.51
-7.45 -1.12 0.47
-3.60 -0.67 1.13
-7.69 -1.10 0.43
-7.76 -1.08 0.42
-7.78 -1.06 0.41
-7.90 -1.04 0.39
-7.99 -1.03 0.38
-8.22 -1.02 0.34
-8.37 -1.01 0.31
-8.31 -0.98 0.32
-8.39 -0.96 0.31
-8.12 -0.91 0.35
-8.16 -0.89 0.35
-7.26 -0.79 0.50
-6.83 -0.74 0.58
-7.42 -0.76 0.47
-7.38 -0.73 0.48
-7.12 -0.69 0.53
-7.61 -0.70 0.44
-7.43 -0.64 0.47
-6.89 -0.58 0.57
-7.04 -0.57 0.54
-6.15 -0.50 0.69
-3.13 -0.31 1.21
-5.61 -0.43 0.79
-5.88 -0.42 0.74
-5.96 -0.40 0.72
-6.08 -0.39 0.70
-6.26 -0.38 0.67
-6.55 -0.35 0.62
-6.77 -0.33 0.59
-6.68 -0.31 0.60
-6.85 -0.29 0.57
-2.85 -0.15 1.26
-3.09 -0.15 1.22
-3.66 -0.15 1.12
-7.64 -0.22 0.43
-4.49 -0.13 0.98
-4.40 -0.12 0.99
-4.32 -0.10 1.01
-4.48 -0.08 0.98
-4.29 -0.07 1.01
-4.16 -0.05 1.03
-4.28 -0.03 1.01
-4.37 -0.02 1.00
-5.65 0.00 1.12
-5.77 0.02 1.10
-5.52 0.03 1.14
-5.66 0.04 1.12
-5.55 0.06 1.14
-5.63 0.07 1.12
-5.44 0.08 1.16
-5.44 0.10 1.16
-5.43 0.11 1.16
-5.43 0.12 1.16
-5.51 0.14 1.14
-5.43 0.15 1.16
-5.44 0.16 1.15
-5.43 0.18 1.16
-5.41 0.19 1.16
-5.53 0.21 1.14
-5.45 0.22 1.15
-5.48 0.23 1.15
-5.48 0.25 1.15
-5.65 0.27 1.11
-5.61 0.28 1.12
-5.42 0.28 1.15
-7.69 0.42 0.74
-7.52 0.43 0.77
-7.56 0.45 0.77
-7.42 0.46 0.79
-7.36 0.47 0.80
-7.52 0.50 0.77
-7.62 0.53 0.75
-7.84 0.56 0.71
-7.96 0.59 0.69
-8.01 0.61 0.68
-7.94 0.63 0.69
-7.88 0.64 0.70
-7.95 0.67 0.69
-8.08 0.70 0.67
-8.20 0.73 0.64
-8.13 0.74 0.66
-7.15 0.67 0.83
-6.13 0.60 1.02
-6.13 0.61 1.02
-6.11 0.63 1.02
-6.35 0.67 0.98
-6.41 0.69 0.96
-6.34 0.70 0.98
-6.25 0.70 0.99
-6.36 0.73 0.97
-6.25 0.73 0.99
-6.35 0.76 0.97
-7.42 0.90 0.78
-7.07 0.88 0.84
-7.62 0.97 0.74
-7.24 0.94 0.81
-7.29 0.96 0.80
-7.35 0.99 0.79
-5.02 0.70 1.21
-7.06 0.99 0.84
-7.05 1.00 0.84
-7.01 1.01 0.85
-6.96 1.03 0.85
-7.06 1.06 0.84
-7.06 1.07 0.84
-6.87 1.06 0.87
-6.60 1.04 0.92
-6.73 1.08 0.89
-6.58 1.07 0.92
-6.61 1.09 0.91
-6.54 1.10 0.92
-4.63 0.80 1.28
-4.11 0.73 1.37
-4.45 0.80 1.31
-6.76 1.20 0.88
-4.58 0.84 1.28
-6.78 1.24 0.88
-4.50 0.85 1.30
-6.90 1.30 0.85
-4.40 0.86 1.31
-4.72 0.93 1.25
-6.84 1.34 0.86
-6.65 1.32 0.89
-6.72 1.35 0.88
-6.86 1.40 0.85
-6.91 1.43 0.85
-6.89 1.44 0.85
-6.83 1.45 0.86
-4.10 0.90 1.36
-6.99 1.52 0.83
-6.93 1.52 0.84
-4.29 0.98 1.33
-4.17 0.96 1.35
-4.36 1.02 1.31
-7.06 1.62 0.81
-7.03 1.64 0.81
-6.87 1.62 0.84
-4.46 1.09 1.29
-6.83 1.64 0.85
-4.37 1.09 1.31
-6.88 1.69 0.84
-4.26 1.15 1.32
-4.36 1.25 1.30
-4.32 1.25 1.30
-4.23 1.24 1.32
-4.43 1.30 1.28
-4.75 1.40 1.22
-4.65 1.39 1.24
-4.41 1.33 1.28
-4.27 1.31 1.31
-4.54 1.40 1.26
-4.44 1.42 1.27
-4.10 1.33 1.34
-4.72 1.57 1.21
-4.54 1.57 1.24
-4.23 1.49 1.30
-4.50 1.64 1.24
-7.39 -1.37 0.40
-7.51 -1.36 0.37
-7.48 -1.34 0.38
-7.21 -1.28 0.43
-7.25 -1.26 0.42
-7.26 -1.24 0.42
-7.28 -1.22 0.42
-7.26 -1.19 0.42
-7.36 -1.18 0.40
-7.18 -1.13 0.44
-7.03 -1.09 0.46
-6.92 -1.06 0.48
-6.81 -1.02 0.50
-6.61 -0.98 0.54
-6.90 -0.99 0.49
-4.67 -0.74 0.89
-4.59 -0.71 0.90
-6.73 -0.90 0.52
-4.61 -0.68 0.90
-4.29 -0.60 0.96
-6.63 -0.79 0.54
-4.19 -0.56 0.98
-4.44 -0.56 0.93
-3.81 -0.50 1.04
-3.80 -0.48 1.05
-3.78 -0.46 1.05
-3.67 -0.44 1.07
-3.52 -0.42 1.10
-3.53 -0.40 1.10
-7.48 -0.65 0.38
-7.29 -0.61 0.42
-7.09 -0.57 0.45
-6.90 -0.54 0.49
-6.91 -0.52 0.48
-5.21 -0.41 0.79
-6.33 -0.44 0.59
-5.89 -0.40 0.67
-5.95 -0.39 0.66
-6.12 -0.37 0.63
-6.57 -0.37 0.55
-6.42 -0.34 0.57
-6.31 -0.32 0.59
-6.07 -0.29 0.63
-4.88 -0.23 0.85
-4.82 -0.21 0.86
-5.14 -0.20 0.80
-7.25 -0.24 0.42
-7.25 -0.21 0.42
-4.42 -0.13 0.93
-4.43 -0.12 0.93
-5.65 -0.08 1.12
-5.58 -0.07 1.13
-5.80 -0.06 1.09
-5.80 -0.04 1.09
-5.88 -0.03 1.08
-5.70 -0.01 1.11
-4.42 -0.00 0.87
-4.55 0.01 0.85
-4.48 0.03 0.86
-4.57 0.05 0.84
-4.55 0.06 0.85
-4.46 0.08 0.86
-2.14 0.07 1.30
-4.69 0.12 0.82
-4.64 0.13 0.83
-2.08 0.10 1.31
-4.59 0.17 0.84
-2.17 0.12 1.29
-5.23 0.16 1.15
-5.21 0.17 1.15
-5.05 0.18 1.18
-5.24 0.20 1.14
-5.18 0.21 1.15
-5.38 0.23 1.12
-5.48 0.25 1.10
-5.50 0.26 1.09
-5.66 0.28 1.06
-5.58 0.29 1.08
-8.06 0.44 0.61
-7.92 0.45 0.63
-7.81 0.46 0.65
-7.60 0.47 0.69
-7.72 0.49 0.67
-7.68 0.51 0.68
-7.97 0.55 0.62
-8.16 0.58 0.58
-7.98 0.59 0.62
-8.23 0.63 0.57
-8.01 0.63 0.61
-8.50 0.69 0.52
-3.51 0.30 1.46
-3.41 0.31 1.48
-3.49 0.32 1.47
-3.43 0.33 1.48
-3.60 0.35 1.45
-3.58 0.36 1.45
-8.43 0.83 0.53
-3.57 0.37 1.45
-8.20 0.85 0.57
-6.39 0.68 0.91
-6.23 0.71 0.94
-7.15 0.87 0.76
-7.25 0.90 0.74
-4.00 0.52 1.36
-7.24 0.93 0.74
-7.02 0.92 0.79
-7.00 0.94 0.79
-7.07 0.97 0.78
-4.12 0.59 1.34
-7.01 0.99 0.78
-3.87 0.57 1.39
-6.91 1.02 0.80
-4.16 0.65 1.33
-4.06 0.64 1.35
-4.17 0.67 1.33
-4.23 0.69 1.31
-4.13 0.69 1.33
-4.01 0.68 1.36
-4.16 0.71 1.33
-4.23 0.74 1.31
-4.00 0.71 1.36
-4.21 0.76 1.31
-4.08 0.74 1.34
-3.92 0.73 1.37
-6.78 1.24 0.82
-3.87 0.75 1.38
-3.76 0.74 1.40
-7.03 1.36 0.76
-3.78 0.76 1.39
-6.94 1.38 0.78
-6.82 1.37 0.80
-3.55 0.75 1.43
-6.60 1.36 0.84
-3.67 0.79 1.41
-6.79 1.44 0.80
-6.87 1.47 0.79
-6.92 1.50 0.78
-3.97 0.90 1.35
-6.98 1.55 0.76
-3.98 0.92 1.35
-6.83 1.55 0.79
-6.94 1.59 0.77
-3.74 0.90 1.39
-7.02 1.65 0.75
-6.90 1.66 0.77
-3.90 0.99 1.36
-4.19 1.07 1.30
-4.08 1.09 1.32
-3.85 1.10 1.36
-4.20 1.21 1.29
-4.18 1.22 1.29
-4.09 1.20 1.31
-4.07 1.21 1.31
-4.08 1.22 1.31
-3.95 1.21 1.33
-4.00 1.25 1.32
-3.87 1.22 1.35
-3.97 1.29 1.32
-3.85 1.32 1.34
-3.95 1.39 1.32
-4.27 1.63 1.24
-7.25 -1.26 0.34
-7.17 -1.22 0.35
-7.01 -1.18 0.38
-6.99 -1.16 0.39
-7.00 -1.13 0.39
-6.95 -1.11 0.40
-6.74 -1.06 0.44
-1.99 -0.50 1.34
-1.88 -0.48 1.36
-6.68 -0.99 0.45
-6.60 -0.96 0.46
-4.63 -0.73 0.84
-4.92 -0.73 0.78
-4.74 -0.69 0.82
-6.36 -0.80 0.51
-6.55 -0.80 0.47
-6.74 -0.79 0.44
-3.21 -0.45 1.11
-6.30 -0.67 0.52
-3.45 -0.44 1.06
-3.42 -0.42 1.07
-3.16 -0.39 1.11
-3.49 -0.40 1.05
-3.41 -0.38 1.07
-3.42 -0.37 1.07
-6.95 -0.54 0.40
-7.28 -0.52 0.33
-3.37 -0.29 1.07
-3.35 -0.27 1.08
-6.87 -0.40 0.41
-6.91 -0.38 0.40
-6.60 -0.35 0.46
-3.31 -0.21 1.08
-6.54 -0.30 0.47
-6.56 -0.28 0.47
-6.45 -0.26 0.49
-6.77 -0.25 0.43
-4.79 -0.18 0.80
-4.67 -0.16 0.83
-4.60 -0.14 0.84
-4.57 -0.12 0.84
-4.45 -0.10 0.87
-4.32 -0.08 0.89
-4.29 -0.07 0.90
-4.28 -0.05 0.90
-4.32 -0.03 0.89
-4.31 -0.02 0.89
-5.43 0.00 1.06
-5.49 0.01 1.05
-5.41 0.04 1.06
-5.37 0.05 1.07
-5.36 0.07 1.07
-5.21 0.08 1.10
-5.30 0.09 1.08
-5.37 0.11 1.07
-5.37 0.12 1.07
-5.31 0.15 1.08
-5.28 0.16 1.09
-5.28 0.17 1.08
-5.13 0.19 1.11
-5.17 0.21 1.11
-5.41 0.23 1.06
-8.45 0.40 0.46
-7.69 0.38 0.60
-7.60 0.39 0.62
-7.55 0.41 0.63
-7.71 0.44 0.60
-8.06 0.48 0.53
-8.07 0.50 0.53
-5.39 0.35 1.06
-7.68 0.51 0.60
-7.66 0.53 0.61
-7.85 0.56 0.57
-7.77 0.58 0.58
-7.56 0.58 0.62
-7.81 0.64 0.57
-7.37 0.64 0.66
-7.66 0.68 0.60
-7.59 0.70 0.61
-8.33 0.78 0.47
-7.52 0.73 0.63
-7.98 0.81 0.54
-7.38 0.77 0.65
-7.04 0.75 0.72
-7.38 0.81 0.65
-7.63 0.85 0.60
-7.54 0.86 0.62
-7.32 0.85 0.66
-7.16 0.87 0.69
-7.33 0.91 0.66
-7.26 0.92 0.67
-7.17 0.93 0.69
-7.09 0.94 0.70
-6.94 0.93 0.73
-6.99 0.96 0.72
-6.92 0.97 0.74
-6.72 0.96 0.77
-6.68 0.97 0.78
-6.68 0.99 0.78
-6.81 1.02 0.75
-6.83 1.04 0.75
-6.77 1.07 0.76
-6.75 1.08 0.76
-4.27 0.71 1.26
-4.32 0.74 1.25
-4.49 0.78 1.22
-4.42 0.78 1.23
-4.28 0.77 1.26
-4.27 0.78 1.26
-4.62 0.85 1.19
-4.24 0.80 1.26
-6.65 1.24 0.77
-4.51 0.87 1.21
-6.64 1.27 0.77
-6.57 1.27 0.79
-6.51 1.28 0.80
-6.71 1.33 0.76
-6.73 1.36 0.75
-6.92 1.41 0.71
-6.76 1.40 0.74
-4.29 0.92 1.25
-6.66 1.41 0.76
-6.74 1.45 0.75
-6.87 1.49 0.72
-6.81 1.50 0.73
-6.98 1.55 0.69
-6.97 1.57 0.69
-7.06 1.60 0.68
-7.05 1.62 0.68
-7.09 1.65 0.67
-7.08 1.67 0.67
-7.02 1.67 0.68
-6.93 1.67 0.70
-4.36 1.10 1.22
-4.52 1.15 1.19
-4.65 1.29 1.15
-4.47 1.29 1.19
-4.42 1.29 1.20
-4.41 1.30 1.20
-4.43 1.31 1.19
-4.37 1.31 1.20
-4.34 1.31 1.21
-4.45 1.36 1.18
-4.40 1.36 1.19
-4.26 1.33 1.22
-4.34 1.40 1.20
-4.23 1.38 1.22
-4.24 1.40 1.22
-4.32 1.60 1.19
-3.00 -1.11 1.09
-3.10 -1.11 1.07
-4.24 -0.89 0.85
-4.30 -0.88 0.83
-4.25 -0.86 0.85
-4.29 -0.85 0.84
-4.21 -0.82 0.85
-4.30 -0.81 0.83
-4.22 -0.79 0.85
-4.24 -0.77 0.85
-4.18 -0.75 0.86
-4.39 -0.76 0.82
-4.42 -0.74 0.81
-6.80 -0.98 0.34
-6.43 -0.92 0.41
-4.57 -0.71 0.78
-4.71 -0.71 0.75
-4.50 -0.67 0.79
-5.89 -0.78 0.52
-6.00 -0.77 0.50
-5.98 -0.75 0.50
-5.93 -0.73 0.51
-6.72 -0.77 0.36
-6.69 -0.75 0.36
-6.17 -0.69 0.47
-6.23 -0.67 0.45
-3.94 -0.48 0.91
-3.65 -0.44 0.96
-4.01 -0.45 0.89
-5.70 -0.55 0.56
-5.82 -0.54 0.53
-3.58 -0.38 0.98
-5.92 -0.51 0.51
-5.51 -0.46 0.60
-5.58 -0.45 0.58
-5.57 -0.43 0.58
-5.42 -0.40 0.61
-5.95 -0.41 0.51
-5.28 -0.34 0.64
-5.14 -0.31 0.67
-5.00 -0.29 0.70
-4.71 -0.26 0.75
-5.98 -0.21 0.95
-4.36 -0.14 1.27
-7.84 -0.23 0.59
-8.64 -0.23 0.43
-7.50 -0.18 0.65
-7.55 -0.16 0.64
-5.33 -0.11 1.08
-7.46 -0.13 0.66
-5.70 -0.08 1.01
-5.70 -0.07 1.01
-5.50 -0.05 1.05
-5.38 -0.04 1.07
-5.36 -0.03 1.07
-5.49 -0.01 1.05
-4.40 -0.00 0.76
-4.67 0.01 0.70
-4.60 0.03 0.72
-4.65 0.05 0.70
-4.95 0.07 0.64
-4.88 0.08 0.66
-4.74 0.10 0.69
-2.04 0.08 1.24
-4.84 0.14 0.66
-4.84 0.15 0.66
-2.15 0.11 1.22
-2.17 0.12 1.22
-4.95 0.21 0.64
-4.65 0.22 0.70
-4.58 0.23 0.72
-4.55 0.25 0.72
-2.87 0.20 1.07
-2.25 0.19 1.20
-4.41 0.22 1.22
-4.88 0.26 1.12
-8.17 0.44 0.44
-8.26 0.47 0.42
-8.37 0.49 0.40
-4.38 0.29 1.23
-4.29 0.29 1.24
-4.03 0.28 1.30
-3.46 0.26 1.41
-3.62 0.28 1.38
-3.45 0.27 1.41
-3.76 0.30 1.35
-3.51 0.29 1.40
-3.48 0.30 1.41
-3.48 0.31 1.41
-3.51 0.32 1.40
-3.46 0.33 1.41
-3.50 0.34 1.40
-3.67 0.36 1.37
-3.61 0.37 1.38
-3.74 0.39 1.35
-3.78 0.40 1.34
-3.67 0.40 1.36
-3.84 0.43 1.33
-4.22 0.48 1.25
-7.27 0.83 0.61
-7.22 0.84 0.63
-7.21 0.86 0.63
-3.37 0.42 1.42
-7.20 0.89 0.63
-7.43 0.94 0.58
-7.33 0.94 0.60
-7.23 0.95 0.62
-7.30 0.98 0.60
-7.19 0.98 0.63
-3.66 0.53 1.36
-7.15 1.01 0.63
-6.90 1.00 0.68
-4.13 0.62 1.26
-3.93 0.60 1.30
-4.18 0.65 1.25
-3.77 0.60 1.34
-3.79 0.61 1.33
-4.11 0.67 1.26
-3.71 0.62 1.35
-4.03 0.68 1.28
-3.77 0.65 1.33
-3.86 0.67 1.31
-6.82 1.17 0.69
-3.99 0.72 1.28
-3.98 0.73 1.29
-4.11 0.76 1.26
-4.10 0.77 1.26
-4.05 0.77 1.27
-4.05 0.79 1.27
-6.55 1.26 0.74
-6.63 1.33 0.72
-6.58 1.34 0.73
-6.53 1.38 0.74
-6.58 1.41 0.73
-6.64 1.44 0.71
-6.55 1.44 0.73
-6.68 1.48 0.70
-3.61 0.87 1.35
-3.36 0.82 1.40
-7.03 1.68 0.62
-3.97 1.09 1.26
-3.88 1.17 1.27
-4.19 1.26 1.21
-4.00 1.24 1.25
-4.37 -0.87 0.77
-4.56 -0.88 0.73
-4.35 -0.82 0.77
-4.27 -0.79 0.79
-4.33 -0.77 0.78
-4.50 -0.77 0.74
-1.91 -0.47 1.28
-2.05 -0.48 1.25
-7.10 -0.99 0.21
-4.41 -0.68 0.76
-6.19 -0.83 0.39
-6.05 -0.80 0.42
-6.23 -0.77 0.39
-6.20 -0.75 0.39
-5.94 -0.71 0.45
-6.06 -0.70 0.42
-5.92 -0.66 0.45
-5.94 -0.65 0.45
-5.96 -0.63 0.44
-5.79 -0.59 0.48
-5.88 -0.58 0.46
-3.48 -0.40 0.95
-5.73 -0.53 0.49
-3.76 -0.39 0.90
-5.94 -0.51 0.45
-5.90 -0.48 0.45
-5.34 -0.43 0.57
-5.18 -0.41 0.60
-5.20 -0.39 0.60
-5.20 -0.37 0.60
-5.39 -0.36 0.56
-4.90 -0.32 0.66
-4.84 -0.30 0.67
-4.83 -0.28 0.67
-4.74 -0.26 0.69
-4.65 -0.24 0.71
-4.64 -0.22 0.71
-4.50 -0.20 0.74
-4.51 -0.19 0.74
-4.42 -0.17 0.76
-4.55 -0.15 0.73
-4.49 -0.14 0.74
-4.46 -0.12 0.75
-4.47 -0.10 0.74
-4.32 -0.08 0.78
-4.34 -0.07 0.77
-4.54 -0.05 0.73
-4.47 -0.04 0.74
-4.50 -0.02 0.74
-5.42 -0.00 0.96
-5.42 0.01 0.96
-5.35 0.03 0.97
-5.34 0.04 0.98
-5.48 0.05 0.95
-5.42 0.07 0.96
-5.49 0.08 0.94
-5.26 0.09 0.99
-5.41 0.11 0.96
-5.32 0.12 0.98
-5.33 0.13 0.98
-5.39 0.15 0.96
-5.25 0.16 0.99
-5.19 0.17 1.00
-5.13 0.18 1.02
-5.02 0.19 1.04
-4.99 0.20 1.05
-5.23 0.22 0.99
-5.31 0.24 0.98
-5.14 0.24 1.01
-5.16 0.26 1.01
-5.09 0.27 1.02
-5.11 0.28 1.02
-4.94 0.28 1.05
-5.26 0.33 0.98
-5.05 0.33 1.03
-7.36 0.49 0.53
-7.48 0.52 0.50
-7.42 0.53 0.51
-7.35 0.55 0.53
-7.05 0.54 0.59
-7.20 0.57 0.56
-7.29 0.60 0.54
-7.30 0.61 0.54
-7.25 0.63 0.55
-7.48 0.67 0.50
-7.37 0.68 0.52
-7.58 0.71 0.47
-7.36 0.71 0.52
-7.37 0.73 0.52
-7.30 0.74 0.53
-7.40 0.77 0.51
-7.45 0.79 0.50
-7.40 0.81 0.51
-3.88 0.45 1.27
-7.31 0.83 0.53
-7.14 0.83 0.56
-7.56 0.90 0.47
-7.32 0.89 0.52
-4.42 0.56 1.15
-7.39 0.94 0.51
-4.20 0.56 1.20
-7.24 0.96 0.54
-7.25 0.97 0.53
-7.12 0.98 0.56
-7.16 1.00 0.55
-7.15 1.02 0.55
-7.06 1.02 0.57
-7.11 1.05 0.56
-7.09 1.06 0.56
-7.14 1.09 0.55
-6.75 1.05 0.64
-6.83 1.08 0.62
-6.63 1.06 0.66
-6.77 1.10 0.63
-6.76 1.12 0.63
-6.56 1.10 0.67
-6.71 1.14 0.64
-4.43 0.78 1.14
-6.39 1.13 0.71
-6.26 1.12 0.74
-6.33 1.15 0.72
-6.18 1.14 0.75
-6.11 1.14 0.77
-4.33 0.84 1.16
-4.25 0.83 1.17
-6.15 1.20 0.75
-6.21 1.23 0.74
-6.28 1.25 0.72
-6.24 1.26 0.73
-6.35 1.30 0.71
-6.37 1.32 0.70
-6.58 1.38 0.65
-6.49 1.38 0.67
-6.53 1.40 0.66
-6.60 1.44 0.65
-6.61 1.46 0.64
-6.67 1.48 0.63
-6.63 1.49 0.64
-6.58 1.50 0.65
-6.65 1.53 0.63
-6.81 1.59 0.59
-4.85 1.16 1.03
-6.81 1.62 0.59
-5.02 1.23 0.99
-4.52 1.13 1.10
-4.69 1.18 1.06
-4.47 1.14 1.11
-4.82 1.24 1.03
-4.30 1.12 1.14
-4.46 1.17 1.11
-4.29 1.15 1.14
-4.55 1.22 1.08
-4.52 1.25 1.09
-3.40 -1.25 0.90
-2.81 -1.03 1.03
-4.46 -1.25 0.67
-4.21 -1.16 0.73
-4.36 -1.17 0.69
-4.37 -1.15 0.69
-4.39 -1.12 0.69
-4.50 -1.13 0.67
-4.35 -1.08 0.70
-4.19 -1.04 0.73
-4.49 -1.07 0.67
-4.38 -1.04 0.69
-4.28 -1.01 0.71
-4.70 -1.05 0.62
-4.38 -0.99 0.69
-4.37 -0.97 0.69
-4.30 -0.94 0.71
-4.39 -0.94 0.69
-4.22 -0.90 0.73
-4.24 -0.89 0.72
-2.19 -0.61 1.17
-4.41 -0.88 0.69
-2.26 -0.59 1.15
-4.34 -0.84 0.70
-2.08 -0.55 1.19
-2.29 -0.56 1.15
-2.24 -0.54 1.16
-2.17 -0.53 1.17
-2.13 -0.51 1.18
-2.33 -0.52 1.14
-2.37 -0.51 1.13
-2.33 -0.50 1.14
-2.52 -0.51 1.10
-4.37 -0.68 0.70
-5.97 -0.79 0.35
-5.94 -0.77 0.36
-5.85 -0.74 0.38
-5.68 -0.71 0.41
-5.82 -0.70 0.38
-5.55 -0.66 0.44
-5.70 -0.65 0.41
-5.70 -0.63 0.41
-5.81 -0.62 0.39
-5.78 -0.60 0.39
-5.60 -0.56 0.43
-5.67 -0.55 0.42
-5.43 -0.51 0.47
-5.49 -0.50 0.45
-5.47 -0.48 0.46
-5.27 -0.45 0.50
-7.06 -0.40 0.61
-7.45 -0.40 0.53
-7.06 -0.36 0.61
-6.15 -0.30 0.81
-6.06 -0.28 0.83
-6.07 -0.27 0.82
-5.97 -0.25 0.85
-5.88 -0.23 0.86
-5.76 -0.21 0.89
-5.84 -0.20 0.87
-5.99 -0.19 0.84
-6.65 -0.20 0.70
-5.93 -0.16 0.85
-5.80 -0.14 0.88
-6.55 -0.15 0.72
-6.18 -0.12 0.80
-5.84 -0.10 0.87
-5.81 -0.09 0.88
-5.69 -0.07 0.90
-5.60 -0.06 0.92
-5.60 -0.04 0.92
-5.50 -0.03 0.94
-5.46 -0.01 0.95
-3.92 -0.00 0.73
-4.05 0.01 0.70
-3.97 0.03 0.72
-5.41 0.04 0.91
-5.39 0.05 0.91
-5.45 0.07 0.90
-5.47 0.08 0.89
-5.42 0.09 0.91
-5.33 0.11 0.92
-5.28 0.12 0.94
-5.31 0.13 0.93
-5.30 0.14 0.93
-5.27 0.16 0.94
-5.19 0.17 0.95
-5.00 0.17 1.00
-4.94 0.18 1.01
-4.92 0.20 1.01
-4.73 0.20 1.06
-4.94 0.22 1.01
-5.04 0.24 0.99
-4.85 0.24 1.03
-4.96 0.26 1.00
-4.95 0.27 1.01
-4.82 0.28 1.03
-4.75 0.29 1.05
-4.79 0.30 1.04
-4.85 0.32 1.03
-4.86 0.33 1.02
-4.84 0.34 1.03
-4.92 0.36 1.01
-5.05 0.38 0.98
-4.96 0.38 1.00
-4.19 0.34 1.17
-4.80 0.40 1.03
-7.22 0.61 0.49
-7.22 0.62 0.49
-7.23 0.64 0.48
-6.98 0.64 0.54
-3.99 0.38 1.21
-3.57 0.36 1.31
-7.45 0.74 0.43
-4.03 0.42 1.21
-4.07 0.43 1.19
-4.15 0.45 1.18
-3.77 0.42 1.26
-3.93 0.45 1.23
-3.94 0.46 1.22
-3.86 0.46 1.24
-3.76 0.46 1.26
-3.47 0.44 1.33
-3.38 0.43 1.35
-3.38 0.44 1.35
-7.50 0.97 0.41
-3.64 0.49 1.29
-3.62 0.50 1.29
-3.88 0.55 1.23
-3.83 0.55 1.24
-3.67 0.54 1.28
-4.04 0.60 1.19
-7.11 1.04 0.49
-7.04 1.05 0.51
-4.71 0.73 1.04
-4.39 0.69 1.11
-6.95 1.09 0.52
-5.33 0.86 0.89
-4.93 0.81 0.98
-4.83 0.81 1.01
-5.12 0.87 0.94
-4.87 0.84 1.00
-5.63 0.98 0.82
-5.43 0.96 0.87
-5.57 1.00 0.83
-5.64 1.02 0.82
-5.52 1.02 0.84
-5.67 1.06 0.81
-4.10 0.79 1.17
-5.84 1.12 0.77
-5.82 1.13 0.77
-6.10 1.20 0.71
-6.11 1.22 0.70
-6.33 1.28 0.65
-6.17 1.26 0.69
-6.22 1.29 0.67
-6.20 1.30 0.68
-6.09 1.29 0.70
-6.29 1.35 0.65
-5.00 1.10 0.95
-4.32 -1.11 0.64
-4.30 -1.07 0.65
-4.15 -1.00 0.68
-4.03 -0.97 0.71
-4.22 -0.98 0.67
-4.16 -0.96 0.68
-2.29 -0.67 1.10
-4.30 -0.94 0.65
-4.37 -0.94 0.63
-1.92 -0.58 1.19
-1.76 -0.55 1.22
-1.85 -0.55 1.20
-4.15 -0.83 0.68
-4.19 -0.82 0.67
-1.83 -0.52 1.21
-4.37 -0.81 0.63
-1.91 -0.50 1.19
-1.78 -0.48 1.22
-1.98 -0.49 1.17
-2.11 -0.49 1.14
-2.26 -0.50 1.11
-2.14 -0.48 1.14
-2.36 -0.49 1.09
-2.22 -0.46 1.12
-2.32 -0.46 1.10
-6.28 -0.82 0.20
-6.18 -0.79 0.23
-5.97 -0.75 0.27
-5.32 -0.68 0.42
-5.65 -0.68 0.35
-5.63 -0.64 0.35
-5.66 -0.63 0.34
-5.41 -0.59 0.40
-5.53 -0.58 0.37
-3.20 -0.40 0.90
-5.34 -0.53 0.41
-5.28 -0.50 0.43
-5.24 -0.48 0.44
-3.27 -0.35 0.88
-5.07 -0.44 0.48
-3.20 -0.31 0.90
-4.98 -0.40 0.50
-4.97 -0.38 0.50
-3.36 -0.28 0.86
-3.18 -0.26 0.90
-4.83 -0.32 0.53
-4.83 -0.30 0.53
-4.70 -0.28 0.56
-4.54 -0.26 0.59
-4.46 -0.24 0.61
-0.98 -0.11 1.39
-4.29 -0.20 0.65
-4.22 -0.18 0.66
-4.22 -0.16 0.66
-4.17 -0.15 0.67
-4.11 -0.13 0.69
-4.06 -0.11 0.70
-4.00 -0.08 0.71
-3.99 -0.07 0.71
-3.91 -0.03 0.73
-4.04 -0.02 0.70
-5.52 0.01 0.83
-5.47 0.03 0.84
-5.41 0.04 0.86
-5.45 0.05 0.84
-5.32 0.06 0.88
-5.42 0.08 0.85
-5.47 0.09 0.84
-5.43 0.11 0.85
-5.49 0.12 0.83
-5.93 0.15 0.73
-5.53 0.15 0.82
-5.40 0.17 0.85
-5.34 0.20 0.87
-5.54 0.22 0.82
-5.33 0.22 0.87
-5.34 0.24 0.86
-5.15 0.29 0.91
-5.09 0.30 0.92
-5.15 0.32 0.91
-7.17 0.49 0.43
-7.23 0.52 0.41
-7.02 0.52 0.46
-7.08 0.54 0.45
-7.19 0.57 0.42
-6.97 0.57 0.47
-7.10 0.60 0.44
-7.08 0.61 0.44
-7.30 0.65 0.39
-7.24 0.68 0.41
-7.06 0.68 0.45
-6.29 0.72 0.62
-6.72 0.83 0.52
-6.64 0.84 0.54
-6.42 0.83 0.59
-7.08 1.02 0.43
-7.15 1.05 0.41
-7.22 1.08 0.39
-7.04 1.07 0.43
-7.04 1.09 0.43
-6.80 1.07 0.49
-6.74 1.08 0.50
-6.69 1.09 0.51
-5.86 0.97 0.71
-6.39 1.07 0.58
-5.80 0.99 0.72
-5.59 0.97 0.77
-5.79 1.02 0.73
-5.20 0.94 0.86
-5.39 0.98 0.82
-5.34 0.99 0.83
-5.64 1.05 0.76
-5.65 1.07 0.75
-5.76 1.11 0.73
-5.94 1.16 0.68
-5.92 1.17 0.69
-6.07 1.21 0.65
-6.34 1.28 0.58
-6.51 1.33 0.54
-6.52 1.35 0.54
-4.21 -1.09 0.60
-4.25 -1.08 0.59
-4.31 -1.08 0.58
-4.26 -1.05 0.59
-4.37 -1.05 0.56
-3.90 -0.95 0.67
-4.21 -0.98 0.60
-4.31 -0.98 0.58
-4.82 -0.93 0.46
-2.21 -0.48 1.08
-4.75 -0.73 0.48
-4.74 -0.69 0.48
-4.99 -0.68 0.42
-4.92 -0.66 0.44
-5.04 -0.65 0.41
-5.92 -0.71 0.20
-5.93 -0.67 0.20
-5.86 -0.64 0.22
-5.87 -0.60 0.22
-5.88 -0.58 0.21
-5.73 -0.55 0.25
-5.87 -0.54 0.22
-5.49 -0.50 0.30
-5.22 -0.46 0.37
-5.83 -0.48 0.22
-3.19 -0.31 0.84
-5.90 -0.45 0.21
-5.87 -0.42 0.21
-5.86 -0.40 0.22
-4.99 -0.34 0.42
-4.78 -0.32 0.47
-4.83 -0.30 0.46
-4.81 -0.28 0.46
-4.74 -0.26 0.48
-4.67 -0.24 0.49
-4.43 -0.22 0.55
-4.29 -0.20 0.59
-4.48 -0.19 0.54
-4.31 -0.17 0.58
-4.39 -0.15 0.56
-4.20 -0.13 0.60
-4.24 -0.12 0.59
-5.67 -0.09 0.80
-0.74 -0.93 0.53
-2.16 0.15 0.42
-0.69 -0.94 0.46
-2.33 0.68 0.35
-3.02 0.78 0.27
-2.32 0.61 0.32
-2.35 0.63 0.29
-2.21 0.67 0.29
-2.19 0.72 0.29
-0.72 -0.86 0.37
-2.58 0.75 0.22
-2.26 0.64 0.27
-2.20 0.73 0.27
-1.95 0.72 0.29
-1.67 0.77 0.31
-1.91 0.68 0.28
-1.75 0.70 0.30
-1.73 0.72 0.29
-0.85 -0.87 0.32
-0.68 -0.96 0.27
-0.86 -0.96 0.28
-0.64 -0.84 0.28
-0.78 -0.83 0.29
-0.81 -0.87 0.28
-1.84 0.73 0.21
-0.68 -0.85 0.26
-0.90 -0.96 0.25
-0.79 -0.72 0.29
-0.76 -0.88 0.25
-0.94 -0.81 0.27
-0.68 -0.85 0.23
-1.12 -0.80 0.27
-0.71 -0.80 0.24
-0.76 -0.78 0.24
-0.83 -0.81 0.24
-0.83 -0.91 0.22
-1.08 -0.86 0.24
-0.71 -0.80 0.22
-0.75 -0.81 0.22
-0.90 -0.83 0.23
-0.95 -0.79 0.24
-0.78 -0.83 0.21
-1.15 -0.68 0.26
-1.12 -0.78 0.21
