# .PCD v0.7 - Point Cloud Data file format
VERSION 0.7
FIELDS x y z
SIZE 4 4 4
TYPE F F F
COUNT 1 1 1
WIDTH 2924
HEIGHT 1
VIEWPOINT 0 0 0 1 0 0 0
POINTS 2924
DATA ASCII
-7.78 0.95 1.63
-8.02 1.00 1.62
-7.82 1.00 1.63
-7.60 0.99 1.65
-7.64 1.01 1.64
-7.53 1.02 1.65
-7.40 1.02 1.66
-7.48 1.05 1.65
-7.55 1.08 1.65
-7.72 1.12 1.64
-7.78 1.15 1.63
-7.65 1.15 1.64
-7.94 1.21 1.62
-7.66 1.19 1.64
-7.61 1.20 1.64
-7.42 1.19 1.65
-7.63 1.24 1.64
-7.64 1.26 1.64
-7.48 1.26 1.65
-7.62 1.30 1.64
-7.60 1.32 1.64
-7.82 1.37 1.62
-7.70 1.37 1.63
-7.67 1.39 1.63
-7.57 1.39 1.64
-7.78 1.45 1.62
-7.93 1.49 1.61
-7.96 1.52 1.61
-7.94 1.54 1.61
-8.05 1.58 1.60
-8.04 1.59 1.60
-7.84 1.58 1.62
-7.96 1.62 1.61
-8.06 1.66 1.60
-7.91 1.65 1.61
-7.55 1.60 1.64
-4.79 -0.53 1.70
-2.34 -0.32 1.86
-4.72 -0.41 1.70
-4.81 -0.34 1.70
-4.77 -0.32 1.70
-4.84 -0.31 1.70
-4.86 -0.29 1.69
-5.00 -0.26 1.68
-4.74 -0.24 1.70
-4.62 -0.22 1.71
-4.62 -0.20 1.71
-4.62 -0.18 1.71
-4.73 -0.17 1.70
-4.65 -0.15 1.71
-4.50 -0.13 1.72
-4.64 -0.12 1.71
-4.65 -0.08 1.71
-15.82 -0.05 0.95
-5.46 0.01 1.77
-5.44 0.02 1.77
-5.44 0.03 1.77
-5.40 0.05 1.78
-5.28 0.06 1.78
-5.33 0.07 1.78
-5.33 0.10 1.78
-5.31 0.11 1.78
-5.40 0.13 1.77
-5.50 0.14 1.77
-5.36 0.17 1.78
-5.46 0.18 1.77
-5.39 0.21 1.77
-5.64 0.23 1.76
-5.62 0.25 1.76
-5.60 0.27 1.76
-5.69 0.29 1.75
-5.85 0.31 1.74
-5.71 0.34 1.75
-6.29 0.38 1.71
-6.60 0.42 1.68
-6.57 0.45 1.69
-6.47 0.46 1.69
-6.42 0.47 1.70
-6.74 0.53 1.67
-6.77 0.55 1.67
-7.40 0.63 1.62
-7.13 0.63 1.64
-7.11 0.64 1.65
-7.09 0.66 1.65
-7.05 0.69 1.65
-6.87 0.69 1.66
-7.23 0.76 1.63
-7.29 0.79 1.63
-7.31 0.81 1.63
-7.33 0.83 1.63
-7.48 0.88 1.61
-7.52 0.91 1.61
-7.52 0.94 1.61
-7.60 0.97 1.60
-7.37 0.96 1.62
-7.38 0.98 1.62
-7.51 1.04 1.61
-7.41 1.04 1.62
-7.51 1.09 1.61
-7.58 1.14 1.60
-7.54 1.16 1.60
-7.72 1.22 1.59
-7.54 1.21 1.60
-7.58 1.26 1.60
-7.70 1.30 1.59
-7.88 1.35 1.58
-7.73 1.34 1.59
-7.64 1.36 1.59
-7.61 1.38 1.60
-7.76 1.42 1.58
-7.75 1.46 1.58
-7.74 1.48 1.58
-7.75 1.50 1.58
-7.77 1.55 1.58
-7.63 1.54 1.59
-7.87 1.61 1.57
-7.67 1.59 1.59
-7.62 1.60 1.59
-7.47 1.59 1.60
-7.51 1.62 1.60
-7.70 1.69 1.58
-4.83 -0.64 1.66
-4.86 -0.63 1.66
-4.67 -0.59 1.67
-4.71 -0.58 1.67
-4.89 -0.58 1.66
-4.76 -0.55 1.66
-4.97 -0.55 1.65
-4.88 -0.52 1.66
-2.26 -0.30 1.84
-4.71 -0.44 1.67
-4.79 -0.43 1.66
-4.79 -0.41 1.66
-4.78 -0.40 1.66
-4.75 -0.38 1.66
-4.64 -0.35 1.67
-4.66 -0.34 1.67
-4.59 -0.32 1.67
-5.02 -0.32 1.64
-4.93 -0.30 1.65
-4.85 -0.28 1.66
-4.50 -0.25 1.68
-12.63 -0.10 1.26
-12.45 -0.07 1.27
-12.66 -0.01 1.26
-4.73 0.16 1.62
-5.19 0.18 1.59
-11.87 0.41 1.07
-5.08 0.23 1.60
-5.54 0.27 1.56
-5.88 0.32 1.53
-6.18 0.35 1.51
-6.07 0.37 1.52
-5.97 0.38 1.53
-5.55 0.28 1.73
-5.62 0.30 1.73
-9.88 0.54 1.40
-9.97 0.57 1.39
-9.89 0.59 1.40
-3.46 0.22 1.90
-6.41 0.42 1.67
-12.54 0.84 1.19
-12.50 0.87 1.19
-12.54 0.90 1.19
-12.60 0.94 1.18
-12.64 0.97 1.18
-6.74 0.54 1.64
-12.76 1.04 1.17
-12.56 1.06 1.19
-12.84 1.11 1.16
-7.06 0.67 1.61
-7.08 0.69 1.61
-13.42 1.32 1.12
-13.36 1.35 1.12
-7.11 0.75 1.61
-6.94 0.75 1.62
-7.09 0.78 1.61
-7.75 0.93 1.56
-7.80 0.97 1.55
-7.45 0.95 1.58
-7.44 0.97 1.58
-7.26 0.96 1.59
-7.54 1.02 1.57
-7.81 1.07 1.55
-7.75 1.09 1.55
-7.66 1.09 1.56
-7.85 1.14 1.54
-7.71 1.14 1.55
-7.63 1.14 1.56
-7.79 1.19 1.55
-7.65 1.19 1.56
-7.66 1.21 1.56
-7.63 1.22 1.56
-7.71 1.25 1.55
-7.89 1.30 1.54
-7.88 1.32 1.54
-7.88 1.34 1.54
-7.69 1.33 1.55
-7.73 1.36 1.55
-7.63 1.36 1.56
-7.73 1.40 1.55
-7.69 1.41 1.55
-7.75 1.44 1.54
-7.76 1.46 1.54
-7.76 1.48 1.54
-7.74 1.50 1.54
-7.67 1.50 1.55
-7.62 1.51 1.55
-7.72 1.55 1.54
-7.69 1.57 1.55
-7.69 1.59 1.55
-7.54 1.57 1.56
-7.38 1.56 1.57
-7.57 1.62 1.55
-7.56 1.64 1.55
-7.33 1.61 1.57
-4.53 -0.26 1.64
-4.59 -0.25 1.64
-4.74 -0.24 1.63
-5.36 0.01 1.72
-5.26 0.02 1.73
-5.38 0.03 1.72
-5.35 0.05 1.72
-5.15 0.06 1.73
-5.26 0.07 1.73
-5.18 0.08 1.73
-5.21 0.10 1.73
-5.18 0.11 1.73
-5.15 0.12 1.73
-5.30 0.14 1.72
-5.39 0.16 1.71
-5.23 0.16 1.73
-5.26 0.18 1.72
-5.29 0.19 1.72
-5.61 0.22 1.69
-5.23 0.22 1.73
-5.56 0.24 1.70
-5.72 0.26 1.68
-5.85 0.28 1.67
-5.63 0.29 1.69
-5.90 0.32 1.67
-5.69 0.32 1.69
-5.71 0.34 1.68
-5.89 0.36 1.67
-5.92 0.38 1.67
-6.37 0.42 1.63
-6.36 0.44 1.63
-6.52 0.46 1.62
-6.49 0.48 1.62
-6.40 0.49 1.63
-6.23 0.49 1.64
-6.57 0.53 1.61
-6.60 0.55 1.61
-6.63 0.57 1.61
-6.17 0.55 1.64
-6.57 0.60 1.61
-7.17 0.67 1.56
-6.86 0.66 1.58
-7.40 0.73 1.54
-6.94 0.70 1.58
-6.89 0.71 1.58
-6.88 0.73 1.58
-7.00 0.76 1.57
-6.87 0.76 1.58
-6.95 0.79 1.57
-6.86 0.79 1.58
-6.97 0.83 1.57
-6.99 0.84 1.57
-7.14 0.88 1.56
-7.30 0.92 1.54
-7.51 0.96 1.53
-7.29 0.95 1.54
-7.74 1.03 1.51
-7.49 1.02 1.53
-7.42 1.03 1.53
-7.53 1.06 1.52
-7.35 1.05 1.54
-7.33 1.07 1.54
-7.40 1.10 1.53
-7.58 1.14 1.52
-7.61 1.17 1.51
-7.53 1.17 1.52
-7.46 1.18 1.53
-7.63 1.23 1.51
-7.64 1.25 1.51
-7.63 1.27 1.51
-7.62 1.28 1.51
-7.71 1.32 1.50
-7.75 1.34 1.50
-7.80 1.37 1.49
-7.68 1.37 1.50
-7.65 1.39 1.50
-7.73 1.42 1.50
-7.66 1.43 1.50
-7.67 1.45 1.50
-7.64 1.46 1.50
-7.49 1.46 1.52
-7.57 1.49 1.51
-7.54 1.50 1.51
-7.65 1.55 1.50
-7.55 1.55 1.51
-7.51 1.56 1.51
-7.41 1.56 1.52
-7.68 1.63 1.50
-7.70 1.65 1.49
-7.47 1.63 1.51
-7.38 1.63 1.52
-7.34 1.64 1.52
-1.52 -1.11 1.85
-6.69 -1.05 1.43
-4.82 -0.64 1.58
-4.96 -0.64 1.57
-4.76 -0.58 1.59
-5.87 -0.56 1.49
-4.97 -0.48 1.57
-4.79 -0.45 1.58
-4.56 -0.40 1.60
-4.61 -0.39 1.60
-9.85 -0.32 1.35
-9.62 -0.24 1.37
-5.54 -0.10 1.70
-5.72 -0.08 1.69
-5.43 -0.06 1.71
-5.73 -0.05 1.69
-5.52 -0.03 1.71
-5.43 -0.02 1.71
-5.40 -0.01 1.71
-5.27 0.00 1.50
-5.27 0.02 1.50
-5.14 0.04 1.51
-5.28 0.05 1.70
-15.39 0.17 0.80
-5.28 0.09 1.70
-5.23 0.10 1.70
-5.17 0.11 1.70
-5.11 0.12 1.71
-5.19 0.15 1.70
-5.58 0.19 1.67
-5.29 0.19 1.69
-5.31 0.21 1.69
-5.26 0.22 1.69
-5.26 0.23 1.69
-5.81 0.28 1.65
-5.63 0.29 1.66
-5.86 0.33 1.64
-5.83 0.34 1.64
-6.25 0.38 1.61
-5.81 0.37 1.64
-5.86 0.40 1.64
-5.59 0.40 1.66
-6.20 0.47 1.61
-6.18 0.48 1.61
-5.98 0.48 1.63
-6.11 0.51 1.62
-5.23 0.46 1.69
-13.96 1.31 0.91
-13.37 1.29 0.97
-13.42 1.36 0.96
-7.75 0.83 1.47
-7.06 0.81 1.53
-7.10 0.84 1.52
-7.17 0.88 1.52
-7.21 0.92 1.51
-7.75 1.01 1.46
-7.63 1.03 1.47
-7.36 1.01 1.50
-7.62 1.09 1.47
-7.42 1.10 1.49
-7.37 1.11 1.49
-7.38 1.13 1.49
-7.64 1.19 1.47
-7.40 1.17 1.49
-7.44 1.21 1.48
-7.71 1.30 1.46
-7.80 1.33 1.45
-7.76 1.36 1.45
-7.76 1.38 1.45
-7.65 1.38 1.46
-7.61 1.40 1.47
-7.57 1.43 1.47
-7.57 1.45 1.47
-7.56 1.46 1.47
-7.57 1.49 1.47
-7.42 1.48 1.48
-7.63 1.54 1.46
-7.50 1.53 1.47
-7.52 1.57 1.47
-7.52 1.59 1.47
-7.82 1.69 1.44
-7.42 1.63 1.48
-7.55 1.68 1.46
-7.46 1.68 1.47
-4.63 -0.44 1.56
-4.69 -0.43 1.55
-4.40 -0.39 1.58
-4.71 -0.39 1.55
-4.57 -0.37 1.56
-4.54 -0.35 1.57
-4.50 -0.33 1.57
-4.61 -0.32 1.56
-4.59 -0.30 1.56
-4.40 -0.28 1.58
-4.36 -0.26 1.58
-4.99 -0.14 1.52
-5.12 -0.13 1.51
-5.07 -0.11 1.52
-4.89 -0.09 1.53
-4.79 -0.07 1.54
-5.03 -0.05 1.52
-5.23 -0.04 1.50
-5.18 -0.02 1.51
-5.27 0.01 1.66
-5.33 0.02 1.66
-5.24 0.03 1.67
-5.24 0.05 1.67
-5.30 0.06 1.66
-5.14 0.07 1.67
-5.31 0.09 1.66
-5.13 0.10 1.68
-5.17 0.11 1.67
-5.22 0.12 1.67
-5.15 0.13 1.67
-5.30 0.15 1.66
-5.38 0.17 1.65
-5.25 0.18 1.66
-5.26 0.19 1.66
-5.37 0.21 1.65
-5.47 0.22 1.64
-5.35 0.23 1.65
-5.42 0.25 1.65
-5.70 0.28 1.62
-5.79 0.30 1.61
-5.87 0.31 1.60
-5.80 0.32 1.61
-5.69 0.33 1.62
-5.77 0.35 1.61
-6.05 0.38 1.58
-5.83 0.38 1.61
-5.68 0.39 1.62
-5.88 0.42 1.60
-5.96 0.44 1.59
-6.02 0.46 1.59
-5.97 0.47 1.59
-6.13 0.50 1.58
-6.31 0.53 1.56
-6.44 0.55 1.54
-6.58 0.58 1.53
-6.68 0.60 1.52
-9.99 0.92 1.21
-9.91 0.94 1.21
-5.94 0.59 1.59
-13.66 1.38 0.86
-7.05 0.74 1.48
-6.74 0.73 1.51
-7.26 0.80 1.46
-7.66 0.86 1.42
-7.65 0.88 1.43
-7.92 0.93 1.40
-7.24 0.87 1.46
-7.47 0.92 1.44
-7.09 0.89 1.48
-7.10 0.91 1.48
-7.50 0.98 1.44
-7.08 0.94 1.48
-7.04 0.95 1.48
-7.11 0.98 1.47
-7.20 1.01 1.47
-7.37 1.05 1.45
-7.63 1.11 1.42
-7.10 1.05 1.47
-7.30 1.10 1.45
-7.31 1.12 1.45
-7.40 1.15 1.44
-7.28 1.15 1.45
-7.03 1.13 1.48
-7.74 1.26 1.41
-7.67 1.27 1.42
-7.41 1.25 1.44
-7.57 1.29 1.42
-7.45 1.29 1.43
-7.60 1.34 1.42
-7.67 1.37 1.41
-7.66 1.39 1.41
-7.70 1.41 1.41
-7.58 1.41 1.42
-7.65 1.44 1.41
-7.53 1.44 1.42
-7.62 1.48 1.41
-7.54 1.48 1.42
-7.58 1.51 1.42
-7.50 1.51 1.42
-7.60 1.55 1.41
-7.56 1.56 1.42
-7.44 1.56 1.43
-7.56 1.60 1.42
-7.60 1.63 1.41
-7.72 1.68 1.40
-7.68 1.69 1.40
-7.46 1.68 1.42
-5.50 -0.72 1.43
-4.42 -0.49 1.54
-4.45 -0.48 1.53
-4.54 -0.47 1.52
-4.54 -0.45 1.52
-4.52 -0.43 1.53
-4.41 -0.41 1.54
-4.34 -0.39 1.54
-5.22 -0.42 1.46
-4.43 -0.36 1.53
-4.46 -0.35 1.53
-4.48 -0.33 1.53
-4.50 -0.31 1.53
-4.37 -0.29 1.54
-4.50 -0.28 1.53
-4.50 -0.27 1.53
-4.13 -0.24 1.56
-4.24 -0.22 1.55
-4.28 -0.21 1.55
-4.37 -0.20 1.54
-4.53 -0.18 1.52
-5.19 -0.16 1.46
-5.12 -0.14 1.47
-5.10 -0.13 1.47
-5.58 -0.07 1.64
-5.39 -0.06 1.65
-5.48 -0.05 1.64
-5.61 -0.03 1.63
-5.34 -0.02 1.66
-5.28 -0.01 1.66
-5.30 -0.00 1.40
-5.39 0.02 1.39
-5.34 0.04 1.40
-5.33 0.05 1.40
-5.44 0.07 1.39
-5.58 0.09 1.37
-5.37 0.11 1.39
-5.42 0.13 1.39
-5.37 0.15 1.39
-5.31 0.17 1.40
-5.28 0.18 1.40
-5.39 0.15 1.62
-5.36 0.17 1.62
-5.37 0.18 1.62
-5.37 0.19 1.62
-5.26 0.20 1.63
-5.33 0.22 1.62
-5.29 0.23 1.63
-5.45 0.25 1.61
-5.49 0.27 1.61
-5.62 0.29 1.59
-5.70 0.30 1.58
-5.67 0.32 1.59
-5.70 0.33 1.58
-5.66 0.34 1.59
-5.74 0.36 1.58
-5.82 0.38 1.57
-5.82 0.40 1.57
-5.83 0.41 1.57
-5.74 0.42 1.58
-6.02 0.46 1.55
-5.94 0.46 1.56
-5.83 0.47 1.57
-5.82 0.48 1.57
-5.98 0.51 1.55
-5.40 0.48 1.61
-6.64 0.60 1.49
-5.98 0.56 1.55
-5.91 0.57 1.56
-5.54 0.55 1.60
-6.81 0.68 1.47
-10.04 1.02 1.14
-9.86 1.03 1.16
-7.62 0.82 1.38
-7.33 0.81 1.41
-7.66 0.86 1.38
-7.61 0.87 1.38
-7.61 0.89 1.38
-7.65 0.92 1.38
-7.31 0.90 1.41
-7.56 0.94 1.39
-7.63 0.97 1.38
-8.07 1.05 1.33
-6.96 0.92 1.45
-7.69 1.04 1.37
-7.02 0.97 1.44
-7.02 0.99 1.44
-7.18 1.03 1.42
-7.02 1.02 1.44
-6.91 1.02 1.45
-7.67 1.15 1.37
-7.34 1.12 1.40
-7.66 1.19 1.37
-7.60 1.20 1.38
-7.56 1.21 1.38
-7.33 1.19 1.40
-7.02 1.16 1.43
-7.78 1.30 1.36
-7.97 1.36 1.34
-7.53 1.30 1.38
-7.62 1.34 1.37
-7.64 1.36 1.37
-7.58 1.37 1.37
-7.61 1.39 1.37
-7.59 1.41 1.37
-7.55 1.42 1.38
-7.60 1.45 1.37
-7.46 1.44 1.38
-7.49 1.47 1.38
-7.50 1.49 1.38
-7.53 1.52 1.37
-7.50 1.53 1.38
-7.47 1.54 1.38
-7.63 1.59 1.36
-7.48 1.58 1.38
-7.62 1.63 1.36
-7.71 1.67 1.35
-4.79 -0.62 1.46
-4.30 -0.51 1.51
-4.61 -0.52 1.48
-4.31 -0.48 1.51
-4.40 -0.47 1.50
-4.40 -0.46 1.50
-4.17 -0.43 1.52
-4.37 -0.42 1.50
-5.04 -0.45 1.43
-4.30 -0.39 1.51
-4.18 -0.36 1.52
-4.30 -0.35 1.51
-4.28 -0.34 1.51
-4.26 -0.32 1.51
-4.66 -0.32 1.47
-4.33 -0.29 1.50
-4.40 -0.28 1.50
-4.44 -0.26 1.49
-4.21 -0.24 1.51
-4.12 -0.22 1.52
-4.42 -0.21 1.49
-4.49 -0.20 1.49
-4.71 -0.19 1.46
-5.01 -0.16 1.43
-4.89 -0.14 1.44
-5.42 -0.13 1.39
-5.21 -0.11 1.41
-5.04 -0.09 1.43
-5.00 -0.07 1.43
-5.04 -0.05 1.43
-5.00 -0.04 1.43
-5.14 -0.02 1.42
-5.08 0.01 1.61
-5.13 0.02 1.61
-5.12 0.03 1.61
-5.04 0.04 1.62
-5.11 0.06 1.61
-5.08 0.07 1.61
-5.11 0.08 1.61
-5.12 0.10 1.61
-5.11 0.11 1.61
-5.19 0.12 1.60
-5.36 0.14 1.58
-5.34 0.15 1.58
-5.43 0.17 1.57
-5.33 0.18 1.58
-5.40 0.19 1.58
-5.32 0.21 1.59
-5.30 0.22 1.59
-5.36 0.23 1.58
-5.39 0.25 1.58
-5.35 0.26 1.58
-5.47 0.28 1.57
-5.40 0.29 1.58
-5.53 0.31 1.56
-5.66 0.33 1.55
-5.93 0.36 1.52
-5.75 0.37 1.54
-5.68 0.37 1.54
-5.88 0.40 1.52
-5.63 0.40 1.55
-5.57 0.41 1.56
-5.62 0.43 1.55
-5.64 0.44 1.55
-5.71 0.46 1.54
-5.90 0.49 1.52
-5.98 0.51 1.51
-5.20 0.46 1.59
-5.21 0.48 1.59
-6.60 0.61 1.44
-5.42 0.52 1.57
-7.47 0.73 1.35
-7.12 0.71 1.39
-7.30 0.75 1.37
-7.39 0.78 1.36
-7.43 0.80 1.35
-7.46 0.82 1.35
-7.36 0.83 1.36
-7.80 0.90 1.31
-7.40 0.87 1.35
-6.86 0.83 1.41
-7.69 0.94 1.32
-7.20 0.90 1.37
-7.73 0.99 1.31
-7.24 0.94 1.37
-7.38 0.98 1.35
-7.12 0.97 1.38
-6.86 0.95 1.41
-7.13 1.00 1.38
-7.77 1.11 1.31
-7.05 1.03 1.38
-6.86 1.02 1.41
-7.00 1.06 1.39
-7.44 1.14 1.34
-6.93 1.08 1.40
-7.09 1.12 1.38
-7.62 1.22 1.32
-6.85 1.12 1.40
-6.91 1.15 1.40
-6.95 1.17 1.39
-7.02 1.20 1.38
-7.70 1.33 1.31
-7.60 1.34 1.32
-7.54 1.35 1.32
-7.39 1.34 1.34
-7.60 1.40 1.32
-7.46 1.39 1.33
-7.40 1.40 1.34
-7.30 1.40 1.35
-7.44 1.44 1.33
-7.54 1.48 1.32
-7.53 1.50 1.32
-7.42 1.50 1.33
-7.38 1.51 1.34
-7.47 1.55 1.33
-7.41 1.55 1.33
-7.52 1.59 1.32
-7.61 1.63 1.31
-7.62 1.66 1.31
-7.42 1.63 1.33
-7.59 1.69 1.31
-2.19 -0.64 1.69
-6.76 -1.03 1.20
-6.67 -1.00 1.21
-6.76 -0.99 1.20
-4.29 -0.56 1.46
-4.30 -0.55 1.46
-4.38 -0.54 1.45
-4.29 -0.51 1.46
-4.18 -0.49 1.47
-4.17 -0.47 1.48
-4.23 -0.46 1.47
-4.18 -0.44 1.47
-4.20 -0.43 1.47
-5.20 -0.48 1.37
-4.46 -0.41 1.44
-4.09 -0.38 1.48
-4.33 -0.37 1.46
-4.27 -0.35 1.46
-4.01 -0.32 1.49
-4.33 -0.32 1.46
-4.36 -0.31 1.45
-4.34 -0.29 1.46
-4.83 -0.30 1.40
-4.81 -0.28 1.41
-4.21 -0.24 1.47
-9.28 -0.28 1.17
-10.06 -0.28 1.09
-9.34 -0.24 1.16
-5.66 -0.13 1.55
-5.40 -0.11 1.58
-5.34 -0.10 1.59
-5.26 -0.09 1.60
-5.24 -0.07 1.60
-5.31 -0.06 1.59
-5.13 -0.05 1.61
-5.00 -0.03 1.62
-4.96 -0.02 1.63
-5.04 -0.01 1.62
-8.36 0.07 0.95
-8.29 0.15 0.96
-5.51 0.13 1.28
-5.50 0.15 1.28
-5.39 0.17 1.29
-8.48 0.26 0.94
-8.52 0.28 0.93
-8.74 0.32 0.91
-8.57 0.34 0.93
-8.54 0.36 0.93
-8.80 0.40 0.90
-5.53 0.36 1.27
-5.39 0.28 1.54
-5.35 0.29 1.55
-5.39 0.30 1.54
-5.42 0.32 1.54
-5.32 0.32 1.55
-5.42 0.34 1.54
-5.59 0.37 1.52
-5.38 0.37 1.54
-11.67 0.81 0.83
-9.61 0.69 1.06
-9.69 0.77 1.05
-5.06 0.42 1.58
-4.13 0.43 1.68
-13.76 1.45 0.58
-13.84 1.53 0.57
-7.63 0.97 1.28
-7.75 1.02 1.26
-7.93 1.07 1.24
-8.02 1.10 1.23
-7.77 1.09 1.26
-7.98 1.13 1.23
-8.09 1.17 1.22
-7.90 1.16 1.24
-7.89 1.18 1.24
-7.91 1.20 1.24
-7.90 1.22 1.24
-7.96 1.25 1.23
-6.92 1.11 1.35
-6.76 1.10 1.37
-8.02 1.32 1.22
-8.05 1.35 1.22
-7.84 1.33 1.24
-7.63 1.32 1.27
-6.85 1.21 1.36
-7.85 1.39 1.24
-7.59 1.37 1.27
-7.26 1.33 1.31
-7.50 1.39 1.28
-7.69 1.45 1.26
-7.72 1.47 1.25
-7.68 1.48 1.26
-7.56 1.48 1.27
-7.59 1.50 1.27
-7.59 1.53 1.26
-7.64 1.55 1.26
-7.70 1.59 1.25
-7.70 1.61 1.25
-7.45 1.57 1.28
-7.73 1.65 1.24
-7.57 1.64 1.26
-7.46 1.63 1.27
-4.58 -0.17 1.39
-4.36 -0.15 1.41
-3.95 -0.12 1.46
-4.12 -0.11 1.44
-3.92 -0.09 1.46
-4.03 -0.08 1.45
-4.03 -0.06 1.45
-8.28 -0.03 0.96
-4.91 0.01 1.56
-4.77 0.02 1.58
-4.81 0.03 1.57
-4.79 0.04 1.58
-4.87 0.05 1.57
-4.96 0.07 1.55
-4.77 0.08 1.58
-4.80 0.09 1.57
-9.16 0.19 1.05
-9.11 0.21 1.06
-9.11 0.23 1.06
-5.07 0.14 1.54
-9.30 0.28 1.03
-9.21 0.30 1.04
-5.12 0.18 1.53
-5.42 0.21 1.50
-5.31 0.22 1.51
-5.14 0.22 1.53
-5.10 0.24 1.54
-5.20 0.25 1.52
-5.35 0.27 1.50
-5.23 0.28 1.52
-5.33 0.30 1.51
-5.23 0.31 1.52
-5.31 0.32 1.51
-5.36 0.34 1.50
-5.30 0.35 1.51
-5.35 0.37 1.50
-5.40 0.38 1.50
-5.22 0.38 1.52
-11.97 0.89 0.70
-9.67 0.75 0.98
-5.55 0.45 1.48
-10.23 0.84 0.91
-10.64 0.90 0.86
-10.20 0.89 0.91
-13.37 1.32 0.53
-14.22 1.61 0.42
-8.15 1.12 1.15
-7.84 1.10 1.19
-7.77 1.11 1.20
-7.92 1.15 1.18
-8.05 1.19 1.16
-7.97 1.20 1.17
-8.14 1.24 1.15
-7.87 1.24 1.18
-7.89 1.27 1.18
-7.82 1.29 1.19
-7.58 1.28 1.21
-7.88 1.34 1.18
-7.93 1.37 1.17
-7.75 1.36 1.19
-7.43 1.33 1.23
-7.53 1.36 1.22
-7.59 1.39 1.21
-7.62 1.42 1.21
-7.47 1.41 1.22
-7.51 1.44 1.22
-7.58 1.47 1.21
-7.82 1.53 1.18
-7.79 1.55 1.18
-7.73 1.56 1.19
-7.78 1.59 1.18
-7.85 1.62 1.17
-7.59 1.59 1.20
-7.78 1.65 1.18
-7.22 1.55 1.25
-6.06 -0.80 1.16
-3.99 -0.48 1.41
-4.06 -0.47 1.40
-8.42 -0.46 1.15
-9.70 -0.39 0.99
-9.37 -0.33 1.03
-9.48 -0.29 1.02
-9.43 -0.26 1.02
-9.35 -0.24 1.03
-9.09 -0.19 1.06
-9.15 -0.17 1.06
-9.49 -0.13 1.02
-4.79 -0.06 1.58
-4.61 -0.04 1.60
-4.87 -0.03 1.57
-4.67 -0.02 1.59
-4.83 -0.01 1.57
-5.41 -0.00 1.18
-5.32 0.02 1.19
-5.50 0.04 1.17
-4.88 0.04 1.53
-4.88 0.05 1.53
-4.90 0.07 1.53
-5.02 0.08 1.51
-4.87 0.09 1.53
-4.87 0.10 1.53
-4.83 0.11 1.54
-5.16 0.13 1.50
-9.07 0.25 1.00
-5.15 0.16 1.50
-5.14 0.17 1.50
-5.24 0.19 1.48
-5.24 0.20 1.48
-5.13 0.21 1.50
-5.18 0.22 1.49
-5.30 0.24 1.48
-5.19 0.25 1.49
-5.28 0.27 1.48
-5.26 0.28 1.48
-5.31 0.30 1.47
-5.46 0.32 1.45
-5.46 0.33 1.45
-5.46 0.35 1.45
-5.48 0.36 1.45
-5.50 0.38 1.45
-5.47 0.39 1.45
-5.74 0.42 1.42
-5.62 0.43 1.43
-6.69 0.52 1.29
-6.82 0.55 1.28
-6.82 0.56 1.28
-6.96 0.59 1.26
-6.97 0.61 1.26
-7.17 0.65 1.23
-7.40 0.68 1.20
-7.28 0.69 1.22
-7.80 0.76 1.15
-7.38 0.74 1.20
-7.48 0.77 1.19
-7.04 0.74 1.25
-7.09 0.76 1.24
-6.97 0.77 1.25
-7.41 0.83 1.20
-7.66 0.88 1.16
-7.56 0.89 1.18
-7.62 0.91 1.17
-7.16 0.88 1.23
-7.51 0.94 1.18
-7.52 0.96 1.18
-7.52 0.98 1.18
-7.69 1.02 1.16
-7.63 1.03 1.16
-7.78 1.07 1.14
-7.99 1.12 1.12
-7.84 1.12 1.13
-7.84 1.13 1.13
-7.92 1.17 1.12
-8.04 1.20 1.11
-8.02 1.22 1.11
-6.74 1.05 1.27
-7.04 1.11 1.23
-7.42 1.19 1.18
-7.49 1.22 1.18
-7.54 1.25 1.17
-7.59 1.27 1.16
-7.53 1.28 1.17
-7.60 1.31 1.16
-7.56 1.33 1.16
-7.59 1.35 1.16
-7.65 1.38 1.15
-7.47 1.37 1.17
-7.54 1.40 1.16
-7.33 1.38 1.19
-7.53 1.44 1.16
-7.45 1.44 1.17
-7.59 1.49 1.15
-7.68 1.52 1.14
-7.64 1.54 1.15
-7.50 1.53 1.16
-7.57 1.56 1.15
-7.55 1.58 1.16
-7.42 1.57 1.17
-7.33 1.57 1.18
-7.37 1.60 1.18
-7.32 1.61 1.18
-7.24 1.61 1.19
-7.19 1.66 1.20
-2.86 1.08 1.75
-0.89 -0.84 1.76
-4.07 -0.61 1.35
-4.10 -0.59 1.35
-4.14 -0.58 1.35
-4.45 -0.59 1.31
-6.18 -0.72 1.09
-4.32 -0.55 1.32
-4.23 -0.53 1.34
-4.32 -0.52 1.32
-4.36 -0.50 1.32
-4.40 -0.49 1.31
-4.36 -0.47 1.32
-5.82 -0.55 1.13
-5.59 -0.52 1.16
-3.96 -0.40 1.37
-5.61 -0.48 1.16
-4.07 -0.37 1.35
-4.05 -0.36 1.36
-4.19 -0.35 1.34
-3.86 -0.32 1.38
-3.89 -0.30 1.38
-4.17 -0.30 1.34
-3.90 -0.27 1.38
-5.12 -0.31 1.22
-5.11 -0.29 1.22
-5.06 -0.27 1.23
-4.46 -0.23 1.30
-4.33 -0.21 1.32
-4.15 -0.19 1.34
-3.94 -0.17 1.37
-3.99 -0.15 1.36
-4.19 -0.14 1.34
-3.96 -0.12 1.37
-4.80 -0.12 1.26
-5.17 -0.11 1.21
-5.34 -0.10 1.19
-5.25 -0.08 1.20
-5.30 -0.06 1.19
-5.36 -0.04 1.19
-5.32 -0.02 1.19
-4.97 0.00 1.48
-4.94 0.02 1.49
-4.90 0.03 1.49
-4.90 0.04 1.49
-4.73 0.05 1.51
-4.85 0.07 1.50
-4.82 0.08 1.50
-4.80 0.09 1.50
-4.84 0.10 1.50
-4.87 0.11 1.49
-4.88 0.13 1.49
-4.88 0.14 1.49
-4.88 0.15 1.49
-4.90 0.16 1.49
-5.05 0.18 1.47
-5.19 0.20 1.45
-5.28 0.22 1.44
-5.22 0.23 1.45
-5.17 0.24 1.45
-5.22 0.25 1.45
-5.25 0.27 1.44
-5.35 0.29 1.43
-5.33 0.30 1.43
-5.51 0.32 1.41
-5.52 0.34 1.40
-5.50 0.35 1.41
-5.60 0.37 1.39
-5.53 0.38 1.40
-5.45 0.39 1.41
-6.15 0.45 1.32
-6.73 0.51 1.24
-6.74 0.52 1.24
-6.86 0.55 1.22
-6.87 0.57 1.22
-6.93 0.59 1.21
-7.08 0.62 1.19
-7.25 0.65 1.17
-7.44 0.69 1.14
-7.34 0.70 1.15
-7.16 0.70 1.18
-7.13 0.71 1.18
-7.16 0.73 1.18
-7.21 0.76 1.17
-7.36 0.79 1.15
-7.23 0.80 1.16
-7.16 0.81 1.17
-7.33 0.84 1.15
-7.50 0.88 1.13
-7.24 0.87 1.16
-7.13 0.87 1.18
-7.62 0.95 1.11
-7.45 0.95 1.13
-7.64 0.99 1.10
-7.68 1.02 1.10
-7.57 1.02 1.11
-7.79 1.07 1.08
-7.74 1.08 1.09
-7.53 1.07 1.12
-6.50 0.95 1.26
-6.74 1.00 1.22
-7.34 1.10 1.14
-6.96 1.07 1.19
-7.89 1.22 1.06
-6.97 1.10 1.19
-7.43 1.19 1.13
-7.32 1.19 1.14
-7.40 1.22 1.13
-7.52 1.26 1.11
-7.18 1.23 1.16
-7.37 1.28 1.13
-7.28 1.28 1.14
-7.45 1.33 1.12
-7.40 1.34 1.13
-7.45 1.37 1.12
-7.50 1.39 1.11
-7.38 1.39 1.13
-7.37 1.41 1.13
-7.45 1.44 1.12
-7.43 1.46 1.12
-7.48 1.49 1.11
-7.60 1.53 1.09
-7.61 1.55 1.09
-7.57 1.56 1.09
-7.53 1.58 1.10
-7.49 1.59 1.10
-7.39 1.59 1.12
-7.40 1.61 1.12
-7.22 1.59 1.14
-7.54 1.68 1.09
-7.29 1.64 1.13
-7.19 1.66 1.14
-4.56 -0.70 1.24
-4.31 -0.66 1.27
-5.99 -0.81 1.05
-4.19 -0.62 1.29
-4.27 -0.61 1.28
-4.22 -0.59 1.29
-4.41 -0.59 1.26
-4.15 -0.55 1.30
-4.13 -0.54 1.30
-4.31 -0.53 1.27
-6.03 -0.65 1.04
-5.81 -0.61 1.07
-5.77 -0.59 1.08
-4.31 -0.47 1.27
-5.81 -0.55 1.07
-5.48 -0.51 1.12
-5.80 -0.51 1.07
-4.13 -0.39 1.30
-5.49 -0.46 1.12
-5.29 -0.43 1.14
-3.88 -0.33 1.33
-4.01 -0.33 1.31
-5.35 -0.37 1.13
-5.66 -0.37 1.09
-4.29 -0.29 1.28
-5.20 -0.31 1.15
-4.89 -0.28 1.19
-3.76 -0.22 1.35
-4.97 -0.25 1.18
-4.19 -0.21 1.29
-4.78 -0.21 1.21
-4.23 -0.18 1.28
-4.13 -0.16 1.30
-4.73 -0.16 1.21
-4.89 -0.14 1.19
-5.09 -0.13 1.17
-5.06 -0.07 1.47
-5.05 -0.06 1.47
-5.04 -0.05 1.48
-4.99 -0.03 1.48
-5.10 -0.02 1.47
-5.04 -0.01 1.47
-5.26 -0.00 1.09
-5.34 0.02 1.08
-5.39 0.03 1.07
-5.43 0.05 1.06
-5.52 0.07 1.05
-5.43 0.09 1.06
-5.45 0.11 1.06
-5.41 0.13 1.06
-5.19 0.14 1.10
-5.79 0.17 1.01
-5.49 0.19 1.05
-5.36 0.20 1.07
-4.86 0.15 1.46
-4.85 0.16 1.46
-4.87 0.17 1.46
-5.00 0.19 1.44
-5.16 0.21 1.42
-5.15 0.22 1.42
-5.09 0.23 1.43
-5.16 0.25 1.42
-5.25 0.27 1.40
-5.45 0.29 1.37
-5.27 0.29 1.40
-5.35 0.31 1.39
-5.39 0.33 1.38
-5.38 0.34 1.38
-5.51 0.36 1.36
-5.45 0.37 1.37
-6.63 0.47 1.20
-6.81 0.49 1.18
-6.93 0.52 1.16
-6.94 0.54 1.16
-6.93 0.55 1.16
-7.05 0.58 1.14
-7.20 0.61 1.12
-7.38 0.64 1.09
-7.34 0.66 1.10
-7.28 0.67 1.11
-7.31 0.69 1.10
-7.10 0.69 1.13
-7.27 0.73 1.11
-7.29 0.75 1.10
-7.22 0.76 1.11
-7.33 0.79 1.10
-7.18 0.79 1.12
-7.31 0.82 1.10
-7.21 0.83 1.11
-7.44 0.87 1.08
-7.15 0.86 1.12
-7.05 0.86 1.14
-7.35 0.92 1.09
-7.72 0.98 1.04
-7.19 0.93 1.11
-7.51 0.99 1.07
-7.56 1.02 1.06
-7.55 1.04 1.06
-7.68 1.07 1.04
-7.30 1.04 1.09
-6.68 0.97 1.18
-6.97 1.03 1.14
-6.87 1.03 1.15
-7.42 1.13 1.07
-7.38 1.14 1.08
-7.21 1.14 1.10
-7.35 1.18 1.08
-7.26 1.18 1.09
-7.10 1.17 1.12
-7.02 1.18 1.13
-6.99 1.19 1.13
-7.04 1.22 1.12
-6.94 1.22 1.14
-6.86 1.22 1.15
-6.99 1.26 1.13
-7.09 1.30 1.12
-7.20 1.34 1.10
-7.09 1.34 1.11
-7.28 1.39 1.09
-7.71 1.49 1.02
-7.62 1.49 1.03
-7.73 1.53 1.02
-7.76 1.56 1.01
-7.75 1.58 1.01
-7.66 1.58 1.03
-7.70 1.61 1.02
-7.67 1.62 1.02
-7.85 1.68 1.00
-7.64 1.65 1.03
-7.70 1.68 1.02
-6.11 -0.70 0.97
-6.03 -0.63 0.98
-5.89 -0.60 1.00
-5.75 -0.57 1.02
-4.19 -0.43 1.24
-5.46 -0.47 1.06
-5.56 -0.46 1.05
-5.61 -0.44 1.04
-4.02 -0.34 1.27
-4.13 -0.33 1.25
-5.14 -0.36 1.11
-4.96 -0.34 1.13
-4.92 -0.32 1.14
-4.78 -0.30 1.16
-4.93 -0.28 1.14
-4.96 -0.27 1.13
-3.80 -0.21 1.30
-4.89 -0.23 1.14
-4.94 -0.21 1.14
-5.66 -0.22 1.03
-4.56 -0.17 1.19
-4.78 -0.16 1.16
-5.14 -0.15 1.11
-5.04 -0.13 1.12
-5.11 -0.11 1.11
-5.13 -0.09 1.11
-5.18 -0.08 1.10
-5.30 -0.06 1.08
-5.45 -0.04 1.06
-5.41 -0.02 1.07
-5.18 0.00 1.37
-5.04 0.02 1.39
-4.77 0.03 1.43
-4.79 0.04 1.43
-4.82 0.05 1.43
-4.83 0.06 1.42
-4.89 0.08 1.41
-4.90 0.09 1.41
-4.90 0.10 1.41
-4.90 0.11 1.41
-4.74 0.12 1.44
-4.82 0.14 1.42
-4.88 0.15 1.41
-4.87 0.16 1.42
-4.99 0.18 1.40
-5.02 0.19 1.39
-5.14 0.21 1.37
-5.46 0.24 1.33
-5.28 0.24 1.35
-5.59 0.27 1.31
-5.39 0.27 1.34
-5.54 0.29 1.31
-5.48 0.31 1.32
-5.53 0.32 1.32
-5.38 0.33 1.34
-5.47 0.35 1.32
-5.50 0.36 1.32
-5.50 0.38 1.32
-5.48 0.39 1.32
-5.50 0.40 1.32
-6.83 0.51 1.12
-6.89 0.54 1.11
-6.89 0.55 1.11
-6.86 0.57 1.11
-7.11 0.60 1.07
-7.21 0.63 1.06
-7.26 0.65 1.05
-7.28 0.67 1.05
-7.36 0.70 1.03
-7.19 0.70 1.06
-7.19 0.72 1.06
-7.26 0.74 1.05
-7.29 0.77 1.04
-7.29 0.78 1.04
-7.27 0.80 1.05
-7.25 0.82 1.05
-7.30 0.84 1.04
-7.31 0.86 1.04
-7.22 0.87 1.05
-7.38 0.90 1.03
-7.38 0.92 1.03
-7.45 0.95 1.01
-7.15 0.93 1.06
-7.33 0.97 1.03
-7.50 1.01 1.00
-7.16 0.99 1.06
-6.84 0.96 1.10
-6.58 0.94 1.14
-6.58 0.96 1.14
-6.56 0.97 1.14
-6.46 0.98 1.16
-6.44 0.99 1.16
-6.73 1.05 1.12
-6.76 1.07 1.11
-7.04 1.13 1.07
-6.75 1.10 1.11
-6.83 1.13 1.10
-6.98 1.18 1.07
-6.95 1.19 1.08
-6.94 1.21 1.08
-7.04 1.24 1.06
-6.96 1.24 1.07
-6.94 1.26 1.08
-6.90 1.27 1.08
-6.84 1.28 1.09
-6.86 1.30 1.09
-7.03 1.35 1.06
-7.45 1.44 1.00
-7.58 1.49 0.98
-7.63 1.52 0.97
-7.70 1.55 0.96
-7.68 1.56 0.96
-7.74 1.60 0.95
-7.66 1.60 0.96
-7.66 1.62 0.96
-7.69 1.65 0.95
-7.69 1.67 0.95
-7.72 1.69 0.95
-6.73 -1.36 0.81
-6.73 -1.30 0.81
-6.73 -1.28 0.81
-6.72 -1.25 0.81
-4.14 -0.69 1.20
-4.25 -0.69 1.18
-4.68 -0.68 1.12
-4.10 -0.61 1.20
-4.14 -0.60 1.20
-4.18 -0.59 1.19
-4.12 -0.57 1.20
-6.25 -0.71 0.88
-4.27 -0.53 1.18
-4.16 -0.51 1.19
-4.58 -0.52 1.13
-5.85 -0.60 0.94
-5.76 -0.57 0.96
-4.50 -0.47 1.14
-4.90 -0.48 1.08
-4.84 -0.46 1.09
-4.38 -0.41 1.16
-4.12 -0.38 1.20
-4.32 -0.37 1.17
-4.49 -0.37 1.14
-5.26 -0.39 1.03
-5.48 -0.38 1.00
-5.49 -0.36 0.99
-4.62 -0.31 1.12
-5.35 -0.32 1.02
-4.38 -0.26 1.16
-4.39 -0.25 1.16
-8.75 -0.27 0.85
-8.93 -0.25 0.82
-6.43 -0.17 1.19
-5.95 -0.14 1.26
-6.31 -0.13 1.21
-6.26 -0.12 1.21
-5.86 -0.10 1.27
-5.19 -0.07 1.37
-5.56 -0.06 1.32
-5.41 -0.05 1.34
-5.21 -0.02 1.37
-5.64 -0.00 0.91
-5.37 0.01 0.96
-5.48 0.03 0.94
-5.56 0.05 0.93
-4.32 0.06 1.12
-4.25 0.08 1.13
-4.35 0.09 1.11
-4.68 0.12 1.06
-4.77 0.13 1.05
-4.68 0.15 1.06
-4.31 0.16 1.12
-4.64 0.18 1.07
-4.95 0.21 1.02
-5.24 0.23 0.97
-7.05 0.33 0.69
-6.99 0.35 0.70
-6.21 0.35 0.82
-6.70 0.39 0.74
-4.14 0.30 1.14
-5.38 0.27 1.30
-5.32 0.30 1.31
-5.51 0.32 1.28
-5.34 0.32 1.31
-5.35 0.34 1.30
-5.34 0.35 1.30
-5.56 0.38 1.27
-5.52 0.39 1.28
-6.87 0.51 1.06
-6.72 0.52 1.09
-6.89 0.55 1.06
-7.07 0.58 1.03
-7.23 0.61 1.01
-7.14 0.62 1.02
-7.16 0.64 1.02
-6.69 0.64 1.09
-7.38 0.72 0.98
-7.36 0.73 0.98
-7.49 0.78 0.96
-7.14 0.77 1.01
-7.59 0.83 0.94
-7.56 0.87 0.95
-7.48 0.87 0.96
-7.46 0.91 0.96
-7.52 0.94 0.95
-7.43 0.94 0.97
-7.46 0.97 0.96
-7.63 1.03 0.93
-7.20 0.99 1.00
-7.35 1.05 0.97
-7.61 1.10 0.93
-7.89 1.18 0.89
-7.06 1.09 1.02
-6.68 1.07 1.08
-6.62 1.08 1.08
-6.78 1.12 1.06
-7.07 1.20 1.01
-7.02 1.23 1.02
-6.98 1.26 1.02
-7.27 1.33 0.98
-7.35 1.36 0.96
-7.47 1.42 0.94
-7.58 1.48 0.92
-7.85 1.55 0.88
-7.92 1.59 0.87
-7.95 1.61 0.86
-7.67 1.58 0.90
-7.94 1.67 0.86
-7.80 1.68 0.88
-1.19 -0.88 1.61
-1.44 -0.94 1.57
-1.33 -0.89 1.59
-1.44 -0.91 1.57
-1.27 -0.86 1.60
-1.08 -0.80 1.63
-1.09 -0.80 1.63
-1.17 -0.81 1.62
-1.44 -0.85 1.57
-6.80 -1.24 0.74
-6.58 -1.10 0.77
-6.67 -1.02 0.76
-6.72 -0.79 0.75
-7.82 -0.64 0.58
-7.90 -0.60 0.57
-8.05 -0.56 0.54
-8.22 -0.34 0.51
-5.41 -0.23 0.95
-5.32 -0.21 0.97
-5.32 -0.19 0.97
-5.38 -0.17 0.96
-5.30 -0.15 0.97
-5.52 -0.14 0.93
-5.32 -0.11 0.97
-5.60 -0.10 0.92
-5.45 -0.08 0.95
-5.64 -0.06 0.91
-5.53 -0.04 0.93
-5.26 -0.02 0.97
-8.46 0.01 0.75
-4.79 0.02 1.35
-4.85 0.03 1.34
-4.93 0.04 1.33
-8.58 0.09 0.73
-4.97 0.07 1.32
-4.85 0.08 1.34
-4.90 0.09 1.33
-4.92 0.10 1.33
-4.99 0.12 1.32
-4.83 0.12 1.34
-4.87 0.14 1.34
-4.90 0.15 1.33
-5.13 0.17 1.29
-5.42 0.19 1.25
-5.48 0.21 1.24
-5.43 0.22 1.24
-5.44 0.23 1.24
-5.44 0.25 1.24
-5.52 0.27 1.23
-5.37 0.27 1.25
-5.50 0.29 1.23
-5.47 0.30 1.23
-6.16 0.36 1.12
-5.54 0.34 1.22
-5.65 0.36 1.20
-6.08 0.40 1.13
-6.65 0.45 1.04
-6.04 0.43 1.14
-6.32 0.46 1.09
-6.51 0.49 1.06
-6.77 0.53 1.02
-6.80 0.55 1.01
-6.91 0.57 0.99
-6.80 0.58 1.01
-6.94 0.61 0.99
-6.86 0.62 1.00
-6.70 0.62 1.03
-6.83 0.65 1.00
-7.27 0.71 0.93
-7.27 0.73 0.93
-7.30 0.75 0.92
-7.31 0.77 0.92
-7.09 0.76 0.96
-7.36 0.81 0.91
-7.22 0.81 0.94
-6.18 0.72 1.11
-7.24 0.85 0.93
-7.34 0.88 0.91
-7.10 0.87 0.95
-7.42 0.93 0.90
-7.50 0.96 0.89
-7.56 0.98 0.87
-7.46 0.99 0.89
-7.52 1.02 0.88
-7.46 1.03 0.89
-7.37 1.03 0.90
-7.44 1.06 0.89
-7.60 1.10 0.86
-7.46 1.10 0.89
-7.54 1.13 0.87
-7.64 1.17 0.85
-7.73 1.20 0.84
-7.93 1.25 0.81
-7.24 1.16 0.92
-7.28 1.19 0.91
-7.10 1.18 0.94
-7.21 1.21 0.92
-7.15 1.22 0.93
-7.19 1.25 0.92
-7.12 1.25 0.93
-7.19 1.28 0.92
-7.36 1.33 0.89
-7.56 1.39 0.86
-7.62 1.42 0.85
-7.60 1.43 0.85
-8.08 1.54 0.77
-8.34 1.61 0.72
-8.35 1.63 0.72
-8.34 1.65 0.72
-8.34 1.69 0.72
-7.93 1.64 0.79
-7.98 1.69 0.78
-7.79 1.69 0.81
-6.30 -1.69 0.73
-6.34 -1.61 0.73
-6.31 -1.58 0.73
-6.43 -1.56 0.71
-6.34 -1.52 0.73
-6.47 -1.50 0.71
-6.39 -1.47 0.72
-6.72 -1.50 0.67
-6.76 -1.46 0.66
-6.71 -1.43 0.67
-6.69 -1.36 0.67
-6.65 -1.33 0.68
-6.76 -1.33 0.66
-6.96 -1.29 0.63
-7.01 -1.27 0.62
-6.73 -1.21 0.67
-6.81 -1.20 0.66
-6.72 -1.17 0.67
-6.83 -1.16 0.65
-6.85 -0.98 0.65
-4.30 -0.68 1.07
-6.45 -0.86 0.72
-6.66 -0.77 0.68
-6.36 -0.72 0.73
-6.13 -0.66 0.77
-6.29 -0.63 0.74
-6.18 -0.58 0.76
-6.07 -0.55 0.78
-7.58 -0.63 0.53
-6.04 -0.51 0.78
-7.77 -0.59 0.50
-5.12 -0.42 0.93
-9.13 -0.48 0.65
-8.98 -0.45 0.67
-8.99 -0.43 0.67
-9.01 -0.41 0.67
-9.13 -0.39 0.64
-9.36 -0.38 0.61
-9.26 -0.35 0.62
-9.36 -0.33 0.61
-9.35 -0.31 0.61
-9.06 -0.28 0.65
-8.99 -0.25 0.67
-9.33 -0.24 0.61
-9.29 -0.22 0.62
-6.48 -0.14 1.08
-6.51 -0.12 1.07
-8.21 -0.13 0.79
-6.87 -0.10 1.01
-8.35 -0.09 0.77
-8.30 -0.07 0.78
-8.35 -0.05 0.77
-8.50 -0.03 0.74
-8.38 -0.01 0.76
-4.47 -0.00 0.98
-4.76 0.01 0.93
-4.24 0.03 1.02
-8.43 0.07 0.69
-8.26 0.09 0.72
-4.95 0.07 1.29
-4.99 0.08 1.28
-4.91 0.09 1.29
-5.16 0.11 1.25
-4.89 0.11 1.30
-4.75 0.12 1.32
-5.93 0.17 1.12
-5.13 0.16 1.25
-5.30 0.18 1.22
-5.24 0.19 1.23
-5.21 0.20 1.24
-5.26 0.21 1.23
-5.30 0.23 1.22
-5.35 0.24 1.21
-5.34 0.26 1.22
-5.24 0.27 1.23
-5.34 0.28 1.22
-6.77 0.37 0.97
-5.52 0.32 1.18
-5.50 0.33 1.19
-5.43 0.34 1.20
-5.39 0.35 1.20
-5.56 0.38 1.17
-6.25 0.44 1.05
-5.50 0.40 1.18
-5.29 0.40 1.22
-5.65 0.44 1.16
-6.72 0.54 0.97
-6.44 0.53 1.02
-5.77 0.49 1.14
-5.82 0.51 1.13
-7.08 0.64 0.91
-7.17 0.66 0.89
-7.15 0.68 0.89
-7.30 0.71 0.87
-7.17 0.72 0.89
-7.20 0.74 0.88
-7.35 0.77 0.86
-7.26 0.78 0.87
-6.24 0.69 1.05
-5.98 0.68 1.09
-6.37 0.73 1.03
-6.94 0.81 0.92
-7.03 0.84 0.91
-7.15 0.87 0.89
-7.29 0.91 0.86
-7.45 0.95 0.83
-7.44 0.96 0.83
-7.35 0.97 0.85
-7.32 0.99 0.85
-7.24 0.99 0.87
-7.30 1.02 0.86
-7.27 1.03 0.86
-7.42 1.07 0.83
-7.39 1.09 0.84
-7.31 1.10 0.85
-7.43 1.13 0.83
-7.38 1.14 0.84
-7.43 1.17 0.83
-6.90 1.11 0.92
-7.67 1.25 0.78
-6.89 1.14 0.92
-6.72 1.13 0.95
-6.86 1.17 0.93
-7.06 1.22 0.89
-7.04 1.24 0.89
-7.23 1.29 0.86
-7.36 1.33 0.83
-7.43 1.36 0.82
-7.51 1.39 0.81
-7.75 1.45 0.76
-7.71 1.47 0.77
-7.77 1.50 0.76
-7.38 1.44 0.83
-8.21 1.62 0.68
-7.88 1.58 0.74
-8.13 1.65 0.69
-1.09 -0.87 1.57
-1.05 -0.85 1.58
-1.67 -0.85 1.47
-1.80 -0.84 1.45
-1.66 -0.81 1.47
-1.86 -0.83 1.44
-6.25 -1.67 0.67
-6.21 -1.64 0.68
-6.30 -1.64 0.66
-6.35 -1.63 0.66
-1.54 -0.71 1.49
-1.67 -0.73 1.47
-6.41 -1.55 0.65
-6.36 -1.52 0.66
-6.39 -1.51 0.65
-6.38 -1.48 0.65
-6.14 -1.42 0.70
-6.30 -1.43 0.67
-6.27 -1.40 0.67
-6.43 -1.41 0.65
-6.60 -1.39 0.62
-6.44 -1.34 0.65
-4.30 -1.00 1.02
-4.38 -1.00 1.00
-6.51 -1.29 0.63
-6.25 -1.23 0.68
-4.59 -0.96 0.97
-6.83 -1.22 0.58
-6.79 -1.20 0.59
-6.89 -1.16 0.57
-6.68 -1.12 0.61
-6.77 -1.08 0.59
-6.82 -1.07 0.58
-6.77 -1.04 0.59
-6.81 -1.02 0.58
-6.67 -0.98 0.61
-6.78 -0.97 0.59
-6.71 -0.94 0.60
-6.56 -0.89 0.63
-4.61 -0.61 0.96
-5.01 -0.57 0.90
-6.08 -0.61 0.71
-7.60 -0.70 0.45
-4.83 -0.49 0.93
-7.13 -0.60 0.53
-6.08 -0.51 0.71
-7.68 -0.59 0.43
-5.39 -0.43 0.83
-5.38 -0.42 0.83
-5.67 -0.41 0.78
-5.89 -0.40 0.74
-5.66 -0.37 0.78
-5.55 -0.35 0.80
-7.96 -0.43 0.39
-7.86 -0.40 0.40
-4.27 -0.24 1.02
-5.91 -0.28 0.74
-5.95 -0.27 0.73
-7.17 -0.28 0.52
-5.33 -0.21 0.84
-5.27 -0.19 0.85
-5.25 -0.17 0.85
-5.21 -0.15 0.86
-5.18 -0.13 0.86
-5.18 -0.11 0.86
-5.25 -0.10 0.85
-5.70 -0.08 0.77
-4.84 -0.06 0.92
-4.91 -0.04 0.91
-4.51 -0.02 0.98
-6.97 0.01 0.88
-8.05 0.03 0.69
-8.04 0.05 0.69
-8.09 0.07 0.68
-8.18 0.09 0.66
-8.31 0.11 0.64
-7.99 0.12 0.69
-8.21 0.15 0.66
-8.33 0.17 0.63
-6.29 0.14 1.00
-8.16 0.21 0.66
-8.26 0.23 0.65
-6.38 0.19 0.98
-6.25 0.21 1.01
-6.11 0.22 1.03
-6.18 0.23 1.02
-6.00 0.24 1.05
-6.06 0.26 1.04
-5.85 0.27 1.08
-5.84 0.28 1.08
-5.47 0.28 1.15
-5.90 0.31 1.07
-5.58 0.31 1.12
-5.52 0.32 1.13
-5.99 0.36 1.05
-6.09 0.38 1.03
-6.58 0.43 0.94
-6.59 0.45 0.94
-6.90 0.48 0.88
-6.57 0.48 0.94
-6.85 0.51 0.89
-6.91 0.53 0.88
-6.92 0.55 0.88
-6.82 0.56 0.90
-7.00 0.59 0.86
-7.02 0.61 0.86
-7.41 0.66 0.79
-7.38 0.68 0.79
-7.30 0.69 0.80
-7.14 0.69 0.83
-6.86 0.69 0.88
-7.15 0.73 0.83
-7.20 0.75 0.82
-7.04 0.76 0.85
-7.16 0.79 0.83
-7.16 0.80 0.83
-7.12 0.82 0.83
-7.01 0.82 0.85
-6.96 0.83 0.86
-6.97 0.85 0.86
-6.06 0.76 1.02
-6.65 0.85 0.92
-6.44 0.84 0.95
-6.36 0.85 0.97
-6.19 0.84 1.00
-6.73 0.93 0.90
-6.86 0.96 0.87
-7.01 1.00 0.85
-7.12 1.03 0.82
-7.09 1.05 0.83
-7.36 1.10 0.78
-7.24 1.10 0.80
-7.20 1.12 0.81
-7.19 1.13 0.81
-7.08 1.14 0.83
-7.04 1.15 0.83
-6.88 1.14 0.86
-6.72 1.13 0.89
-7.16 1.22 0.81
-7.22 1.25 0.80
-7.33 1.29 0.78
-7.16 1.28 0.81
-7.21 1.30 0.80
-7.32 1.34 0.78
-7.51 1.39 0.74
-7.51 1.41 0.74
-7.75 1.48 0.69
-7.89 1.52 0.67
-7.88 1.54 0.67
-8.10 1.60 0.63
-8.03 1.61 0.64
-8.25 1.67 0.60
-8.08 1.66 0.63
-1.95 -0.85 1.38
-6.27 -1.66 0.60
-6.46 -1.67 0.56
-6.33 -1.63 0.59
-6.33 -1.60 0.59
-6.39 -1.59 0.58
-6.13 -1.53 0.62
-6.31 -1.54 0.59
-6.09 -1.48 0.63
-6.28 -1.49 0.60
-6.39 -1.49 0.58
-6.29 -1.45 0.60
-6.27 -1.42 0.60
-6.25 -1.40 0.60
-6.28 -1.38 0.60
-6.42 -1.38 0.57
-4.31 -1.04 0.96
-4.44 -1.04 0.93
-4.35 -0.98 0.95
-4.34 -0.96 0.95
-4.42 -0.96 0.94
-4.40 -0.92 0.94
-4.70 -0.94 0.89
-6.54 -1.17 0.55
-6.46 -1.13 0.57
-6.74 -1.15 0.52
-6.55 -1.10 0.55
-6.47 -1.07 0.57
-6.27 -1.03 0.60
-6.64 -1.05 0.54
-6.66 -1.03 0.53
-6.58 -1.00 0.55
-4.19 -0.72 0.98
-4.42 -0.73 0.94
-6.63 -0.94 0.54
-4.30 -0.68 0.96
-4.13 -0.65 0.99
-4.57 -0.67 0.91
-4.28 -0.63 0.97
-4.50 -0.63 0.92
-4.80 -0.64 0.87
-4.87 -0.63 0.86
-4.89 -0.62 0.85
-4.92 -0.60 0.85
-4.96 -0.59 0.84
-5.02 -0.57 0.83
-4.90 -0.55 0.85
-4.63 -0.51 0.90
-5.00 -0.52 0.84
-4.63 -0.48 0.90
-4.65 -0.46 0.90
-5.01 -0.47 0.83
-4.48 -0.42 0.93
-4.59 -0.41 0.91
-4.93 -0.41 0.85
-5.79 -0.44 0.69
-5.28 -0.39 0.78
-5.54 -0.39 0.74
-4.99 -0.34 0.84
-4.83 -0.32 0.86
-5.01 -0.31 0.83
-4.61 -0.27 0.90
-4.78 -0.26 0.87
-4.74 -0.24 0.88
-4.78 -0.23 0.87
-4.93 -0.22 0.85
-7.06 -0.26 0.46
-6.92 -0.23 0.49
-5.74 -0.18 0.70
-5.28 -0.15 0.78
-5.37 -0.14 0.76
-6.54 -0.09 0.96
-6.45 -0.07 0.98
-6.84 -0.06 0.90
-6.83 -0.05 0.91
-6.72 -0.03 0.93
-7.88 -0.01 0.72
-4.63 -0.01 0.84
-4.78 0.01 0.81
-4.70 0.03 0.82
-4.72 0.05 0.82
-4.47 0.06 0.87
-4.41 0.08 0.88
-4.32 0.09 0.89
-4.27 0.11 0.90
-4.24 0.12 0.91
-4.22 0.14 0.91
-4.13 0.15 0.93
-4.31 0.17 0.89
-6.19 0.19 0.96
-5.65 0.19 1.06
-5.73 0.20 1.05
-5.79 0.22 1.04
-5.56 0.22 1.08
-5.63 0.24 1.07
-5.60 0.25 1.07
-5.49 0.26 1.09
-5.42 0.27 1.11
-5.53 0.29 1.09
-5.57 0.31 1.08
-5.44 0.31 1.10
-5.69 0.34 1.05
-5.68 0.36 1.05
-5.38 0.35 1.11
-5.42 0.37 1.10
-5.59 0.39 1.07
-5.31 0.39 1.12
-5.29 0.40 1.13
-5.30 0.41 1.12
-5.60 0.45 1.07
-5.43 0.45 1.10
-6.79 0.58 0.84
-6.87 0.60 0.82
-6.84 0.61 0.83
-6.91 0.64 0.82
-6.88 0.65 0.82
-6.53 0.64 0.89
-5.79 0.58 1.03
-7.00 0.71 0.80
-6.06 0.64 0.97
-5.99 0.65 0.99
-5.96 0.66 0.99
-6.17 0.70 0.95
-6.14 0.71 0.96
-6.07 0.71 0.97
-6.68 0.80 0.85
-6.71 0.82 0.85
-6.95 0.87 0.80
-7.11 0.90 0.77
-7.03 0.91 0.78
-6.74 0.89 0.84
-6.97 0.94 0.79
-6.96 0.96 0.79
-6.70 0.94 0.84
-6.96 0.99 0.79
-6.87 1.00 0.81
-7.01 1.03 0.78
-6.82 1.02 0.82
-7.12 1.08 0.76
-6.95 1.08 0.79
-6.76 1.07 0.83
-7.14 1.14 0.75
-7.04 1.15 0.77
-7.23 1.19 0.74
-7.15 1.20 0.75
-7.24 1.23 0.73
-7.30 1.26 0.72
-7.30 1.28 0.72
-7.31 1.30 0.71
-7.41 1.33 0.70
-7.53 1.38 0.67
-7.65 1.42 0.65
-7.83 1.47 0.61
-7.92 1.50 0.59
-7.97 1.53 0.58
-7.90 1.54 0.59
-8.04 1.59 0.57
-8.06 1.61 0.56
-8.05 1.63 0.56
-8.09 1.68 0.55
-7.57 1.68 0.65
-7.35 1.65 0.69
-1.27 -0.97 1.47
-1.34 -0.98 1.46
-1.31 -0.96 1.47
-1.29 -0.94 1.47
-1.66 -0.76 1.40
-6.12 -1.58 0.55
-6.40 -1.61 0.50
-1.60 -0.72 1.42
-1.63 -0.72 1.41
-1.76 -0.73 1.39
-1.66 -0.70 1.41
-1.63 -0.69 1.41
-1.73 -0.70 1.39
-1.76 -0.69 1.39
-1.61 -0.66 1.41
-6.36 -1.42 0.51
-6.43 -1.41 0.50
-1.59 -0.63 1.42
-6.41 -1.36 0.50
-6.54 -1.36 0.48
-4.52 -1.02 0.86
-6.19 -1.24 0.54
-4.48 -0.98 0.87
-4.71 -0.99 0.83
-4.38 -0.93 0.89
-4.36 -0.91 0.89
-4.62 -0.93 0.84
-4.53 -0.90 0.86
-4.60 -0.89 0.85
-4.50 -0.87 0.87
-4.40 -0.84 0.88
-4.32 -0.81 0.90
-4.39 -0.80 0.89
-4.45 -0.79 0.88
-4.39 -0.77 0.89
-4.36 -0.75 0.89
-4.43 -0.74 0.88
-4.49 -0.70 0.87
-4.50 -0.68 0.87
-4.53 -0.67 0.86
-4.61 -0.66 0.85
-4.83 -0.66 0.80
-4.78 -0.64 0.81
-4.51 -0.60 0.86
-4.85 -0.61 0.80
-4.42 -0.56 0.88
-4.80 -0.57 0.81
-4.69 -0.55 0.83
-4.62 -0.53 0.84
-4.65 -0.50 0.84
-4.63 -0.48 0.84
-4.44 -0.45 0.88
-4.44 -0.43 0.88
-4.28 -0.40 0.91
-4.54 -0.40 0.86
-4.88 -0.41 0.79
-6.02 -0.45 0.58
-4.35 -0.34 0.89
-5.66 -0.39 0.65
-5.10 -0.35 0.75
-5.01 -0.32 0.77
-4.35 -0.28 0.89
-4.40 -0.27 0.88
-4.52 -0.25 0.86
-4.37 -0.23 0.89
-4.10 -0.21 0.94
-4.19 -0.19 0.92
-6.98 -0.26 0.39
-6.81 -0.23 0.43
-6.73 -0.20 0.44
-5.33 -0.15 0.71
-5.97 -0.15 0.58
-5.18 -0.11 0.73
-5.12 -0.10 0.74
-4.94 -0.08 0.78
-4.90 -0.06 0.79
-5.02 -0.04 0.76
-4.39 -0.02 0.88
-6.86 0.00 0.77
-7.50 0.02 0.65
-7.25 0.04 0.70
-7.21 0.06 0.70
-7.37 0.08 0.67
-7.84 0.10 0.58
-6.83 0.11 0.78
-6.57 0.12 0.83
-6.63 0.14 0.82
-6.60 0.15 0.82
-6.76 0.17 0.79
-7.85 0.22 0.57
-6.41 0.19 0.86
-5.94 0.20 0.95
-8.03 0.28 0.54
-7.99 0.30 0.55
-5.89 0.24 0.96
-6.04 0.26 0.93
-5.87 0.27 0.96
-5.87 0.28 0.96
-5.81 0.29 0.97
-6.05 0.32 0.93
-6.10 0.34 0.92
-7.36 0.42 0.67
-6.20 0.37 0.90
-6.12 0.38 0.91
-5.87 0.38 0.96
-6.22 0.42 0.89
-6.37 0.45 0.86
-6.68 0.48 0.80
-7.22 0.54 0.69
-7.33 0.57 0.67
-7.20 0.57 0.69
-5.94 0.49 0.94
-5.81 0.50 0.97
-7.28 0.63 0.68
-7.02 0.63 0.73
-6.98 0.64 0.73
-6.48 0.62 0.83
-5.95 0.58 0.94
-5.91 0.59 0.95
-6.00 0.62 0.93
-6.09 0.64 0.91
-5.82 0.63 0.96
-5.91 0.65 0.94
-5.90 0.67 0.95
-5.77 0.67 0.97
-5.73 0.68 0.98
-5.59 0.68 1.01
-5.81 0.72 0.96
-6.84 0.86 0.75
-6.87 0.88 0.75
-6.85 0.89 0.75
-6.63 0.88 0.79
-6.73 0.91 0.77
-7.05 0.97 0.71
-6.78 0.95 0.76
-6.66 0.95 0.79
-6.62 0.96 0.79
-6.61 0.98 0.79
-6.77 1.02 0.76
-6.75 1.03 0.76
-6.91 1.07 0.73
-6.90 1.09 0.73
-6.96 1.12 0.72
-7.00 1.14 0.71
-7.08 1.17 0.69
-7.18 1.21 0.67
-7.20 1.23 0.67
-7.29 1.26 0.65
-7.26 1.28 0.65
-7.30 1.30 0.64
-7.37 1.33 0.63
-7.38 1.35 0.63
-7.48 1.39 0.61
-7.52 1.41 0.60
-7.69 1.47 0.56
-7.62 1.47 0.57
-7.80 1.53 0.54
-7.94 1.57 0.51
-7.89 1.58 0.52
-7.96 1.62 0.50
-8.05 1.66 0.48
-8.02 1.67 0.49
-6.69 1.42 0.76
-6.38 1.61 0.80
-3.01 -1.16 1.09
-6.08 -1.58 0.48
-6.05 -1.56 0.49
-6.23 -1.57 0.45
-6.05 -1.51 0.49
-6.16 -1.51 0.46
-6.23 -1.50 0.45
-6.24 -1.48 0.45
-6.30 -1.47 0.44
-6.12 -1.42 0.47
-6.15 -1.41 0.47
-6.20 -1.39 0.46
-6.32 -1.39 0.44
-6.17 -1.35 0.47
-6.27 -1.34 0.45
-6.22 -1.31 0.46
-6.34 -1.31 0.43
-4.35 -1.00 0.83
-4.51 -1.00 0.80
-4.67 -1.01 0.77
-4.56 -0.98 0.79
-6.18 -1.18 0.47
-4.65 -0.96 0.77
-4.52 -0.92 0.80
-4.36 -0.88 0.83
-4.26 -0.85 0.85
-4.17 -0.83 0.87
-4.18 -0.81 0.86
-4.27 -0.81 0.85
-4.30 -0.79 0.84
-4.31 -0.78 0.84
-4.28 -0.76 0.84
-4.42 -0.76 0.82
-4.39 -0.74 0.82
-4.34 -0.72 0.83
-4.27 -0.69 0.85
-4.33 -0.68 0.84
-4.41 -0.68 0.82
-4.52 -0.67 0.80
-4.43 -0.65 0.81
-4.48 -0.63 0.81
-4.39 -0.61 0.82
-4.33 -0.59 0.83
-4.39 -0.58 0.82
-4.64 -0.58 0.77
-4.79 -0.58 0.74
-4.80 -0.56 0.74
-4.60 -0.53 0.78
-4.30 -0.49 0.84
-3.90 -0.44 0.92
-5.13 -0.51 0.68
-4.92 -0.48 0.72
-4.98 -0.47 0.71
-5.28 -0.47 0.65
-4.17 -0.38 0.87
-4.23 -0.37 0.85
-4.20 -0.35 0.86
-4.29 -0.34 0.84
-4.42 -0.33 0.82
-5.03 -0.35 0.70
-4.53 -0.31 0.79
-4.21 -0.28 0.86
-4.24 -0.24 0.85
-6.39 -0.22 0.87
-6.41 -0.20 0.87
-6.46 -0.19 0.86
-6.44 -0.17 0.86
-6.52 -0.16 0.84
-6.63 -0.14 0.82
-6.79 -0.13 0.79
-6.58 -0.11 0.83
-6.76 -0.10 0.80
-7.51 -0.09 0.65
-7.25 -0.07 0.70
-7.73 -0.05 0.60
-7.70 -0.03 0.61
-7.52 -0.01 0.65
-4.88 -0.01 0.66
-4.44 0.01 0.76
-4.51 0.03 0.74
-4.52 0.04 0.74
-4.53 0.06 0.74
-4.55 0.08 0.73
-4.54 0.09 0.73
-4.56 0.11 0.73
-4.59 0.13 0.72
-4.54 0.14 0.73
-4.54 0.16 0.73
-4.54 0.18 0.73
-4.66 0.20 0.71
-4.60 0.21 0.72
-4.56 0.23 0.73
-4.61 0.25 0.72
-4.69 0.27 0.70
-4.71 0.28 0.69
-4.69 0.30 0.70
-4.61 0.31 0.71
-5.71 0.29 0.95
-5.89 0.31 0.91
-5.80 0.32 0.93
-5.50 0.32 0.99
-5.54 0.33 0.98
-5.45 0.34 1.00
-5.56 0.36 0.98
-5.73 0.39 0.95
-5.67 0.40 0.96
-6.86 0.49 0.71
-5.95 0.45 0.90
-5.96 0.46 0.89
-6.31 0.50 0.82
-6.10 0.50 0.87
-5.67 0.48 0.95
-5.68 0.50 0.95
-5.67 0.51 0.95
-5.81 0.54 0.92
-6.09 0.58 0.86
-5.77 0.56 0.93
-5.82 0.58 0.92
-5.99 0.61 0.88
-5.89 0.62 0.90
-6.28 0.67 0.82
-5.89 0.65 0.90
-5.69 0.64 0.94
-5.64 0.65 0.95
-6.47 0.76 0.78
-5.73 0.69 0.93
-6.58 0.80 0.75
-6.49 0.81 0.77
-6.34 0.81 0.80
-6.64 0.86 0.74
-6.32 0.84 0.81
-6.47 0.87 0.78
-6.53 0.90 0.76
-6.56 0.92 0.75
-6.45 0.92 0.78
-6.47 0.94 0.77
-6.59 0.97 0.75
-6.71 1.01 0.72
-6.80 1.04 0.70
-6.79 1.05 0.70
-6.76 1.06 0.71
-6.96 1.11 0.67
-7.01 1.14 0.65
-7.32 1.20 0.59
-7.31 1.22 0.59
-7.33 1.24 0.58
-7.37 1.27 0.57
-7.39 1.29 0.57
-7.44 1.32 0.56
-7.41 1.33 0.56
-7.36 1.34 0.57
-7.43 1.37 0.56
-7.38 1.38 0.57
-7.45 1.42 0.55
-7.55 1.45 0.53
-7.63 1.49 0.51
-7.57 1.50 0.52
-8.00 1.60 0.43
-8.12 1.64 0.40
-8.03 1.65 0.42
-3.38 0.76 1.40
-7.76 1.69 0.47
-7.46 1.67 0.53
-1.45 -0.68 1.38
-6.16 -1.49 0.40
-6.24 -1.48 0.38
-6.14 -1.44 0.40
-1.99 -0.73 1.27
-6.14 -1.40 0.41
-6.14 -1.38 0.41
-6.16 -1.36 0.40
-6.11 -1.33 0.41
-6.16 -1.30 0.40
-6.14 -1.28 0.41
-6.16 -1.26 0.40
-6.00 -1.21 0.44
-5.32 -1.10 0.58
-5.06 -1.04 0.63
-4.35 -0.93 0.78
-4.44 -0.92 0.76
-4.48 -0.91 0.75
-4.34 -0.88 0.78
-4.35 -0.86 0.78
-4.46 -0.86 0.76
-4.38 -0.83 0.77
-4.32 -0.81 0.79
-4.35 -0.80 0.78
-4.34 -0.78 0.78
-4.19 -0.75 0.81
-4.29 -0.74 0.79
-4.33 -0.73 0.78
-4.35 -0.72 0.78
-4.34 -0.70 0.78
-4.32 -0.68 0.79
-4.39 -0.67 0.77
-4.24 -0.64 0.80
-4.01 -0.60 0.85
-4.23 -0.61 0.81
-4.45 -0.61 0.76
-4.61 -0.61 0.73
-4.42 -0.58 0.77
-4.51 -0.57 0.75
-4.96 -0.59 0.65
-4.23 -0.51 0.80
-5.13 -0.57 0.62
-4.05 -0.47 0.84
-4.01 -0.45 0.85
-4.25 -0.45 0.80
-3.94 -0.42 0.86
-3.99 -0.40 0.85
-4.39 -0.41 0.77
-3.93 -0.37 0.87
-4.28 -0.37 0.79
-4.28 -0.36 0.79
-4.24 -0.34 0.80
-4.23 -0.32 0.80
-4.72 -0.33 0.70
-5.09 -0.33 0.63
-6.58 -0.31 0.32
-6.20 -0.26 0.40
-4.23 -0.18 0.80
-5.48 -0.20 0.54
-5.16 -0.17 0.61
-4.40 -0.14 0.77
-4.51 -0.12 0.74
-4.46 -0.10 0.75
-4.02 -0.08 0.84
-5.53 -0.08 0.53
-5.25 -0.06 0.59
-5.12 -0.04 0.62
-4.98 -0.02 0.64
-5.77 0.00 0.88
-5.55 0.02 0.93
-5.54 0.03 0.93
-5.56 0.04 0.93
-8.05 0.08 0.39
-7.32 0.09 0.55
-7.34 0.11 0.54
-7.11 0.14 0.59
-7.13 0.16 0.59
-6.86 0.17 0.64
-6.46 0.18 0.73
-6.44 0.19 0.73
-6.53 0.21 0.71
-6.46 0.23 0.73
-6.79 0.26 0.66
-7.34 0.29 0.54
-5.96 0.25 0.83
-5.54 0.25 0.93
-5.44 0.26 0.95
-5.52 0.28 0.93
-5.58 0.29 0.91
-5.70 0.31 0.89
-5.76 0.33 0.88
-5.64 0.34 0.90
-5.70 0.36 0.89
-5.78 0.38 0.87
-5.74 0.39 0.88
-5.79 0.41 0.87
-5.84 0.42 0.86
-5.81 0.44 0.86
-5.79 0.45 0.86
-5.90 0.47 0.84
-5.87 0.49 0.85
-5.74 0.49 0.87
-5.74 0.50 0.87
-7.07 0.63 0.59
-5.67 0.53 0.89
-6.25 0.60 0.76
-6.63 0.65 0.68
-6.67 0.67 0.67
-6.33 0.65 0.74
-6.37 0.67 0.73
-6.20 0.67 0.77
-6.17 0.68 0.77
-5.99 0.68 0.81
-6.45 0.74 0.71
-6.49 0.76 0.70
-6.63 0.80 0.67
-6.68 0.82 0.66
-6.43 0.81 0.71
-6.50 0.83 0.70
-6.61 0.86 0.67
-6.63 0.88 0.67
-6.65 0.90 0.66
-6.32 0.87 0.73
-6.37 0.90 0.72
-6.40 0.92 0.72
-6.61 0.96 0.67
-6.72 1.00 0.64
-6.73 1.01 0.64
-6.64 1.02 0.66
-6.74 1.05 0.64
-6.66 1.05 0.65
-6.70 1.08 0.64
-6.99 1.14 0.58
-6.96 1.15 0.59
-7.23 1.21 0.53
-7.25 1.24 0.52
-7.09 1.23 0.55
-7.27 1.28 0.51
-7.26 1.29 0.51
-7.24 1.31 0.52
-7.31 1.34 0.50
-7.32 1.36 0.50
-7.26 1.37 0.51
-7.36 1.41 0.49
-7.51 1.45 0.45
-7.48 1.47 0.46
-7.49 1.49 0.46
-7.46 1.50 0.46
-6.40 1.31 0.70
-6.31 1.31 0.71
-6.46 1.36 0.68
-6.52 1.39 0.66
-6.51 1.47 0.66
-6.63 1.55 0.63
-6.93 1.63 0.57
-6.48 1.57 0.66
-6.95 1.69 0.56
-6.68 1.69 0.61
-3.32 -1.41 0.92
-3.40 -1.42 0.90
-3.38 -1.39 0.91
-3.20 -1.32 0.95
-3.07 -1.27 0.97
-2.98 -1.16 1.00
-2.95 -1.15 1.00
-2.75 -1.09 1.05
-2.90 -1.11 1.01
-2.77 -1.07 1.04
-3.04 -1.11 0.99
-2.94 -1.08 1.01
-2.88 -1.05 1.02
-2.91 -1.05 1.01
-2.93 -1.04 1.01
-2.99 -1.03 1.00
-2.90 -1.01 1.02
-2.71 -0.96 1.06
-2.83 -0.97 1.03
-2.83 -0.95 1.03
-2.75 -0.93 1.05
-2.65 -0.90 1.07
-2.55 -0.87 1.09
-2.22 -0.80 1.17
-2.49 -0.83 1.11
-5.77 -1.23 0.40
-5.71 -1.20 0.41
-5.64 -1.17 0.43
-5.66 -1.15 0.42
-2.57 -0.70 1.09
-2.69 -0.71 1.07
-5.49 -1.07 0.46
-5.65 -1.07 0.42
-4.52 -0.89 0.67
-4.90 -0.92 0.59
-4.40 -0.84 0.70
-4.43 -0.83 0.69
-4.47 -0.82 0.68
-4.50 -0.80 0.68
-4.45 -0.78 0.69
-4.47 -0.77 0.68
-4.44 -0.75 0.69
-4.40 -0.73 0.70
-4.39 -0.71 0.70
-4.28 -0.68 0.72
-4.25 -0.66 0.73
-4.31 -0.65 0.72
-4.37 -0.64 0.70
-4.41 -0.63 0.69
-4.29 -0.60 0.72
-5.87 -0.70 0.38
-5.93 -0.69 0.37
-5.89 -0.67 0.37
-1.84 -0.33 1.25
-1.73 -0.31 1.27
-5.81 -0.60 0.39
-1.64 -0.29 1.29
-5.18 -0.52 0.53
-4.73 -0.47 0.63
-1.77 -0.27 1.26
-4.70 -0.43 0.63
-4.75 -0.42 0.62
-6.71 -0.37 0.68
-6.83 -0.37 0.66
-6.88 -0.35 0.65
-7.12 -0.35 0.60
-6.80 -0.31 0.66
-6.75 -0.30 0.67
-6.90 -0.27 0.64
-6.67 -0.24 0.69
-6.60 -0.22 0.71
-6.47 -0.20 0.74
-6.48 -0.19 0.73
-6.47 -0.17 0.73
-6.47 -0.16 0.73
-6.54 -0.14 0.72
-6.54 -0.13 0.72
-7.06 -0.12 0.61
-7.94 -0.11 0.42
-7.93 -0.09 0.42
-7.42 -0.07 0.53
-5.68 -0.03 0.90
-5.56 -0.01 0.93
-4.30 -0.01 0.65
-4.34 0.01 0.64
-4.59 0.03 0.59
-5.63 0.05 0.86
-5.54 0.06 0.88
-5.63 0.07 0.86
-5.48 0.08 0.89
-5.49 0.10 0.89
-5.29 0.11 0.93
-5.36 0.12 0.92
-5.66 0.14 0.85
-5.33 0.15 0.92
-5.66 0.17 0.85
-5.30 0.17 0.93
-5.17 0.18 0.96
-4.96 0.19 1.00
-5.15 0.21 0.96
-5.10 0.22 0.97
-5.11 0.23 0.97
-5.10 0.24 0.97
-5.41 0.27 0.90
-5.37 0.28 0.91
-5.41 0.30 0.90
-5.52 0.32 0.88
-5.56 0.33 0.87
-5.68 0.36 0.84
-6.08 0.39 0.75
-6.41 0.43 0.67
-6.07 0.42 0.75
-6.41 0.46 0.67
-6.20 0.46 0.72
-6.04 0.47 0.75
-5.81 0.46 0.80
-6.15 0.51 0.73
-6.46 0.55 0.66
-6.44 0.56 0.66
-6.26 0.56 0.70
-5.81 0.54 0.80
-6.20 0.59 0.71
-5.95 0.58 0.77
-6.11 0.61 0.73
-6.02 0.62 0.75
-6.01 0.63 0.75
-5.88 0.63 0.78
-6.09 0.67 0.73
-6.25 0.70 0.70
-6.30 0.72 0.68
-6.43 0.75 0.65
-6.48 0.78 0.64
-6.25 0.77 0.69
-6.29 0.79 0.68
-6.41 0.82 0.66
-6.38 0.83 0.66
-6.19 0.82 0.70
-6.50 0.88 0.63
-6.49 0.89 0.63
-6.33 0.89 0.67
-6.42 0.92 0.65
-6.57 0.95 0.62
-6.56 0.97 0.61
-6.47 0.97 0.64
-6.78 1.03 0.56
-6.41 1.00 0.65
-6.67 1.05 0.59
-6.83 1.09 0.55
-6.73 1.10 0.57
-6.88 1.14 0.54
-7.02 1.18 0.50
-7.03 1.20 0.50
-7.08 1.22 0.49
-7.18 1.26 0.46
-7.22 1.28 0.45
-7.32 1.32 0.43
-7.27 1.33 0.44
-7.29 1.35 0.43
-7.27 1.37 0.44
-7.32 1.39 0.43
-7.49 1.44 0.39
-7.49 1.46 0.38
-5.86 1.19 0.76
-6.02 1.23 0.72
-5.75 1.20 0.78
-6.01 1.26 0.72
-6.16 1.31 0.68
-6.26 1.36 0.66
-6.47 1.42 0.61
-6.14 1.37 0.69
-6.01 1.36 0.71
-0.99 -0.69 1.40
-2.65 -0.97 1.02
-2.79 -0.96 0.99
-2.42 -0.88 1.08
-2.64 -0.88 1.03
-1.16 -0.60 1.37
-1.86 -0.69 1.21
-2.41 -0.77 1.08
-1.82 -0.64 1.22
-5.42 -1.04 0.40
-4.88 -0.95 0.52
-4.76 -0.92 0.55
-4.76 -0.90 0.55
-4.78 -0.89 0.55
-4.69 -0.86 0.57
-2.40 -0.57 1.08
-4.81 -0.84 0.54
-4.83 -0.82 0.54
-4.72 -0.79 0.56
-4.81 -0.77 0.54
-4.88 -0.76 0.52
-4.74 -0.73 0.56
-4.91 -0.73 0.52
-5.00 -0.72 0.50
-5.38 -0.74 0.41
-5.36 -0.71 0.42
-5.43 -0.70 0.40
-5.55 -0.69 0.37
-5.50 -0.67 0.39
-6.24 -0.71 0.22
-1.96 -0.35 1.18
-1.42 -0.30 1.31
-1.56 -0.30 1.27
-1.44 -0.28 1.30
-1.67 -0.29 1.25
-1.28 -0.25 1.34
-4.73 -0.47 0.56
-4.49 -0.40 0.61
-4.42 -0.38 0.63
-4.44 -0.37 0.62
-4.60 -0.36 0.59
-4.49 -0.34 0.61
-3.59 -0.28 0.82
-3.41 -0.26 0.85
-5.44 -0.33 0.40
-3.45 -0.23 0.85
-3.48 -0.22 0.84
-3.76 -0.21 0.78
-3.80 -0.20 0.77
-3.89 -0.19 0.75
-3.92 -0.17 0.74
-3.66 -0.15 0.80
-5.42 -0.18 0.40
-4.51 -0.14 0.60
-3.91 -0.11 0.74
-5.26 -0.12 0.44
-4.84 -0.09 0.53
-4.24 -0.07 0.66
-3.88 -0.04 0.75
-4.79 -0.02 0.54
-5.88 0.02 0.74
-5.92 0.03 0.73
-6.00 0.05 0.71
-5.82 0.07 0.75
-7.87 0.23 0.27
-8.11 0.26 0.21
-5.54 0.19 0.82
-5.50 0.21 0.83
-5.71 0.24 0.78
-5.75 0.26 0.77
-5.55 0.26 0.81
-7.74 0.38 0.30
-7.42 0.39 0.37
-7.17 0.39 0.43
-7.02 0.40 0.47
-6.88 0.41 0.50
-6.26 0.39 0.64
-6.22 0.40 0.65
-6.31 0.42 0.63
-6.39 0.45 0.61
-6.35 0.46 0.62
-6.35 0.48 0.62
-6.47 0.50 0.59
-6.46 0.51 0.59
-6.58 0.54 0.56
-6.60 0.56 0.56
-6.67 0.58 0.54
-6.61 0.59 0.55
-6.52 0.60 0.57
-6.44 0.61 0.59
-6.36 0.62 0.61
-6.08 0.61 0.68
-6.15 0.63 0.66
-6.19 0.65 0.65
-6.30 0.68 0.62
-6.34 0.70 0.61
-6.26 0.70 0.63
-6.34 0.73 0.61
-6.38 0.75 0.60
-6.43 0.77 0.59
-6.40 0.78 0.60
-6.40 0.80 0.59
-6.55 0.83 0.56
-6.38 0.83 0.60
-6.50 0.86 0.57
-6.58 0.89 0.55
-6.66 0.92 0.53
-6.64 0.93 0.53
-6.53 0.93 0.56
-6.59 0.96 0.54
-6.55 0.97 0.55
-6.62 0.99 0.53
-6.88 1.05 0.47
-6.69 1.04 0.51
-6.77 1.07 0.49
-6.85 1.10 0.47
-6.85 1.12 0.47
-7.02 1.16 0.43
-7.12 1.19 0.41
-7.12 1.21 0.41
-7.02 1.21 0.43
-7.23 1.27 0.38
-7.19 1.28 0.39
-7.33 1.32 0.35
-7.79 1.42 0.24
-7.40 1.37 0.33
-7.16 1.44 0.38
-6.18 1.27 0.62
-2.28 -0.84 1.06
-3.53 -0.98 0.77
-3.44 -0.95 0.79
-3.33 -0.92 0.82
-3.61 -0.93 0.75
-3.66 -0.91 0.74
-4.95 -0.89 0.44
-5.08 -0.89 0.41
-5.04 -0.87 0.42
-5.03 -0.85 0.42
-5.01 -0.83 0.42
-5.09 -0.82 0.40
-5.63 -0.86 0.28
-5.69 -0.84 0.26
-5.55 -0.81 0.30
-5.68 -0.80 0.27
-5.68 -0.78 0.27
-5.57 -0.76 0.29
-5.18 -0.70 0.38
-5.46 -0.71 0.32
-5.72 -0.71 0.26
-5.80 -0.70 0.24
-5.79 -0.68 0.24
-5.88 -0.66 0.22
-5.24 -0.60 0.37
-5.89 -0.63 0.22
-4.84 -0.53 0.46
-5.00 -0.36 0.43
-4.59 -0.31 0.52
-3.85 -0.26 0.70
-3.83 -0.25 0.70
-4.32 -0.25 0.58
-4.52 -0.22 0.54
-4.79 -0.22 0.47
-4.67 -0.19 0.50
-4.03 -0.16 0.65
-5.10 -0.17 0.40
-4.50 -0.14 0.54
-4.99 -0.13 0.43
-1.84 0.86 0.50
-2.49 0.63 0.46
-2.40 0.52 0.45
-2.09 0.92 0.45
-2.21 0.55 0.43
-1.95 0.78 0.42
-0.74 -0.93 0.45
-0.73 -0.85 0.44
-2.65 0.55 0.33
-0.79 -0.91 0.43
-3.07 0.45 0.27
-2.75 0.52 0.30
-2.63 0.55 0.31
-2.55 0.59 0.32
-3.13 0.38 0.24
-3.06 0.45 0.25
-2.79 0.46 0.27
-2.60 0.47 0.29
-2.64 0.55 0.29
-2.68 0.64 0.28
-2.11 0.79 0.33
-3.16 0.38 0.21
-3.02 0.44 0.22
-2.78 0.45 0.25
-1.94 0.77 0.33
-1.88 0.84 0.33
-1.76 0.77 0.35
