# .PCD v0.7 - Point Cloud Data file format
VERSION 0.7
FIELDS x y z
SIZE 4 4 4
TYPE F F F
COUNT 1 1 1
WIDTH 2872
HEIGHT 1
VIEWPOINT 0 0 0 1 0 0 0
POINTS 2872
DATA ASCII
-5.96 -0.13 1.71
-5.97 -0.11 1.71
-6.37 -0.11 1.68
-6.15 -0.09 1.70
-6.09 -0.07 1.70
-6.05 -0.06 1.71
-6.02 -0.04 1.71
-6.06 -0.03 1.70
-6.18 -0.01 1.69
-5.91 0.04 1.47
-6.05 0.04 1.67
-6.00 0.09 1.68
-6.06 0.15 1.67
-9.90 0.29 1.35
-9.95 0.31 1.35
-5.98 0.20 1.68
-10.04 0.36 1.34
-10.08 0.39 1.34
-10.00 0.41 1.34
-10.04 0.56 1.34
-9.95 0.57 1.35
-9.90 0.60 1.35
-9.87 0.62 1.35
-9.80 0.64 1.36
-9.55 0.69 1.38
-6.27 -1.06 1.43
-6.24 -1.01 1.44
-6.39 -1.01 1.43
-6.46 -1.00 1.42
-6.01 -0.90 1.46
-5.93 -0.88 1.46
-5.80 -0.84 1.48
-5.63 -0.79 1.49
-5.61 -0.75 1.49
-5.77 -0.74 1.48
-5.62 -0.69 1.49
-5.57 -0.66 1.50
-6.14 -0.67 1.45
-5.69 -0.59 1.49
-11.00 -0.88 1.04
-5.60 -0.51 1.49
-5.66 -0.48 1.49
-5.82 -0.44 1.47
-5.92 -0.43 1.47
-5.92 -0.39 1.47
-5.86 -0.37 1.47
-5.50 -0.31 1.50
-5.85 -0.29 1.47
-5.53 -0.26 1.50
-4.50 -0.21 1.58
-4.94 -0.20 1.55
-4.82 -0.18 1.56
-5.05 -0.17 1.54
-4.79 -0.14 1.56
-4.72 -0.11 1.57
-4.51 -0.09 1.58
-4.68 -0.06 1.57
-5.00 -0.04 1.54
-4.51 -0.02 1.58
-4.59 -0.00 1.58
-6.02 0.00 1.64
-6.18 0.02 1.62
-6.32 0.03 1.61
-6.14 0.05 1.63
-6.10 0.06 1.63
-10.05 0.12 1.28
-9.80 0.14 1.30
-10.88 0.18 1.20
-11.44 0.22 1.15
-6.07 0.13 1.63
-6.51 0.16 1.59
-6.27 0.17 1.61
-6.11 0.18 1.63
-9.80 0.31 1.30
-6.76 0.23 1.57
-9.84 0.36 1.29
-6.89 0.27 1.56
-9.81 0.40 1.29
-9.88 0.43 1.29
-9.88 0.45 1.29
-9.67 0.46 1.31
-9.86 0.50 1.29
-10.00 0.53 1.28
-9.91 0.55 1.29
-9.53 0.55 1.32
-9.84 0.59 1.29
-9.95 0.62 1.28
-9.87 0.64 1.29
-9.73 0.66 1.30
-9.57 0.69 1.31
-9.48 0.80 1.32
-9.46 0.89 1.32
-10.05 1.00 1.27
-5.19 1.33 1.69
-6.33 -1.07 1.37
-6.68 -1.09 1.34
-6.33 -1.03 1.37
-6.59 -1.03 1.35
-6.33 -0.98 1.37
-6.01 -0.93 1.40
-6.02 -0.91 1.40
-6.05 -0.89 1.40
-5.95 -0.86 1.41
-5.90 -0.83 1.41
-5.88 -0.81 1.41
-5.73 -0.78 1.43
-5.88 -0.77 1.41
-5.88 -0.75 1.41
-6.06 -0.75 1.40
-6.30 -0.75 1.38
-6.23 -0.72 1.38
-5.97 -0.68 1.41
-6.01 -0.66 1.40
-5.77 -0.62 1.42
-5.48 -0.58 1.45
-5.75 -0.58 1.43
-5.50 -0.54 1.45
-5.28 -0.51 1.47
-5.60 -0.51 1.44
-5.72 -0.50 1.43
-5.39 -0.46 1.46
-5.17 -0.43 1.48
-5.39 -0.42 1.46
-5.21 -0.40 1.47
-5.64 -0.40 1.44
-5.92 -0.39 1.41
-5.55 -0.35 1.44
-6.02 -0.35 1.40
-5.34 -0.31 1.46
-5.29 -0.29 1.47
-4.59 -0.24 1.53
-5.36 -0.25 1.46
-5.14 -0.22 1.48
-5.05 -0.20 1.49
-5.33 -0.19 1.46
-4.78 -0.16 1.51
-4.72 -0.14 1.52
-5.04 -0.11 1.49
-6.22 -0.09 1.62
-6.18 -0.07 1.62
-6.14 -0.06 1.63
-6.25 -0.04 1.62
-6.23 -0.03 1.62
-6.60 -0.01 1.59
-5.99 0.02 1.36
-6.40 0.04 1.32
-6.10 0.06 1.35
-6.00 0.08 1.36
-6.18 0.10 1.34
-6.28 0.12 1.33
-4.70 0.12 1.48
-6.20 0.17 1.33
-6.68 0.19 1.29
-4.54 0.17 1.50
-8.88 0.29 1.08
-9.93 0.26 1.23
-9.98 0.29 1.23
-10.09 0.31 1.22
-10.04 0.34 1.22
-9.94 0.36 1.23
-9.94 0.38 1.23
-10.13 0.41 1.21
-9.95 0.43 1.23
-9.83 0.47 1.24
-9.94 0.50 1.23
-9.20 0.51 1.30
-9.53 0.55 1.27
-9.23 0.55 1.29
-9.14 0.57 1.30
-9.12 0.59 1.31
-9.55 0.64 1.26
-9.71 0.68 1.25
-9.69 0.70 1.25
-8.93 0.67 1.32
-9.17 0.71 1.30
-14.47 1.18 0.79
-9.53 0.85 1.26
-9.52 0.94 1.26
-5.38 0.84 1.65
-0.27 -1.10 1.90
-6.45 -1.06 1.31
-6.32 -1.02 1.33
-6.32 -1.00 1.33
-6.24 -0.97 1.33
-6.20 -0.95 1.34
-6.03 -0.91 1.35
-5.97 -0.88 1.36
-5.96 -0.86 1.36
-5.95 -0.84 1.36
-6.17 -0.84 1.34
-6.30 -0.83 1.33
-6.63 -0.84 1.30
-6.41 -0.80 1.32
-5.99 -0.74 1.36
-6.38 -0.75 1.32
-6.56 -0.74 1.30
-6.43 -0.71 1.32
-6.31 -0.68 1.33
-6.40 -0.67 1.32
-6.55 -0.66 1.30
-6.23 -0.61 1.33
-5.53 -0.54 1.40
-5.34 -0.51 1.42
-5.71 -0.52 1.38
-6.25 -0.53 1.33
-5.12 -0.44 1.44
-5.61 -0.45 1.39
-5.39 -0.42 1.42
-5.19 -0.39 1.43
-5.70 -0.40 1.39
-5.04 -0.35 1.45
-10.31 -0.56 0.94
-5.67 -0.34 1.39
-5.87 -0.33 1.37
-5.75 -0.30 1.38
-5.46 -0.27 1.41
-5.09 -0.24 1.44
-4.61 -0.21 1.49
-5.07 -0.20 1.45
-4.96 -0.18 1.46
-5.24 -0.17 1.43
-4.64 -0.14 1.49
-4.97 -0.13 1.46
-4.41 -0.10 1.51
-5.58 -0.10 1.40
-5.06 -0.08 1.45
-5.14 -0.06 1.44
-5.93 -0.05 1.36
-6.07 -0.03 1.35
-6.04 -0.00 1.35
-9.55 0.00 1.21
-9.49 0.02 1.21
-6.92 0.04 1.47
-6.70 0.05 1.50
-6.74 0.07 1.49
-9.74 0.12 1.19
-9.85 0.14 1.17
-9.62 0.16 1.20
-9.81 0.19 1.18
-6.89 0.15 1.47
-9.73 0.24 1.19
-9.95 0.26 1.16
-6.00 0.17 1.57
-9.86 0.31 1.17
-7.00 0.24 1.46
-9.98 0.36 1.16
-6.78 0.26 1.48
-9.78 0.40 1.18
-9.91 0.43 1.17
-9.51 0.44 1.21
-8.69 0.42 1.29
-8.77 0.45 1.28
-8.70 0.46 1.29
-8.74 0.49 1.28
-8.81 0.51 1.28
-8.80 0.53 1.28
-8.86 0.56 1.27
-8.95 0.58 1.26
-8.71 0.59 1.29
-8.92 0.62 1.26
-9.19 0.67 1.24
-8.93 0.67 1.26
-9.41 0.73 1.21
-9.26 0.74 1.23
-8.92 0.73 1.26
-9.48 0.83 1.21
-11.55 1.40 0.99
-4.92 1.42 1.64
-4.54 1.57 1.67
-2.15 -0.89 1.69
-6.64 -1.15 1.23
-6.41 -1.10 1.26
-6.59 -1.08 1.24
-3.03 -0.65 1.60
-6.31 -1.00 1.27
-6.31 -0.98 1.27
-6.03 -0.93 1.30
-5.74 -0.88 1.33
-5.85 -0.87 1.31
-6.12 -0.88 1.29
-5.99 -0.84 1.30
-6.05 -0.83 1.29
-5.98 -0.80 1.30
-2.32 -0.45 1.68
-6.21 -0.78 1.28
-6.04 -0.74 1.30
-6.03 -0.72 1.30
-6.09 -0.71 1.29
-5.87 -0.67 1.31
-5.89 -0.65 1.31
-5.58 -0.61 1.34
-5.64 -0.59 1.34
-5.30 -0.55 1.37
-5.57 -0.55 1.34
-5.23 -0.51 1.38
-5.74 -0.52 1.33
-5.54 -0.49 1.35
-5.74 -0.48 1.33
-5.64 -0.46 1.34
-5.57 -0.43 1.34
-5.01 -0.38 1.40
-5.22 -0.38 1.38
-5.32 -0.36 1.37
-5.37 -0.35 1.36
-5.01 -0.31 1.40
-5.86 -0.33 1.31
-5.49 -0.29 1.35
-6.08 -0.22 1.56
-5.96 -0.20 1.57
-6.22 -0.19 1.54
-6.21 -0.18 1.55
-6.09 -0.16 1.56
-6.08 -0.14 1.56
-6.93 -0.15 1.47
-6.54 -0.12 1.51
-6.54 -0.11 1.51
-6.04 -0.08 1.56
-6.09 -0.07 1.56
-6.13 -0.06 1.55
-6.50 -0.05 1.52
-6.40 -0.03 1.53
-6.27 0.02 1.21
-11.09 0.06 0.69
-11.40 0.10 0.66
-6.88 0.09 1.15
-11.16 0.16 0.68
-9.22 0.16 0.89
-8.54 0.18 0.97
-11.42 0.26 0.65
-11.58 0.30 0.63
-6.64 0.22 1.17
-11.06 0.35 0.69
-11.12 0.39 0.68
-8.18 0.33 1.00
-7.96 0.37 1.03
-7.59 0.38 1.07
-7.31 0.40 1.10
-7.51 0.43 1.08
-7.65 0.46 1.06
-8.92 0.54 0.92
-9.09 0.46 1.19
-9.33 0.49 1.17
-9.21 0.51 1.18
-9.03 0.52 1.20
-9.30 0.56 1.17
-9.11 0.57 1.19
-9.12 0.61 1.19
-9.41 0.66 1.15
-9.09 0.66 1.19
-9.54 0.71 1.14
-9.00 0.76 1.20
-6.27 -0.89 1.22
-5.96 -0.84 1.25
-6.10 -0.83 1.24
-6.18 -0.82 1.23
-6.41 -0.82 1.20
-6.30 -0.79 1.21
-6.35 -0.77 1.21
-6.21 -0.74 1.22
-6.25 -0.72 1.22
-6.02 -0.68 1.24
-6.71 -0.69 1.17
-5.70 -0.59 1.28
-13.52 -1.12 0.42
-6.20 -0.55 1.22
-6.81 -0.56 1.16
-5.65 -0.46 1.29
-5.30 -0.42 1.32
-10.55 -0.66 0.75
-10.15 -0.61 0.79
-10.52 -0.60 0.75
-10.54 -0.57 0.75
-10.51 -0.53 0.75
-10.45 -0.50 0.76
-10.29 -0.46 0.78
-10.57 -0.44 0.75
-10.93 -0.42 0.71
-10.59 -0.38 0.74
-5.46 -0.21 1.30
-10.14 -0.31 0.79
-5.73 -0.18 1.28
-10.52 -0.25 0.75
-6.05 -0.15 1.24
-11.31 -0.20 0.67
-11.10 -0.17 0.69
-11.03 -0.13 0.70
-11.02 -0.10 0.70
-5.93 -0.04 1.25
-11.12 -0.04 0.69
-6.20 -0.00 1.22
-7.25 0.00 1.34
-7.61 0.02 1.30
-7.50 0.04 1.31
-9.89 0.07 1.04
-9.93 0.10 1.03
-7.08 0.09 1.36
-7.27 0.11 1.34
-5.78 0.10 1.51
-6.01 0.12 1.48
-7.72 0.17 1.29
-9.88 0.24 1.04
-9.77 0.26 1.05
-7.78 0.23 1.28
-8.05 0.25 1.25
-9.72 0.33 1.05
-9.96 0.36 1.03
-10.00 0.39 1.02
-8.65 0.35 1.18
-9.38 0.41 1.09
-9.41 0.43 1.09
-8.99 0.43 1.14
-9.09 0.46 1.13
-9.19 0.49 1.11
-9.24 0.51 1.11
-9.05 0.52 1.13
-9.11 0.55 1.12
-9.26 0.58 1.10
-9.13 0.60 1.12
-9.03 0.61 1.13
-9.62 0.67 1.06
-10.41 0.75 0.97
-9.77 0.73 1.04
-9.59 0.74 1.06
-8.98 0.72 1.13
-9.15 0.75 1.12
-9.65 0.82 1.06
-9.64 0.86 1.06
-9.58 0.88 1.06
-9.22 0.87 1.10
-9.09 0.88 1.12
-9.33 0.93 1.09
-10.41 1.08 0.96
-11.59 1.46 0.82
-11.91 1.53 0.79
-11.76 1.54 0.80
-11.58 1.54 0.82
-11.72 1.59 0.81
-11.73 1.62 0.81
-6.99 1.01 1.35
-4.21 1.44 1.65
-6.19 -1.14 1.16
-6.36 -1.14 1.14
-6.75 -1.08 1.10
-5.94 -0.96 1.19
-5.79 -0.92 1.21
-5.93 -0.92 1.19
-6.02 -0.91 1.18
-6.18 -0.90 1.16
-5.96 -0.86 1.19
-6.07 -0.85 1.18
-5.75 -0.80 1.21
-6.19 -0.82 1.16
-6.23 -0.81 1.16
-5.91 -0.75 1.19
-6.42 -0.78 1.14
-6.16 -0.73 1.17
-6.01 -0.70 1.18
-5.67 -0.66 1.22
-6.12 -0.67 1.17
-5.37 -0.59 1.26
-5.51 -0.58 1.24
-5.70 -0.58 1.22
-5.43 -0.54 1.25
-5.04 -0.50 1.29
-5.17 -0.49 1.28
-4.92 -0.45 1.31
-5.07 -0.44 1.29
-4.91 -0.42 1.31
-6.00 -0.33 1.49
-5.93 -0.31 1.50
-5.93 -0.30 1.50
-6.76 -0.32 1.40
-5.82 -0.26 1.51
-5.86 -0.25 1.50
-5.89 -0.24 1.50
-6.14 -0.23 1.47
-5.92 -0.21 1.50
-5.70 -0.19 1.52
-5.87 -0.18 1.50
-5.84 -0.17 1.50
-5.70 -0.15 1.52
-5.84 -0.14 1.50
-5.77 -0.12 1.51
-5.96 -0.11 1.49
-5.69 -0.09 1.52
-5.99 -0.08 1.49
-5.96 -0.07 1.49
-5.74 -0.05 1.51
-5.88 -0.04 1.50
-7.42 -0.03 1.32
-6.34 -0.01 1.45
-4.10 0.01 1.36
-3.97 0.03 1.38
-6.00 0.03 1.44
-7.38 0.07 1.28
-7.47 0.09 1.27
-12.46 0.18 0.66
-7.83 0.13 1.22
-7.87 0.17 1.22
-8.02 0.19 1.20
-7.87 0.23 1.22
-8.13 0.25 1.19
-8.59 0.29 1.13
-9.94 0.38 0.96
-8.09 0.33 1.19
-8.55 0.37 1.13
-9.12 0.44 1.06
-9.05 0.46 1.07
-9.19 0.49 1.05
-8.65 0.50 1.12
-8.57 0.52 1.13
-9.24 0.58 1.05
-9.97 0.67 0.96
-9.73 0.68 0.99
-9.43 0.68 1.02
-10.26 0.79 0.92
-8.88 0.71 1.09
-8.91 0.73 1.08
-9.54 0.83 1.01
-10.05 0.90 0.94
-9.71 0.89 0.98
-9.12 0.86 1.06
-9.60 0.93 1.00
-10.66 1.13 0.87
-9.33 1.04 1.03
-9.16 1.09 1.05
-11.95 1.44 0.71
-11.84 1.48 0.72
-11.85 1.52 0.71
-4.83 0.64 1.58
-11.77 1.56 0.72
-12.02 1.66 0.69
-11.94 1.67 0.70
-0.60 -1.16 1.78
-1.80 -0.87 1.64
-6.55 -1.18 1.06
-6.29 -1.13 1.09
-6.48 -1.13 1.07
-6.48 -1.11 1.07
-6.04 -1.03 1.12
-6.35 -1.05 1.08
-6.38 -1.03 1.08
-6.18 -0.98 1.11
-6.05 -0.95 1.12
-5.95 -0.92 1.13
-5.89 -0.89 1.14
-5.86 -0.87 1.15
-6.05 -0.87 1.12
-6.64 -0.91 1.05
-6.11 -0.83 1.11
-6.24 -0.82 1.10
-6.20 -0.80 1.10
-6.19 -0.78 1.11
-6.19 -0.76 1.11
-5.79 -0.70 1.15
-5.48 -0.66 1.19
-6.09 -0.69 1.12
-6.29 -0.68 1.09
-6.29 -0.66 1.09
-5.30 -0.57 1.21
-5.18 -0.54 1.23
-5.28 -0.53 1.22
-5.25 -0.51 1.22
-5.07 -0.48 1.24
-4.98 -0.46 1.25
-4.93 -0.43 1.26
-4.85 -0.41 1.27
-4.77 -0.39 1.28
-5.12 -0.39 1.24
-5.20 -0.37 1.23
-4.93 -0.34 1.26
-5.05 -0.33 1.24
-5.18 -0.32 1.23
-5.27 -0.30 1.22
-2.07 -0.17 1.61
-1.86 -0.15 1.63
-5.40 -0.25 1.20
-5.37 -0.23 1.21
-5.30 -0.21 1.21
-5.05 -0.19 1.24
-6.37 -0.20 1.08
-4.09 -0.13 1.36
-3.95 -0.11 1.38
-5.75 -0.12 1.16
-5.58 -0.10 1.18
-4.12 -0.07 1.36
-3.99 -0.05 1.37
-3.87 -0.03 1.39
-4.02 -0.02 1.37
-4.23 -0.00 1.34
-7.21 0.00 1.25
-7.39 0.02 1.22
-7.41 0.04 1.22
-7.34 0.05 1.23
-7.55 0.07 1.20
-7.68 0.09 1.18
-7.72 0.11 1.18
-7.68 0.13 1.18
-7.58 0.15 1.20
-7.66 0.17 1.19
-7.57 0.18 1.20
-5.61 0.15 1.45
-5.75 0.17 1.43
-7.67 0.24 1.18
-7.89 0.27 1.16
-7.86 0.29 1.16
-7.84 0.30 1.16
-7.82 0.32 1.16
-8.26 0.36 1.11
-8.35 0.38 1.09
-8.34 0.40 1.09
-8.62 0.44 1.06
-7.96 0.42 1.14
-8.38 0.46 1.09
-8.20 0.47 1.11
-8.35 0.50 1.09
-8.99 0.56 1.01
-9.50 0.62 0.94
-9.40 0.63 0.96
-8.80 0.62 1.03
-9.92 0.72 0.89
-8.76 0.66 1.04
-10.39 0.80 0.83
-10.22 0.81 0.85
-8.92 0.73 1.02
-8.83 0.75 1.03
-8.84 0.77 1.03
-8.98 0.80 1.01
-8.98 0.82 1.01
-8.99 0.85 1.00
-9.16 0.89 0.98
-8.96 0.89 1.01
-8.80 0.89 1.03
-8.90 0.92 1.02
-8.84 0.94 1.02
-9.03 0.98 1.00
-9.38 1.07 0.95
-9.23 1.07 0.97
-9.16 1.09 0.98
-11.81 1.42 0.63
-11.77 1.45 0.64
-11.83 1.48 0.63
-11.97 1.53 0.61
-4.52 0.60 1.58
-12.03 1.60 0.60
-11.91 1.61 0.62
-11.84 1.63 0.63
-11.86 1.66 0.62
-4.30 0.67 1.60
-4.64 1.46 1.53
-1.19 -1.06 1.68
-2.41 -0.97 1.53
-6.38 -1.16 1.01
-6.53 -1.16 0.99
-6.31 -1.11 1.02
-6.13 -1.06 1.05
-6.18 -1.05 1.04
-6.27 -1.04 1.03
-6.19 -1.01 1.04
-6.04 -0.97 1.06
-6.40 -0.99 1.01
-6.46 -0.98 1.00
-6.29 -0.93 1.03
-6.06 -0.89 1.06
-5.78 -0.84 1.09
-5.83 -0.83 1.09
-5.69 -0.79 1.11
-5.69 -0.77 1.11
-5.66 -0.75 1.11
-5.78 -0.74 1.09
-5.86 -0.73 1.08
-5.55 -0.68 1.12
-5.40 -0.65 1.14
-5.54 -0.64 1.13
-6.30 -0.68 1.03
-6.12 -0.65 1.05
-5.59 -0.59 1.12
-5.11 -0.54 1.18
-4.71 -0.49 1.23
-5.01 -0.49 1.19
-5.01 -0.48 1.19
-4.76 -0.44 1.23
-4.80 -0.43 1.22
-4.66 -0.40 1.24
-4.79 -0.39 1.22
-4.69 -0.37 1.24
-4.79 -0.36 1.22
-4.93 -0.34 1.21
-5.01 -0.33 1.19
-5.07 -0.32 1.19
-5.14 -0.30 1.18
-5.01 -0.28 1.19
-5.24 -0.27 1.16
-5.11 -0.24 1.18
-5.32 -0.23 1.15
-5.58 -0.22 1.12
-5.45 -0.20 1.14
-5.81 -0.18 1.09
-5.66 -0.16 1.11
-5.89 -0.15 1.08
-3.95 -0.10 1.33
-6.12 -0.09 1.39
-6.82 -0.08 1.30
-7.05 -0.07 1.27
-6.95 -0.05 1.28
-7.09 -0.03 1.26
-7.16 -0.01 1.25
-3.89 0.01 1.29
-3.74 0.04 1.31
-3.76 0.07 1.31
-3.63 0.08 1.33
-3.66 0.10 1.32
-3.61 0.12 1.33
-3.43 0.12 1.35
-3.97 0.17 1.28
-5.55 0.16 1.42
-7.68 0.24 1.13
-7.75 0.26 1.12
-7.73 0.28 1.12
-7.90 0.30 1.10
-7.78 0.32 1.11
-7.98 0.35 1.09
-7.89 0.36 1.10
-8.10 0.39 1.07
-8.44 0.43 1.02
-9.44 0.50 0.89
-8.74 0.48 0.98
-8.55 0.49 1.01
-8.45 0.51 1.02
-8.76 0.55 0.98
-9.17 0.60 0.92
-9.12 0.61 0.93
-8.84 0.62 0.97
-9.27 0.67 0.91
-9.42 0.70 0.89
-10.30 0.79 0.76
-8.91 0.71 0.95
-8.59 0.70 1.00
-8.83 0.75 0.96
-8.55 0.74 1.00
-8.56 0.76 1.00
-8.57 0.78 1.00
-8.66 0.81 0.99
-8.66 0.83 0.99
-4.37 0.44 1.57
-4.46 0.46 1.56
-4.28 0.45 1.58
-4.30 0.46 1.58
-9.10 0.99 0.92
-9.20 1.02 0.91
-8.98 1.02 0.94
-6.84 0.81 1.23
-11.95 1.44 0.53
-11.91 1.46 0.53
-8.95 1.12 0.94
-4.42 0.58 1.56
-11.98 1.56 0.52
-12.01 1.59 0.52
-12.07 1.63 0.51
-11.89 1.64 0.53
-12.03 1.68 0.51
-4.26 0.66 1.58
-1.35 -1.60 1.62
-1.53 -0.88 1.62
-6.30 -1.13 0.96
-6.21 -1.09 0.97
-6.14 -1.06 0.98
-6.54 -1.09 0.93
-6.14 -1.02 0.98
-6.02 -0.99 1.00
-6.23 -0.99 0.97
-6.44 -0.97 0.94
-6.30 -0.93 0.96
-6.36 -0.92 0.96
-5.97 -0.86 1.01
-5.70 -0.81 1.05
-5.78 -0.80 1.04
-5.71 -0.77 1.04
-5.80 -0.74 1.03
-5.65 -0.71 1.05
-5.72 -0.70 1.04
-5.88 -0.69 1.02
-5.56 -0.65 1.07
-5.82 -0.65 1.03
-6.61 -0.68 0.92
-6.23 -0.61 0.97
-6.59 -0.62 0.93
-5.00 -0.49 1.14
-4.89 -0.47 1.16
-4.86 -0.45 1.16
-4.68 -0.42 1.19
-4.52 -0.39 1.21
-4.82 -0.37 1.17
-1.57 -0.20 1.61
-5.25 -0.36 1.11
-5.27 -0.34 1.10
-2.01 -0.19 1.55
-1.84 -0.17 1.58
-5.48 -0.29 1.08
-1.75 -0.14 1.59
-5.44 -0.23 1.08
-2.22 -0.13 1.52
-3.85 -0.16 1.30
-5.56 -0.18 1.06
-3.79 -0.13 1.31
-3.65 -0.11 1.33
-3.69 -0.08 1.32
-2.34 -0.04 1.50
-3.70 -0.04 1.32
-3.90 -0.02 1.29
-3.92 -0.00 1.29
-7.14 0.00 1.15
-7.07 0.02 1.16
-7.10 0.04 1.15
-7.10 0.05 1.15
-7.12 0.07 1.15
-7.19 0.09 1.14
-7.17 0.10 1.14
-7.23 0.12 1.13
-7.41 0.14 1.11
-7.44 0.16 1.10
-7.51 0.18 1.09
-7.55 0.20 1.09
-7.70 0.22 1.06
-7.69 0.24 1.07
-7.97 0.27 1.02
-8.01 0.29 1.02
-7.55 0.29 1.08
-7.77 0.32 1.05
-7.74 0.34 1.06
-7.89 0.36 1.04
-8.11 0.39 1.00
-8.79 0.44 0.90
-8.16 0.43 1.00
-8.27 0.46 0.98
-8.40 0.49 0.96
-8.48 0.51 0.95
-8.48 0.53 0.95
-8.59 0.56 0.93
-8.45 0.57 0.95
-8.43 0.59 0.95
-8.38 0.61 0.96
-8.46 0.63 0.95
-8.38 0.65 0.96
-8.45 0.67 0.95
-5.80 0.48 1.33
-8.45 0.71 0.95
-8.45 0.74 0.95
-8.57 0.77 0.93
-8.52 0.78 0.94
-8.52 0.80 0.94
-8.40 0.81 0.95
-8.30 0.82 0.97
-8.66 0.88 0.92
-8.41 0.88 0.95
-8.42 0.90 0.95
-8.38 0.91 0.95
-8.55 0.95 0.93
-8.34 0.95 0.96
-8.56 1.00 0.93
-4.42 0.53 1.52
-4.74 0.58 1.48
-4.59 0.58 1.50
-4.45 0.57 1.52
-4.52 0.59 1.51
-5.10 0.68 1.42
-4.81 0.65 1.47
-4.35 0.60 1.53
-4.54 0.64 1.50
-6.32 -1.05 0.89
-6.44 -1.04 0.87
-6.11 -0.98 0.92
-6.07 -0.95 0.93
-6.00 -0.93 0.93
-5.88 -0.89 0.95
-5.85 -0.87 0.96
-6.10 -0.88 0.92
-5.80 -0.83 0.96
-5.84 -0.81 0.96
-5.66 -0.77 0.99
-5.83 -0.77 0.96
-5.75 -0.74 0.97
-5.53 -0.70 1.00
-5.18 -0.65 1.06
-5.65 -0.67 0.99
-5.30 -0.62 1.04
-5.48 -0.62 1.01
-5.32 -0.59 1.04
-5.65 -0.59 0.99
-4.91 -0.52 1.09
-4.96 -0.51 1.09
-5.05 -0.50 1.07
-4.88 -0.47 1.10
-4.86 -0.45 1.10
-4.77 -0.43 1.12
-6.82 -0.52 0.82
-4.78 -0.39 1.11
-4.72 -0.37 1.12
-2.09 -0.23 1.50
-2.22 -0.22 1.48
-2.22 -0.21 1.48
-5.50 -0.33 1.01
-2.22 -0.19 1.48
-5.45 -0.29 1.02
-5.57 -0.28 1.00
-5.73 -0.19 1.35
-5.71 -0.18 1.35
-5.64 -0.16 1.36
-5.71 -0.15 1.35
-5.62 -0.13 1.37
-6.53 -0.14 1.24
-5.74 -0.11 1.35
-6.96 -0.12 1.17
-6.89 -0.10 1.18
-6.91 -0.08 1.18
-7.05 -0.07 1.16
-6.98 -0.05 1.17
-7.22 -0.03 1.14
-7.09 -0.02 1.15
-8.98 0.02 0.42
-2.32 0.03 1.43
-7.14 0.11 0.70
-9.08 0.19 0.40
-9.11 0.22 0.40
-7.59 0.21 0.63
-2.57 0.13 1.39
-2.56 0.16 1.39
-2.35 0.16 1.43
-2.67 0.19 1.38
-3.14 0.21 1.30
-2.81 0.21 1.36
-2.66 0.23 1.38
-3.97 0.19 1.57
-9.85 0.49 0.68
-8.68 0.46 0.86
-9.00 0.50 0.81
-10.00 0.58 0.66
-9.95 0.60 0.66
-9.08 0.57 0.79
-9.66 0.62 0.71
-9.80 0.66 0.69
-8.58 0.60 0.87
-10.05 0.72 0.65
-8.43 0.63 0.89
-8.49 0.65 0.88
-8.44 0.67 0.89
-8.45 0.69 0.89
-8.34 0.70 0.90
-10.68 0.92 0.55
-10.56 0.94 0.56
-10.77 0.98 0.53
-8.70 0.82 0.85
-8.51 0.82 0.88
-8.53 0.84 0.87
-11.34 1.15 0.44
-8.27 0.86 0.91
-4.23 0.46 1.53
-4.34 0.48 1.51
-4.25 0.48 1.52
-11.86 1.34 0.36
-4.22 0.50 1.53
-4.09 0.49 1.54
-4.45 0.54 1.49
-4.27 0.53 1.52
-4.33 0.55 1.51
-4.07 0.55 1.55
-3.99 0.55 1.56
-4.36 0.70 1.50
-2.10 -0.93 1.47
-5.73 -0.85 0.91
-6.10 -0.77 0.86
-5.27 -0.60 0.99
-5.18 -0.58 1.00
-6.86 -0.61 0.74
-6.97 -0.59 0.73
-6.93 -0.55 0.73
-1.58 -0.23 1.55
-1.62 -0.21 1.54
-1.96 -0.21 1.49
-1.55 -0.18 1.55
-1.62 -0.17 1.54
-1.74 -0.17 1.52
-1.78 -0.16 1.52
-1.56 -0.13 1.55
-1.62 -0.12 1.54
-1.60 -0.11 1.54
-1.51 -0.10 1.56
-1.62 -0.09 1.54
-1.70 -0.09 1.53
-1.57 -0.07 1.55
-1.45 -0.05 1.57
-1.87 -0.04 1.50
-1.44 -0.02 1.57
-1.76 -0.01 1.52
-1.71 -0.00 1.53
-4.94 0.00 1.38
-5.02 0.01 1.37
-7.04 0.04 1.05
-7.19 0.05 1.03
-7.23 0.07 1.02
-4.46 0.06 1.46
-4.28 0.06 1.49
-4.36 0.08 1.47
-7.51 0.15 0.97
-4.40 0.10 1.47
-4.35 0.11 1.47
-4.54 0.12 1.45
-4.27 0.13 1.49
-4.77 0.15 1.41
-4.48 0.16 1.45
-4.37 0.16 1.47
-4.11 0.16 1.51
-8.76 0.36 0.77
-4.09 0.18 1.51
-4.00 0.19 1.53
-8.51 0.41 0.81
-9.04 0.46 0.73
-8.93 0.47 0.74
-9.02 0.50 0.73
-9.27 0.54 0.69
-8.82 0.53 0.76
-9.43 0.59 0.66
-8.60 0.56 0.79
-8.02 0.54 0.89
-8.01 0.56 0.89
-8.31 0.60 0.84
-8.21 0.62 0.85
-8.25 0.64 0.85
-8.23 0.66 0.85
-8.25 0.68 0.85
-8.21 0.69 0.85
-8.38 0.73 0.82
-8.32 0.75 0.83
-8.21 0.75 0.85
-4.47 0.43 1.45
-4.60 0.45 1.43
-4.36 0.44 1.46
-4.77 0.49 1.40
-4.68 0.50 1.41
-4.41 0.48 1.46
-4.54 0.50 1.44
-4.47 0.51 1.45
-4.59 0.53 1.43
-4.61 0.54 1.42
-4.48 0.54 1.44
-4.65 0.57 1.42
-4.46 0.56 1.45
-4.26 0.55 1.48
-4.58 0.60 1.42
-4.42 0.59 1.45
-4.30 0.59 1.47
-4.27 0.59 1.47
-4.41 0.62 1.45
-4.34 0.62 1.46
-4.18 0.61 1.49
-4.18 0.62 1.49
-4.19 0.63 1.49
-4.24 0.65 1.48
-4.18 0.66 1.48
-4.23 0.67 1.48
-4.34 0.70 1.46
-4.38 0.72 1.45
-4.39 0.73 1.45
-4.21 0.71 1.48
-5.55 1.04 1.26
-4.27 0.84 1.46
-6.46 -1.39 0.72
-6.40 -1.23 0.73
-6.48 -1.22 0.72
-6.37 -1.14 0.74
-6.29 -1.11 0.75
-5.87 -1.02 0.82
-5.95 -0.98 0.81
-6.34 -1.01 0.75
-5.85 -0.93 0.82
-5.79 -0.88 0.83
-5.97 -0.88 0.81
-5.71 -0.84 0.85
-5.29 -0.76 0.92
-5.31 -0.74 0.91
-5.37 -0.73 0.90
-5.18 -0.69 0.93
-5.34 -0.69 0.91
-4.55 -0.60 1.03
-4.38 -0.57 1.06
-6.55 -0.73 0.71
-5.30 -0.61 0.91
-6.89 -0.71 0.66
-5.63 -0.59 0.86
-6.61 -0.64 0.70
-1.56 -0.28 1.51
-4.33 -0.45 1.07
-1.68 -0.27 1.49
-2.10 -0.29 1.43
-1.89 -0.26 1.46
-1.90 -0.25 1.46
-5.39 -0.28 1.31
-5.31 -0.27 1.33
-5.30 -0.25 1.33
-5.41 -0.25 1.31
-5.20 -0.22 1.34
-5.11 -0.21 1.36
-5.27 -0.20 1.33
-6.10 -0.22 1.20
-5.58 -0.19 1.28
-5.37 -0.17 1.32
-5.39 -0.15 1.31
-5.54 -0.15 1.29
-5.67 -0.14 1.27
-5.43 -0.12 1.31
-5.38 -0.10 1.32
-5.49 -0.09 1.30
-5.46 -0.08 1.30
-5.09 -0.06 1.36
-5.18 -0.05 1.35
-5.32 -0.04 1.32
-5.22 -0.02 1.34
-5.18 -0.01 1.34
-2.57 0.01 1.31
-2.54 0.02 1.32
-2.70 0.03 1.29
-7.25 0.05 0.96
-4.31 0.04 1.45
-4.29 0.05 1.46
-4.29 0.06 1.45
-4.64 0.08 1.40
-4.22 0.08 1.47
-10.34 0.22 0.44
-4.88 0.12 1.35
-4.30 0.12 1.45
-4.33 0.13 1.45
-4.46 0.14 1.42
-4.27 0.15 1.46
-4.20 0.15 1.47
-4.32 0.17 1.45
-4.43 0.18 1.43
-4.46 0.20 1.42
-4.50 0.21 1.42
-4.70 0.23 1.38
-4.50 0.23 1.41
-9.04 0.48 0.66
-4.45 0.25 1.42
-4.55 0.27 1.41
-8.98 0.54 0.66
-8.29 0.52 0.78
-5.09 0.33 1.32
-5.92 0.40 1.17
-8.04 0.56 0.82
-5.78 0.42 1.20
-5.30 0.40 1.28
-5.68 0.44 1.21
-5.21 0.42 1.29
-5.61 0.46 1.23
-5.22 0.45 1.29
-5.41 0.47 1.26
-4.77 0.43 1.37
-4.60 0.43 1.39
-4.65 0.44 1.38
-4.62 0.45 1.39
-4.59 0.46 1.39
-4.59 0.47 1.39
-4.66 0.49 1.38
-4.62 0.50 1.39
-4.65 0.51 1.38
-4.53 0.51 1.40
-4.63 0.53 1.38
-4.60 0.54 1.39
-4.60 0.55 1.39
-4.65 0.57 1.38
-4.60 0.58 1.39
-4.40 0.56 1.42
-4.41 0.58 1.42
-4.19 0.56 1.46
-4.44 0.60 1.41
-4.23 0.58 1.45
-4.31 0.61 1.43
-4.25 0.61 1.44
-4.12 0.60 1.46
-4.16 0.62 1.46
-4.22 0.64 1.45
-4.16 0.64 1.46
-4.22 0.66 1.45
-4.20 0.67 1.45
-4.28 0.69 1.44
-4.21 0.69 1.45
-4.24 0.71 1.44
-4.33 0.73 1.43
-4.44 0.76 1.41
-4.48 0.78 1.40
-4.46 0.79 1.40
-4.58 0.82 1.38
-4.49 0.81 1.40
-4.58 0.84 1.38
-1.62 -0.99 1.47
-6.79 -1.32 0.60
-6.53 -1.27 0.64
-6.59 -1.25 0.63
-6.37 -1.20 0.67
-6.19 -1.16 0.70
-6.10 -1.12 0.72
-6.30 -1.13 0.68
-5.86 -1.03 0.76
-6.16 -1.05 0.71
-6.21 -1.03 0.70
-6.02 -0.99 0.73
-6.04 -0.97 0.73
-5.90 -0.93 0.75
-5.56 -0.88 0.81
-5.73 -0.88 0.78
-5.71 -0.85 0.78
-5.30 -0.79 0.85
-5.62 -0.81 0.80
-5.41 -0.77 0.83
-5.45 -0.75 0.83
-4.87 -0.68 0.93
-5.45 -0.71 0.83
-5.28 -0.68 0.86
-6.05 -0.72 0.73
-5.60 -0.67 0.80
-5.28 -0.62 0.86
-5.32 -0.61 0.85
-5.50 -0.60 0.82
-6.86 -0.68 0.59
-2.62 -0.36 1.31
-6.62 -0.62 0.63
-6.59 -0.59 0.64
-1.66 -0.27 1.47
-2.05 -0.28 1.40
-1.83 -0.26 1.44
-1.93 -0.25 1.42
-2.05 -0.25 1.40
-1.87 -0.23 1.43
-1.97 -0.22 1.41
-1.75 -0.20 1.45
-1.65 -0.19 1.47
-1.42 -0.17 1.51
-1.76 -0.17 1.45
-1.76 -0.16 1.45
-1.82 -0.15 1.44
-1.57 -0.13 1.48
-1.55 -0.12 1.48
-1.82 -0.12 1.44
-1.61 -0.11 1.47
-1.75 -0.10 1.45
-1.69 -0.09 1.46
-1.60 -0.07 1.47
-1.72 -0.07 1.46
-1.73 -0.05 1.45
-1.64 -0.04 1.47
-2.01 -0.04 1.41
-2.18 -0.03 1.38
-2.14 -0.01 1.38
-2.29 -0.00 1.36
-4.78 0.00 1.33
-9.02 0.02 0.59
-5.03 0.03 1.29
-4.99 0.04 1.29
-9.33 0.09 0.53
-9.49 0.11 0.51
-5.00 0.07 1.29
-4.94 0.08 1.30
-8.79 0.17 0.63
-8.78 0.19 0.63
-8.62 0.21 0.66
-4.88 0.13 1.31
-4.92 0.14 1.30
-4.85 0.15 1.32
-4.73 0.16 1.34
-8.55 0.31 0.67
-4.98 0.19 1.29
-8.70 0.36 0.64
-8.72 0.38 0.64
-8.84 0.40 0.61
-8.71 0.42 0.64
-9.17 0.46 0.56
-9.15 0.48 0.56
-9.38 0.52 0.52
-9.05 0.52 0.57
-8.56 0.52 0.66
-8.30 0.52 0.71
-8.24 0.54 0.72
-7.91 0.53 0.77
-7.76 0.54 0.80
-7.82 0.57 0.79
-7.75 0.58 0.80
-7.87 0.61 0.78
-7.87 0.63 0.78
-7.79 0.64 0.79
-5.07 0.43 1.27
-5.91 0.52 1.12
-4.67 0.42 1.34
-5.33 0.49 1.22
-5.70 0.54 1.16
-5.68 0.55 1.16
-5.63 0.56 1.17
-4.79 0.49 1.32
-4.57 0.48 1.36
-4.78 0.51 1.32
-4.68 0.52 1.34
-4.69 0.53 1.33
-4.70 0.54 1.33
-4.63 0.54 1.34
-4.61 0.55 1.35
-4.66 0.57 1.34
-4.66 0.58 1.34
-4.53 0.58 1.36
-4.66 0.61 1.33
-4.47 0.59 1.37
-4.93 0.67 1.29
-4.63 0.64 1.34
-4.60 0.65 1.34
-4.57 0.65 1.35
-4.44 0.65 1.37
-4.44 0.66 1.37
-4.53 0.68 1.36
-4.39 0.67 1.38
-4.35 0.68 1.39
-4.36 0.69 1.38
-4.34 0.70 1.39
-4.41 0.72 1.38
-4.39 0.73 1.38
-4.34 0.73 1.38
-4.32 0.74 1.39
-4.69 0.81 1.32
-4.63 0.81 1.33
-4.51 0.81 1.35
-5.45 -1.06 0.76
-5.56 -1.04 0.74
-5.85 -1.05 0.69
-5.89 -1.04 0.68
-5.94 -1.02 0.67
-5.77 -0.98 0.70
-5.86 -0.97 0.69
-5.94 -0.96 0.67
-6.08 -0.96 0.65
-6.05 -0.93 0.65
-6.10 -0.92 0.64
-6.35 -0.92 0.60
-5.32 -0.80 0.78
-5.32 -0.78 0.78
-5.33 -0.76 0.78
-5.03 -0.71 0.83
-5.12 -0.70 0.82
-5.21 -0.69 0.80
-5.13 -0.67 0.82
-5.22 -0.66 0.80
-5.28 -0.64 0.79
-5.61 -0.65 0.73
-6.39 -0.69 0.59
-5.53 -0.60 0.75
-5.20 -0.56 0.81
-5.04 -0.53 0.83
-5.09 -0.52 0.82
-5.16 -0.50 0.81
-6.45 -0.56 0.58
-4.44 -0.42 0.94
-1.76 -0.25 1.41
-6.41 -0.50 0.59
-6.59 -0.49 0.56
-6.43 -0.46 0.59
-6.41 -0.43 0.59
-6.06 -0.40 0.65
-5.96 -0.37 0.67
-5.49 -0.33 0.75
-5.82 -0.32 0.70
-5.43 -0.29 0.76
-5.92 -0.29 0.68
-5.45 -0.25 0.76
-1.90 -0.13 1.39
-5.95 -0.23 0.67
-3.59 -0.15 1.09
-3.48 -0.13 1.11
-3.34 -0.12 1.13
-3.58 -0.11 1.09
-3.34 -0.09 1.13
-6.98 -0.10 0.95
-5.12 -0.06 1.27
-7.11 -0.07 0.92
-7.20 -0.05 0.91
-7.23 -0.03 0.90
-4.97 -0.01 1.30
-2.48 0.01 1.24
-2.26 0.02 1.28
-2.23 0.03 1.28
-2.16 0.04 1.30
-2.97 0.06 1.15
-2.29 0.08 1.27
-2.19 0.09 1.29
-2.30 0.10 1.27
-2.55 0.12 1.22
-2.38 0.13 1.26
-4.40 0.13 1.36
-4.43 0.14 1.35
-4.36 0.15 1.37
-4.45 0.16 1.35
-4.59 0.18 1.32
-4.67 0.19 1.31
-4.49 0.20 1.34
-4.58 0.21 1.32
-4.77 0.23 1.29
-9.03 0.46 0.50
-4.72 0.26 1.30
-4.84 0.28 1.28
-4.90 0.30 1.26
-5.05 0.32 1.23
-4.58 0.30 1.32
-4.25 0.29 1.38
-4.16 0.29 1.40
-4.36 0.33 1.36
-4.19 0.33 1.39
-4.17 0.34 1.39
-4.39 0.36 1.35
-4.18 0.36 1.39
-4.42 0.39 1.35
-4.48 0.42 1.34
-4.57 0.43 1.32
-4.46 0.44 1.34
-4.43 0.44 1.34
-4.45 0.46 1.34
-4.47 0.47 1.33
-4.57 0.49 1.32
-4.56 0.51 1.32
-4.55 0.52 1.32
-4.47 0.53 1.33
-4.46 0.54 1.33
-4.48 0.55 1.33
-4.44 0.56 1.34
-4.43 0.56 1.34
-4.39 0.57 1.35
-4.54 0.60 1.32
-4.32 0.58 1.36
-4.34 0.60 1.35
-4.36 0.61 1.35
-4.39 0.63 1.34
-4.34 0.63 1.35
-4.34 0.64 1.35
-4.35 0.65 1.35
-4.40 0.67 1.34
-4.36 0.68 1.35
-4.25 0.67 1.37
-4.35 0.70 1.35
-4.36 0.71 1.35
-4.30 0.71 1.36
-4.30 0.72 1.36
-4.35 0.74 1.35
-4.36 0.76 1.34
-4.39 0.78 1.34
-4.32 0.78 1.35
-4.16 0.76 1.38
-4.14 0.77 1.38
-4.35 0.82 1.34
-4.44 0.88 1.32
-4.49 0.90 1.31
-4.64 1.26 1.27
-1.00 -1.57 1.49
-1.57 -1.17 1.40
-1.73 -1.16 1.37
-2.18 -1.07 1.29
-1.86 -0.76 1.36
-6.22 -1.12 0.54
-6.34 -1.11 0.52
-4.51 -0.87 0.86
-6.05 -1.01 0.58
-5.86 -0.97 0.61
-5.54 -0.91 0.67
-5.67 -0.91 0.65
-5.85 -0.91 0.62
-3.32 -0.62 1.09
-5.66 -0.83 0.65
-5.31 -0.78 0.72
-5.18 -0.74 0.74
-5.40 -0.75 0.70
-2.53 -0.47 1.23
-2.44 -0.45 1.25
-2.80 -0.47 1.18
-5.31 -0.66 0.72
-5.45 -0.64 0.69
-2.64 -0.40 1.21
-2.84 -0.41 1.18
-5.29 -0.57 0.72
-5.15 -0.54 0.75
-5.13 -0.52 0.75
-5.00 -0.49 0.77
-2.80 -0.33 1.18
-5.21 -0.45 0.74
-4.94 -0.42 0.79
-6.36 -0.47 0.52
-2.00 -0.23 1.33
-1.77 -0.21 1.37
-1.72 -0.20 1.38
-1.71 -0.18 1.38
-2.01 -0.18 1.33
-1.50 -0.15 1.42
-1.72 -0.15 1.38
-1.70 -0.14 1.38
-1.79 -0.13 1.37
-1.75 -0.12 1.38
-1.65 -0.09 1.39
-3.31 -0.12 1.09
-3.10 -0.10 1.13
-1.89 -0.07 1.35
-1.88 -0.06 1.35
-2.61 -0.05 1.22
-2.18 -0.04 1.29
-1.82 -0.01 1.36
-2.47 -0.00 1.24
-4.82 0.00 1.24
-8.66 0.06 0.50
-5.00 0.05 1.20
-5.23 0.08 1.16
-8.55 0.17 0.52
-8.71 0.21 0.49
-8.66 0.23 0.49
-8.75 0.25 0.48
-4.82 0.17 1.24
-4.87 0.19 1.23
-8.49 0.37 0.53
-8.48 0.39 0.53
-8.88 0.43 0.45
-4.52 0.24 1.29
-4.77 0.28 1.24
-4.56 0.29 1.28
-4.49 0.30 1.29
-4.97 0.34 1.20
-8.28 0.60 0.56
-5.66 0.44 1.07
-4.35 0.36 1.32
-4.82 0.41 1.23
-4.84 0.43 1.22
-4.71 0.44 1.25
-4.73 0.46 1.24
-4.68 0.48 1.25
-4.70 0.50 1.25
-4.61 0.50 1.26
-4.67 0.53 1.25
-4.65 0.55 1.25
-4.68 0.58 1.25
-4.62 0.58 1.26
-4.57 0.59 1.27
-4.62 0.61 1.26
-4.59 0.63 1.26
-4.54 0.65 1.27
-4.55 0.66 1.27
-4.69 0.70 1.24
-4.44 0.68 1.29
-4.39 0.70 1.30
-4.48 0.73 1.28
-4.38 0.73 1.30
-4.47 0.75 1.28
-4.49 0.78 1.27
-4.63 0.83 1.25
-4.63 0.85 1.25
-4.52 0.84 1.27
-4.57 0.87 1.25
-4.82 0.94 1.21
-4.53 0.91 1.26
-5.20 1.62 1.09
-2.06 -1.40 1.26
-1.41 -1.17 1.39
-1.92 -1.31 1.29
-2.18 -1.27 1.24
-2.32 -1.19 1.22
-4.48 -1.21 0.80
-4.32 -1.15 0.83
-6.05 -1.33 0.49
-6.10 -1.31 0.49
-6.34 -1.33 0.44
-6.20 -1.29 0.47
-5.95 -1.23 0.51
-5.30 -1.12 0.64
-5.50 -1.12 0.60
-5.86 -1.16 0.53
-6.28 -1.19 0.45
-6.10 -1.15 0.49
-5.85 -1.09 0.54
-5.26 -1.00 0.65
-5.46 -1.00 0.61
-5.01 -0.93 0.70
-5.05 -0.92 0.69
-5.28 -0.92 0.65
-5.59 -0.94 0.59
-5.15 -0.87 0.68
-5.12 -0.85 0.68
-5.43 -0.87 0.62
-5.01 -0.80 0.70
-5.36 -0.82 0.64
-5.50 -0.82 0.61
-5.38 -0.78 0.63
-5.33 -0.76 0.64
-6.75 -0.87 0.37
-5.52 -0.74 0.60
-5.85 -0.75 0.54
-6.66 -0.80 0.38
-5.18 -0.65 0.67
-6.79 -0.77 0.36
-5.37 -0.63 0.63
-4.39 -0.52 0.83
-4.89 -0.54 0.73
-5.05 -0.53 0.70
-5.13 -0.52 0.68
-5.07 -0.50 0.69
-4.88 -0.47 0.73
-5.03 -0.46 0.70
-4.89 -0.43 0.73
-5.25 -0.43 0.66
-6.04 -0.46 0.50
-4.86 -0.38 0.73
-5.03 -0.37 0.70
-5.88 -0.39 0.54
-4.06 -0.29 0.89
-4.60 -0.30 0.78
-4.27 -0.27 0.85
-4.89 -0.27 0.73
-8.72 -0.29 0.49
-8.73 -0.27 0.49
-9.16 -0.26 0.40
-8.98 -0.21 0.44
-8.93 -0.17 0.45
-8.96 -0.13 0.44
-5.17 -0.06 1.17
-4.93 -0.05 1.22
-4.84 -0.02 1.24
-2.30 0.01 1.19
-2.12 0.02 1.23
-2.01 0.03 1.25
-2.21 0.04 1.21
-2.10 0.05 1.23
-2.47 0.07 1.15
-2.24 0.08 1.20
-2.47 0.09 1.15
-2.15 0.10 1.22
-2.46 0.12 1.15
-2.34 0.12 1.18
-2.46 0.14 1.15
-2.44 0.15 1.16
-2.56 0.17 1.13
-2.50 0.18 1.15
-2.35 0.19 1.17
-2.46 0.20 1.15
-2.27 0.21 1.19
-2.61 0.23 1.12
-2.54 0.24 1.14
-3.93 0.19 1.37
-3.90 0.20 1.38
-3.87 0.21 1.39
-3.76 0.21 1.41
-3.79 0.22 1.40
-3.85 0.23 1.39
-3.91 0.25 1.38
-3.93 0.26 1.37
-3.90 0.27 1.38
-3.99 0.28 1.36
-3.97 0.29 1.36
-4.04 0.30 1.35
-3.96 0.31 1.37
-4.00 0.32 1.36
-4.06 0.34 1.34
-4.18 0.36 1.32
-4.09 0.36 1.34
-4.15 0.38 1.33
-4.22 0.39 1.31
-4.41 0.42 1.27
-4.34 0.42 1.29
-4.34 0.43 1.29
-4.40 0.45 1.27
-4.34 0.46 1.29
-4.55 0.49 1.24
-4.40 0.48 1.27
-4.35 0.49 1.28
-4.38 0.50 1.27
-4.46 0.52 1.26
-4.46 0.53 1.26
-4.39 0.54 1.27
-4.42 0.55 1.26
-4.35 0.55 1.28
-4.39 0.57 1.27
-4.26 0.56 1.30
-4.20 0.57 1.31
-4.32 0.59 1.28
-4.27 0.60 1.29
-4.38 0.62 1.27
-4.31 0.62 1.28
-4.34 0.64 1.28
-4.28 0.64 1.29
-4.23 0.65 1.30
-4.33 0.67 1.28
-4.26 0.67 1.29
-4.28 0.68 1.29
-4.38 0.71 1.27
-4.30 0.71 1.28
-4.29 0.72 1.28
-4.35 0.74 1.27
-4.38 0.76 1.26
-4.43 0.78 1.25
-4.31 0.77 1.28
-4.44 0.80 1.25
-4.28 0.78 1.28
-4.31 0.80 1.27
-4.35 0.82 1.27
-4.46 0.85 1.24
-4.24 0.82 1.29
-4.34 0.85 1.27
-4.32 0.86 1.27
-4.51 0.91 1.23
-4.65 0.95 1.20
-1.76 -1.31 1.29
-1.16 -1.08 1.41
-1.47 -1.16 1.35
-1.34 -1.04 1.38
-1.20 -1.00 1.41
-1.45 -1.01 1.36
-1.21 -0.92 1.41
-1.41 -0.96 1.37
-2.07 -1.11 1.23
-1.42 -0.94 1.37
-1.23 -0.53 1.41
-4.57 -0.74 0.73
-2.44 -0.47 1.17
-2.36 -0.45 1.18
-2.63 -0.45 1.13
-2.32 -0.41 1.19
-2.53 -0.42 1.15
-2.47 -0.40 1.16
-2.38 -0.38 1.18
-2.57 -0.38 1.14
-2.82 -0.39 1.09
-3.05 -0.39 1.04
-2.81 -0.36 1.09
-3.00 -0.36 1.05
-2.64 -0.33 1.12
-2.69 -0.32 1.11
-1.96 -0.26 1.26
-3.06 -0.31 1.04
-1.68 -0.23 1.32
-1.70 -0.22 1.31
-1.73 -0.21 1.31
-1.48 -0.19 1.36
-1.52 -0.18 1.35
-1.62 -0.17 1.33
-1.58 -0.16 1.34
-1.46 -0.15 1.36
-1.44 -0.14 1.37
-1.58 -0.13 1.34
-1.61 -0.12 1.33
-2.02 -0.12 1.25
-1.67 -0.11 1.32
-1.87 -0.10 1.28
-1.90 -0.09 1.27
-1.68 -0.08 1.32
-1.90 -0.07 1.27
-1.69 -0.05 1.31
-2.06 -0.05 1.24
-1.77 -0.04 1.30
-2.01 -0.03 1.25
-2.03 -0.02 1.24
-2.06 -0.00 1.24
-7.84 0.00 0.51
-4.66 0.01 1.18
-4.68 0.03 1.18
-4.70 0.03 1.17
-9.59 0.09 0.14
-8.26 0.10 0.42
-4.65 0.07 1.18
-4.55 0.08 1.20
-4.33 0.08 1.25
-4.71 0.10 1.17
-9.49 0.23 0.16
-4.36 0.12 1.24
-9.35 0.27 0.19
-9.48 0.30 0.16
-4.17 0.14 1.28
-3.96 0.15 1.33
-4.03 0.16 1.31
-3.97 0.17 1.32
-4.09 0.18 1.30
-3.98 0.19 1.32
-3.88 0.19 1.34
-3.91 0.20 1.33
-4.09 0.22 1.29
-4.09 0.23 1.29
-4.02 0.24 1.31
-4.02 0.25 1.31
-4.21 0.27 1.27
-4.12 0.27 1.29
-4.24 0.29 1.26
-4.07 0.29 1.30
-4.38 0.32 1.23
-4.98 0.38 1.10
-5.16 0.40 1.07
-5.43 0.44 1.01
-5.07 0.42 1.08
-4.45 0.38 1.21
-4.80 0.42 1.14
-4.62 0.42 1.18
-4.59 0.43 1.18
-4.39 0.42 1.22
-4.50 0.44 1.20
-4.39 0.44 1.23
-4.48 0.46 1.21
-4.51 0.48 1.20
-4.57 0.50 1.18
-4.63 0.51 1.17
-4.60 0.52 1.18
-4.62 0.53 1.17
-4.71 0.56 1.15
-4.62 0.56 1.17
-4.63 0.57 1.17
-4.62 0.58 1.17
-4.55 0.59 1.18
-4.58 0.60 1.18
-4.54 0.60 1.19
-4.48 0.61 1.20
-4.50 0.62 1.20
-4.42 0.62 1.21
-4.48 0.64 1.20
-4.44 0.65 1.21
-4.64 0.69 1.16
-4.38 0.66 1.22
-4.36 0.67 1.22
-4.36 0.68 1.22
-4.36 0.69 1.22
-4.37 0.71 1.22
-4.48 0.74 1.19
-4.43 0.74 1.20
-4.44 0.75 1.20
-4.48 0.77 1.19
-4.45 0.78 1.20
-4.41 0.78 1.20
-4.44 0.80 1.20
-4.36 0.79 1.21
-4.59 0.84 1.16
-4.38 0.82 1.21
-4.38 0.83 1.21
-4.41 0.85 1.20
-4.47 0.87 1.19
-4.53 0.89 1.17
-4.61 0.92 1.15
-4.49 0.91 1.18
-4.56 0.94 1.16
-4.62 0.96 1.15
-4.45 0.94 1.19
-4.98 1.06 1.07
-5.11 1.12 1.04
-5.16 1.17 1.03
-5.50 1.31 0.95
-5.15 1.24 1.03
-4.96 1.21 1.07
-5.13 1.26 1.03
-4.91 1.22 1.08
-4.84 1.22 1.09
-4.87 1.24 1.08
-5.07 1.30 1.04
-4.86 1.26 1.08
-4.96 1.30 1.06
-4.94 1.31 1.06
-4.88 1.31 1.08
-5.05 1.36 1.04
-5.03 1.39 1.04
-4.77 1.33 1.10
-1.91 -1.18 1.21
-2.08 -1.16 1.17
-2.30 -1.18 1.13
-1.94 -1.07 1.21
-2.05 -1.08 1.18
-2.25 -1.12 1.14
-2.22 -1.10 1.15
-2.13 -1.07 1.17
-2.31 -1.10 1.13
-2.07 -1.03 1.18
-2.23 -1.06 1.15
-2.10 -1.02 1.17
-2.27 -1.04 1.14
-2.35 -1.05 1.12
-2.20 -1.00 1.15
-2.37 -1.03 1.12
-2.34 -1.01 1.12
-2.28 -0.99 1.14
-2.33 -0.98 1.13
-1.88 -0.86 1.22
-1.91 -0.81 1.22
-4.39 -1.24 0.69
-4.38 -1.21 0.69
-4.35 -1.15 0.70
-4.49 -1.16 0.67
-4.62 -1.14 0.64
-4.24 -1.02 0.72
-5.55 -1.15 0.44
-5.75 -1.14 0.40
-5.72 -1.12 0.41
-5.34 -1.05 0.49
-5.58 -1.06 0.44
-5.52 -1.03 0.45
-5.23 -0.98 0.51
-5.68 -1.01 0.42
-5.45 -0.96 0.47
-5.44 -0.95 0.47
-5.16 -0.89 0.53
-4.59 -0.81 0.65
-5.10 -0.85 0.54
-4.81 -0.80 0.61
-4.81 -0.78 0.61
-4.70 -0.75 0.63
-5.10 -0.78 0.54
-4.54 -0.70 0.66
-5.12 -0.74 0.54
-4.55 -0.67 0.66
-4.76 -0.67 0.62
-4.45 -0.63 0.68
-4.38 -0.60 0.70
-4.30 -0.58 0.71
-4.41 -0.57 0.69
-3.90 -0.52 0.80
-3.85 -0.50 0.81
-4.30 -0.51 0.71
-4.34 -0.50 0.71
-4.79 -0.52 0.61
-5.10 -0.52 0.54
-5.05 -0.50 0.56
-4.86 -0.47 0.60
-4.81 -0.45 0.61
-4.88 -0.43 0.59
-5.04 -0.42 0.56
-7.22 -0.40 0.64
-7.38 -0.39 0.61
-7.26 -0.37 0.64
-7.33 -0.35 0.62
-5.36 -0.24 1.04
-5.11 -0.22 1.09
-7.83 -0.32 0.52
-5.32 -0.19 1.04
-9.73 -0.33 0.12
-9.70 -0.30 0.12
-9.70 -0.28 0.12
-9.71 -0.26 0.12
-4.84 -0.12 1.14
-5.13 -0.11 1.08
-4.95 -0.10 1.12
-5.08 -0.08 1.09
-9.50 -0.14 0.16
-7.87 -0.09 0.51
-7.32 -0.07 0.62
-6.45 -0.04 0.81
-7.53 -0.04 0.58
-4.87 -0.01 1.14
-2.83 0.01 0.97
-2.57 0.02 1.03
-2.63 0.03 1.02
-4.54 0.03 1.17
-4.49 0.04 1.18
-4.43 0.05 1.19
-4.00 0.06 1.28
-4.31 0.07 1.22
-4.19 0.08 1.24
-4.05 0.09 1.27
-4.14 0.10 1.25
-4.13 0.11 1.25
-4.02 0.12 1.28
-3.92 0.12 1.30
-3.80 0.13 1.33
-3.83 0.14 1.32
-3.83 0.15 1.32
-3.70 0.15 1.35
-3.89 0.17 1.30
-3.73 0.17 1.34
-3.80 0.19 1.33
-3.82 0.20 1.32
-3.97 0.21 1.29
-4.00 0.23 1.28
-4.00 0.24 1.28
-3.94 0.24 1.29
-4.05 0.26 1.27
-4.03 0.27 1.27
-4.03 0.28 1.27
-3.97 0.28 1.28
-4.11 0.30 1.25
-4.25 0.32 1.22
-4.31 0.34 1.21
-4.29 0.35 1.21
-4.11 0.34 1.25
-4.29 0.37 1.21
-4.39 0.39 1.19
-4.32 0.39 1.20
-4.35 0.41 1.20
-4.30 0.41 1.21
-4.33 0.42 1.20
-4.50 0.45 1.16
-4.51 0.46 1.16
-4.49 0.47 1.16
-4.45 0.48 1.17
-4.48 0.49 1.16
-4.52 0.51 1.15
-4.66 0.54 1.12
-4.66 0.55 1.12
-4.50 0.54 1.16
-4.66 0.57 1.12
-4.50 0.57 1.16
-4.66 0.59 1.12
-4.47 0.58 1.16
-4.50 0.60 1.15
-4.54 0.61 1.15
-4.45 0.61 1.16
-4.48 0.63 1.16
-4.48 0.64 1.16
-4.45 0.65 1.16
-4.42 0.65 1.17
-4.45 0.67 1.16
-4.47 0.68 1.16
-4.49 0.70 1.15
-4.42 0.70 1.17
-4.36 0.70 1.18
-4.45 0.72 1.16
-4.50 0.75 1.15
-4.46 0.75 1.16
-4.48 0.77 1.15
-4.45 0.77 1.16
-4.48 0.79 1.15
-4.50 0.80 1.14
-4.44 0.80 1.16
-4.43 0.81 1.16
-4.49 0.83 1.14
-4.52 0.85 1.14
-4.41 0.84 1.16
-4.45 0.86 1.15
-4.67 0.92 1.10
-4.61 0.92 1.11
-4.59 0.93 1.12
-4.75 0.97 1.08
-4.77 0.98 1.08
-2.23 -1.00 1.10
-2.26 -1.00 1.10
-2.26 -0.99 1.10
-2.26 -0.97 1.10
-2.10 -0.93 1.14
-2.21 -0.94 1.11
-1.81 -0.82 1.20
-1.55 -0.74 1.26
-1.65 -0.75 1.24
-1.52 -0.72 1.27
-1.45 -0.69 1.28
-1.75 -0.73 1.22
-4.37 -1.10 0.63
-4.46 -1.06 0.61
-4.05 -0.97 0.70
-1.68 -0.61 1.23
-4.12 -0.95 0.69
-1.90 -0.62 1.19
-5.12 -1.05 0.46
-1.96 -0.61 1.17
-5.33 -1.02 0.42
-4.88 -0.95 0.52
-4.74 -0.91 0.55
-4.91 -0.92 0.51
-5.10 -0.92 0.47
-5.35 -0.93 0.42
-2.11 -0.54 1.14
-4.20 -0.76 0.67
-4.86 -0.82 0.53
-4.98 -0.81 0.50
-4.98 -0.80 0.50
-4.64 -0.75 0.58
-4.86 -0.75 0.53
-4.89 -0.74 0.52
-2.57 -0.50 1.04
-4.59 -0.67 0.59
-4.28 -0.63 0.66
-4.16 -0.60 0.68
-4.20 -0.59 0.68
-4.31 -0.58 0.65
-4.24 -0.56 0.67
-4.43 -0.55 0.62
-4.33 -0.53 0.65
-4.38 -0.52 0.63
-4.09 -0.48 0.70
-4.63 -0.50 0.58
-3.91 -0.44 0.74
-5.02 -0.49 0.49
-3.73 -0.40 0.78
-3.42 -0.36 0.85
-3.47 -0.35 0.84
-3.65 -0.35 0.80
-3.54 -0.33 0.82
-3.38 -0.30 0.86
-3.34 -0.29 0.86
-3.44 -0.28 0.84
-4.76 -0.32 0.55
-4.68 -0.30 0.57
-3.21 -0.23 0.90
-4.37 -0.25 0.64
-3.72 -0.21 0.78
-3.51 -0.19 0.83
-3.27 -0.17 0.88
-3.15 -0.16 0.91
-3.02 -0.14 0.93
-2.87 -0.12 0.97
-2.86 -0.11 0.97
-2.80 -0.09 0.98
-2.50 -0.08 1.05
-1.92 -0.06 1.18
-7.54 0.04 0.43
-7.43 0.05 0.45
-8.88 0.08 0.12
-8.83 0.11 0.13
-8.95 0.13 0.10
-8.93 0.15 0.11
-8.82 0.17 0.13
-8.86 0.19 0.12
-8.84 0.21 0.13
-8.89 0.23 0.11
-8.84 0.25 0.13
-8.74 0.27 0.15
-8.72 0.29 0.15
-8.78 0.32 0.14
-8.61 0.33 0.18
-7.54 0.31 0.42
-7.64 0.33 0.40
-7.54 0.34 0.42
-7.64 0.37 0.40
-8.42 0.43 0.22
-8.56 0.45 0.18
-8.59 0.48 0.18
-8.84 0.51 0.12
-3.96 0.24 1.25
-8.48 0.53 0.20
-8.70 0.56 0.15
-8.73 0.59 0.14
-8.89 0.62 0.10
-8.84 0.66 0.11
-7.17 0.61 0.50
-6.48 0.58 0.66
-6.68 0.61 0.61
-6.46 0.61 0.66
-6.57 0.64 0.63
-6.62 0.66 0.62
-4.81 0.49 1.04
-6.61 0.69 0.62
-6.77 0.72 0.59
-4.69 0.52 1.07
-4.61 0.52 1.08
-4.47 0.52 1.12
-4.82 0.57 1.04
-4.62 0.56 1.08
-4.64 0.57 1.08
-4.71 0.59 1.06
-4.79 0.61 1.04
-4.84 0.63 1.03
-4.82 0.64 1.03
-4.93 0.67 1.01
-5.00 0.69 0.99
-4.98 0.70 0.99
-4.90 0.70 1.01
-4.84 0.70 1.02
-4.85 0.72 1.02
-4.93 0.74 1.00
-4.83 0.74 1.02
-4.84 0.75 1.02
-4.83 0.76 1.02
-4.74 0.76 1.04
-4.92 0.80 1.00
-4.88 0.81 1.01
-4.73 0.79 1.04
-4.62 0.79 1.07
-4.68 0.81 1.06
-4.67 0.82 1.06
-4.64 0.83 1.06
-4.61 0.83 1.07
-4.64 0.85 1.06
-7.13 1.33 0.48
-7.21 1.38 0.45
-7.30 1.45 0.43
-7.11 1.47 0.47
-4.47 -0.71 0.54
-4.76 -0.72 0.48
-4.32 -0.66 0.58
-5.07 -0.72 0.40
-4.98 -0.69 0.42
-4.94 -0.67 0.43
-4.69 -0.63 0.49
-4.45 -0.59 0.55
-4.57 -0.58 0.52
-4.50 -0.56 0.54
-4.47 -0.54 0.54
-4.40 -0.52 0.56
-4.45 -0.51 0.55
-4.77 -0.51 0.47
-4.56 -0.48 0.52
-4.59 -0.47 0.52
-4.70 -0.46 0.49
-4.75 -0.44 0.48
-4.50 -0.41 0.54
-4.55 -0.40 0.52
-4.77 -0.39 0.47
-4.78 -0.38 0.47
-4.81 -0.36 0.46
-4.82 -0.34 0.46
-5.08 -0.32 0.40
-4.60 -0.26 0.51
-4.95 -0.26 0.43
-4.46 -0.22 0.54
-4.33 -0.20 0.57
-5.06 -0.21 0.40
-6.29 -0.17 0.12
-6.39 -0.16 0.10
-3.24 -0.09 0.83
-7.36 -0.11 0.47
-8.78 -0.08 0.14
-2.17 1.61 0.10
-1.27 -0.82 0.57
-0.95 -1.00 0.48
-1.69 -0.02 0.45
-1.56 -0.54 0.41
-4.27 0.28 0.10
-3.94 0.46 0.14
-0.81 -1.20 0.15
-1.48 -0.83 0.19
-2.05 -0.63 0.09
-1.99 -0.53 0.10
-1.88 -0.34 0.17
-13.98 -1.03 1.50
-11.92 -0.66 1.59
-14.34 -1.17 1.35
-11.49 -0.88 1.49
-11.88 -0.80 1.47
-13.38 -0.95 1.33
-11.53 -0.78 1.36
-12.19 -0.78 1.32
-12.02 -0.60 1.26
-11.55 -0.51 1.29
-15.12 -1.69 0.97
-14.95 -1.63 0.99
-14.67 -1.40 1.01
-11.09 -1.01 1.25
-11.18 -0.99 1.24
-11.06 -0.85 1.25
-11.16 -0.69 1.25
-11.27 -0.66 1.24
-11.37 -0.63 1.23
-11.40 -0.57 1.23
-12.27 -0.57 1.17
-11.60 -0.51 1.21
-15.55 -0.22 1.14
-15.36 -0.18 1.15
-15.72 -0.11 1.12
-11.17 -1.05 1.17
-11.44 -0.50 1.15
-11.16 -0.46 1.17
-11.13 -0.43 1.17
-11.09 -0.39 1.18
-15.64 0.00 0.96
-15.69 0.11 0.95
-9.79 0.31 1.41
-8.86 0.30 1.48
-9.86 0.36 1.41
-14.80 0.92 1.02
-15.04 -1.64 0.79
-10.95 -1.10 1.11
-10.95 -1.07 1.11
-11.48 -1.08 1.07
-11.05 -0.98 1.10
-10.88 -0.87 1.12
-10.84 -0.81 1.12
-11.05 -0.78 1.10
-11.03 -0.75 1.10
-12.23 -0.67 1.22
-12.14 -0.64 1.23
-12.05 -0.60 1.24
-12.21 -0.58 1.23
-12.23 -0.55 1.22
-12.84 -0.55 1.18
-12.38 -0.50 1.21
-12.95 -0.49 1.17
-12.66 -0.45 1.19
-12.36 -0.41 1.21
-12.29 -0.38 1.22
-12.20 -0.35 1.23
-12.58 -0.27 1.20
-15.46 -0.03 0.97
-15.04 0.83 0.92
-14.88 0.86 0.94
-14.71 0.88 0.95
-14.71 0.92 0.95
-11.45 -1.14 1.00
-11.05 -1.04 1.03
-10.99 -0.85 1.04
-10.68 -0.76 1.07
-10.62 -0.70 1.07
-10.74 -0.67 1.06
-10.49 -0.60 1.08
-10.70 -0.57 1.06
-11.06 -0.52 1.03
-11.39 -0.47 1.01
-11.48 -0.44 1.00
-11.37 -0.34 1.01
-14.26 -0.33 0.76
-10.74 -0.20 1.06
-14.29 -0.08 0.76
-14.70 -0.00 0.73
-9.80 0.05 1.30
-10.06 0.07 1.28
-10.22 0.10 1.26
-11.66 0.25 1.13
-11.56 0.28 1.14
-10.20 0.27 1.26
-9.95 0.29 1.28
-9.96 0.34 1.28
-9.89 0.38 1.29
-12.48 0.54 1.06
-12.38 0.59 1.06
-12.51 0.63 1.05
-14.62 0.84 0.86
-14.52 0.98 0.87
-11.83 -1.17 0.88
-11.22 -1.02 0.93
-10.41 -0.93 1.00
-10.66 -0.92 0.98
-10.53 -0.88 0.99
-10.70 -0.86 0.98
-10.64 -0.82 0.98
-10.77 -0.80 0.97
-10.60 -0.76 0.99
-10.56 -0.72 0.99
-10.40 -0.68 1.01
-10.29 -0.65 1.02
-10.38 -0.62 1.01
-10.38 -0.59 1.01
-10.55 -0.57 0.99
-10.48 -0.53 1.00
-10.58 -0.51 0.99
-10.22 -0.46 1.02
-11.33 -0.47 0.92
-11.17 -0.43 0.94
-15.97 -0.54 0.50
-11.34 -0.33 0.92
-10.64 -0.26 0.98
-10.02 -0.18 1.04
-15.33 -0.18 0.81
-15.34 -0.15 0.80
-15.47 -0.07 0.79
-14.64 0.04 0.53
-8.97 0.05 1.07
-8.53 0.08 1.11
-11.12 0.12 0.86
-8.39 0.13 1.13
-8.68 0.18 1.10
-8.89 0.27 1.08
-12.20 0.47 1.01
-12.14 0.52 1.02
-12.41 0.59 0.99
-14.34 1.06 0.81
-14.35 1.10 0.80
-10.62 -0.88 0.91
-10.73 -0.86 0.90
-10.66 -0.82 0.91
-10.62 -0.79 0.91
-10.43 -0.75 0.93
-10.41 -0.72 0.93
-10.59 -0.69 0.92
-10.53 -0.66 0.92
-10.36 -0.62 0.94
-10.50 -0.60 0.92
-10.63 -0.54 0.91
-10.60 -0.51 0.92
-10.77 -0.48 0.90
-10.22 -0.43 0.95
-10.59 -0.41 0.92
-10.70 -0.38 0.91
-14.48 -0.45 0.54
-14.90 -0.42 0.50
-11.02 -0.26 0.87
-9.85 -0.21 0.99
-10.53 -0.19 0.92
-9.80 -0.15 0.99
-14.55 -0.17 0.54
-14.53 -0.13 0.54
-10.50 -0.07 0.92
-15.60 0.04 0.59
-9.97 0.05 1.16
-9.57 0.07 1.20
-9.86 0.10 1.17
-9.54 0.21 1.21
-7.86 0.23 1.38
-9.95 0.34 1.16
-12.38 0.45 0.92
-9.58 0.37 1.20
-12.14 0.50 0.94
-12.24 0.53 0.93
-12.28 0.59 0.93
-12.58 0.63 0.89
-13.91 0.90 0.76
-12.29 0.83 0.92
-14.34 1.00 0.71
-6.12 -1.00 1.29
-5.97 -0.78 1.30
-10.20 -0.98 0.87
-11.52 -1.01 0.73
-10.45 -0.91 0.84
-10.72 -0.89 0.82
-10.58 -0.85 0.83
-10.39 -0.81 0.85
-10.33 -0.77 0.86
-10.44 -0.75 0.85
-10.37 -0.71 0.85
-10.49 -0.69 0.84
-10.22 -0.65 0.87
-10.60 -0.63 0.83
-10.29 -0.59 0.86
-10.31 -0.56 0.86
-10.20 -0.52 0.87
-10.45 -0.50 0.84
-10.53 -0.47 0.84
-9.17 -0.33 1.24
-11.12 -0.37 1.05
-11.09 -0.34 1.05
-11.02 -0.32 1.06
-10.91 -0.29 1.07
-10.89 -0.26 1.07
-11.02 -0.24 1.06
-10.91 -0.21 1.07
-11.41 -0.19 1.02
-11.81 -0.17 0.98
-12.10 -0.14 0.95
-11.80 -0.11 0.98
-11.47 -0.08 1.01
-11.10 0.03 0.69
-11.66 0.13 0.63
-11.91 0.24 0.60
-11.02 0.32 0.70
-13.69 0.58 0.40
-13.92 0.70 0.38
-10.76 -0.83 0.73
-10.45 -0.72 0.76
-10.42 -0.69 0.76
-15.12 -0.64 0.25
-15.18 -0.59 0.25
-10.45 -0.34 0.76
-10.52 -0.29 0.75
-10.80 -0.23 0.72
-14.46 -0.25 0.32
-10.98 -0.07 0.70
-10.88 -0.00 0.71
-9.59 0.00 1.07
-9.81 0.03 1.05
-9.75 0.05 1.05
-9.77 0.12 1.05
-10.16 0.15 1.01
-10.09 0.17 1.01
-7.95 0.16 1.26
-9.83 0.21 1.04
-12.55 0.30 0.73
-12.48 0.33 0.74
-12.33 0.36 0.76
-10.06 0.32 1.02
-12.98 0.44 0.68
-12.07 0.44 0.79
-11.89 0.49 0.81
-12.12 0.52 0.78
-12.23 0.56 0.77
-12.26 0.59 0.76
-12.30 0.62 0.76
-9.77 -0.77 0.75
-11.21 -0.79 0.58
-9.98 -0.69 0.72
-11.41 -0.63 0.86
-11.27 -0.59 0.88
-11.20 -0.56 0.89
-11.37 -0.54 0.87
-11.41 -0.52 0.87
-11.41 -0.49 0.87
-11.19 -0.45 0.89
-11.30 -0.43 0.88
-11.28 -0.40 0.88
-11.33 -0.38 0.88
-9.13 -0.28 1.13
-11.48 -0.33 0.86
-11.59 -0.30 0.85
-11.95 -0.29 0.80
-12.16 -0.26 0.78
-9.41 -0.18 1.10
-9.52 -0.16 1.08
-12.56 -0.18 0.73
-9.30 -0.11 1.11
-9.46 -0.09 1.09
-9.34 -0.07 1.10
-9.52 -0.04 1.08
-11.87 -0.03 0.81
-6.22 0.02 1.10
-6.16 0.04 1.11
-12.45 0.06 0.66
-12.41 0.12 0.67
-12.37 0.15 0.67
-9.95 0.17 0.97
-10.12 0.22 0.94
-9.91 0.24 0.97
-9.79 0.28 0.98
-14.70 0.63 0.38
-12.12 0.58 0.70
-12.05 0.61 0.71
-12.33 0.74 0.67
-11.81 1.54 0.72
-12.53 -1.19 0.33
-12.45 -1.11 0.34
-9.90 -0.87 0.65
-9.57 -0.82 0.69
-10.18 -0.73 0.62
-10.35 -0.68 0.60
-10.81 -0.67 0.54
-10.54 -0.63 0.57
-10.95 -0.62 0.52
-7.14 -0.42 0.99
-10.88 -0.55 0.53
-10.98 -0.52 0.52
-5.23 -0.28 1.22
-5.20 -0.26 1.23
-10.80 -0.42 0.54
-11.27 -0.40 0.48
-10.48 -0.35 0.58
-10.52 -0.32 0.58
-10.66 -0.29 0.56
-10.73 -0.26 0.55
-5.88 -0.14 1.14
-8.74 -0.17 0.79
-11.29 -0.10 0.48
-6.00 -0.04 1.13
-8.09 -0.03 0.87
-8.32 -0.00 0.84
-9.90 0.00 0.90
-9.61 0.03 0.94
-9.52 0.05 0.95
-9.71 0.07 0.92
-9.92 0.10 0.90
-9.95 0.12 0.89
-9.87 0.14 0.90
-10.18 0.17 0.86
-12.47 0.24 0.57
-13.29 0.29 0.46
-12.27 0.29 0.59
-7.63 0.20 1.19
-7.64 0.22 1.19
-12.95 0.40 0.50
-11.32 0.38 0.71
-11.70 0.42 0.67
-11.48 0.44 0.69
-11.80 0.59 0.65
-11.96 0.63 0.63
-13.86 0.83 0.38
-10.73 1.06 0.78
-11.29 1.23 0.70
-11.69 1.33 0.65
-11.67 1.35 0.65
-11.80 1.39 0.64
-11.75 1.53 0.64
-9.48 -0.75 0.61
-6.52 -0.50 1.00
-11.36 -0.64 0.37
-11.17 -0.59 0.39
-7.14 -0.40 0.92
-11.27 -0.53 0.38
-10.96 -0.46 0.42
-11.16 -0.43 0.40
-11.02 -0.39 0.42
-10.05 -0.34 0.54
-10.40 -0.31 0.50
-10.44 -0.28 0.49
-10.26 -0.25 0.51
-10.57 -0.22 0.47
-5.79 -0.12 1.09
-11.89 -0.17 0.64
-12.21 -0.15 0.60
-12.15 -0.12 0.61
-12.11 -0.09 0.62
-11.89 -0.06 0.64
-9.67 -0.02 0.93
-8.87 0.02 0.61
-9.02 0.08 0.59
-8.72 0.13 0.63
-6.61 0.13 0.92
-6.53 0.15 0.93
-7.00 0.18 0.87
-6.59 0.19 0.92
-8.91 0.30 0.60
-9.49 0.27 0.88
-12.84 0.40 0.43
-12.97 0.43 0.41
-13.80 0.56 0.29
-13.71 0.62 0.31
-13.68 0.65 0.31
-13.95 0.80 0.27
-10.34 0.90 0.76
-10.55 0.99 0.73
-8.70 0.86 0.98
-8.55 0.87 1.00
-8.67 0.90 0.98
-8.67 0.92 0.98
-11.41 1.24 0.61
-11.29 1.25 0.62
-11.75 1.39 0.56
-11.88 1.49 0.54
-11.94 1.52 0.53
-9.75 -0.71 0.49
-9.59 -0.67 0.51
-6.77 -0.47 0.90
-4.62 -0.35 1.19
-7.66 -0.47 0.78
-5.49 -0.33 1.08
-5.23 -0.30 1.11
-11.09 -0.49 0.31
-5.20 -0.25 1.11
-5.60 -0.22 1.06
-11.00 -0.33 0.32
-8.41 -0.24 0.67
-8.23 -0.21 0.70
-5.77 -0.14 1.04
-5.67 -0.10 1.05
-5.73 -0.06 1.04
-5.91 -0.04 1.02
-8.88 -0.03 0.61
-5.75 -0.00 1.04
-10.00 0.00 0.74
-10.77 0.03 0.63
-10.37 0.05 0.68
-10.55 0.08 0.66
-10.62 0.10 0.65
-10.11 0.12 0.72
-10.04 0.14 0.73
-11.00 0.19 0.59
-10.53 0.20 0.66
-10.43 0.23 0.67
-12.91 0.34 0.32
-10.12 0.29 0.72
-13.07 0.41 0.29
-10.21 0.79 0.70
-10.27 0.82 0.69
-8.33 0.68 0.97
-10.53 0.89 0.65
-10.59 0.92 0.64
-10.63 0.95 0.63
-10.70 0.98 0.62
-10.67 1.00 0.63
-11.05 1.06 0.57
-10.98 1.09 0.58
-11.24 1.17 0.54
-11.30 1.20 0.53
-11.39 1.24 0.52
-11.61 1.29 0.49
-11.76 1.33 0.47
-11.68 1.35 0.48
-8.40 1.00 0.95
-12.02 1.45 0.43
-12.09 1.49 0.41
-11.99 1.51 0.43
-12.18 1.56 0.40
-12.12 1.58 0.41
-12.16 1.62 0.40
-12.20 1.65 0.40
-12.04 1.66 0.42
-8.57 -0.72 0.56
-6.79 -0.56 0.82
-6.89 -0.55 0.81
-6.79 -0.50 0.82
-6.75 -0.47 0.83
-6.69 -0.45 0.84
-5.44 -0.37 1.02
-5.45 -0.35 1.02
-5.25 -0.30 1.04
-8.96 -0.30 0.88
-8.84 -0.27 0.91
-9.09 -0.26 0.87
-8.97 -0.24 0.89
-11.70 -0.28 0.49
-9.23 -0.20 0.85
-12.00 -0.23 0.45
-12.36 -0.21 0.40
-12.23 -0.17 0.42
-12.18 -0.14 0.42
-9.96 -0.09 0.74
-12.09 -0.09 0.44
-10.16 -0.05 0.71
-9.71 -0.02 0.78
-9.20 0.08 0.39
-8.58 0.29 0.48
-8.01 0.32 0.56
-7.75 0.34 0.60
-7.64 0.36 0.62
-7.91 0.40 0.58
-7.91 0.42 0.58
-7.53 0.45 0.63
-9.87 0.47 0.67
-10.42 0.73 0.59
-10.50 0.78 0.58
-10.39 0.80 0.59
-10.30 0.82 0.61
-10.71 0.87 0.54
-10.52 0.88 0.57
-10.55 0.99 0.56
-11.09 1.07 0.48
-11.31 1.11 0.45
-11.57 1.20 0.41
-8.43 0.90 0.89
-11.90 1.46 0.35
-7.04 -0.53 0.72
-6.49 -0.46 0.80
-9.58 -0.50 0.33
-6.91 -0.37 0.74
-5.95 -0.27 0.88
-9.34 -0.35 0.37
-7.54 -0.22 0.64
-9.48 -0.09 0.34
-9.76 -0.06 0.30
-8.93 -0.00 0.43
-6.98 0.00 1.06
-6.98 0.02 1.06
-10.03 0.05 0.57
-10.07 0.07 0.57
-10.41 0.10 0.51
-7.18 0.09 1.03
-7.36 0.11 1.00
-10.32 0.17 0.53
-10.43 0.20 0.51
-9.82 0.21 0.61
-7.76 0.19 0.93
-9.60 0.25 0.64
-9.94 0.29 0.59
-9.84 0.31 0.60
-9.14 0.31 0.71
-8.84 0.32 0.76
-9.34 0.36 0.68
-8.67 0.38 0.79
-8.44 0.39 0.82
-9.92 0.67 0.58
-10.20 0.74 0.54
-10.05 0.75 0.56
-10.64 0.82 0.47
-10.22 0.81 0.53
-10.41 0.85 0.50
-10.55 0.89 0.48
-10.43 0.91 0.50
-10.53 0.94 0.48
-10.65 0.98 0.46
-8.33 0.79 0.83
-8.29 0.80 0.84
-8.38 0.83 0.82
-8.21 0.84 0.85
-8.16 0.85 0.86
-8.23 0.88 0.84
-8.31 0.91 0.83
-8.20 0.91 0.85
-8.29 0.97 0.83
-5.70 -0.56 0.85
-6.88 -0.61 0.66
-6.72 -0.58 0.69
-6.65 -0.56 0.70
-4.66 -0.42 1.02
-6.56 -0.51 0.71
-10.84 -0.57 0.44
-10.62 -0.53 0.48
-10.49 -0.50 0.50
-8.64 -0.37 0.80
-8.72 -0.35 0.79
-8.77 -0.29 0.78
-8.86 -0.25 0.76
-11.10 -0.16 0.41
-6.98 -0.08 1.06
-10.83 -0.10 0.45
-6.99 -0.01 1.06
-8.26 0.02 0.36
-8.02 0.04 0.39
-7.55 0.07 0.47
-10.06 0.07 0.49
-10.06 0.10 0.49
-10.09 0.12 0.49
-9.77 0.14 0.54
-9.64 0.16 0.56
-9.84 0.19 0.53
-9.69 0.23 0.55
-9.47 0.25 0.59
-8.84 0.26 0.69
-8.91 0.28 0.68
-8.92 0.30 0.68
-9.14 0.33 0.64
-9.24 0.35 0.62
-9.30 0.38 0.61
-9.23 0.40 0.63
-8.70 0.40 0.71
-9.16 0.44 0.64
-8.52 0.43 0.74
-9.05 0.50 0.65
-8.97 0.52 0.67
-7.96 0.52 0.83
-8.00 0.54 0.83
-7.94 0.57 0.84
-7.93 0.59 0.84
-7.88 0.61 0.85
-7.85 0.62 0.85
-7.98 0.65 0.83
-7.96 0.67 0.83
-7.95 0.69 0.83
-8.09 0.72 0.81
-8.14 0.75 0.80
-8.09 0.76 0.81
-8.14 0.79 0.80
-8.19 0.81 0.79
-8.17 0.83 0.79
-8.16 0.85 0.79
-8.34 0.89 0.76
-7.91 0.86 0.83
-8.01 0.89 0.82
-8.06 0.92 0.81
-8.35 0.99 0.76
-7.57 -1.07 0.47
-6.68 -0.64 0.62
-6.81 -0.59 0.60
-4.59 -0.43 0.97
-6.77 -0.54 0.61
-6.75 -0.52 0.61
-6.57 -0.48 0.64
-6.54 -0.46 0.65
-6.62 -0.44 0.63
-6.48 -0.41 0.66
-3.63 -0.27 1.13
-3.49 -0.25 1.16
-6.69 -0.36 0.62
-3.67 -0.23 1.13
-6.20 -0.30 0.70
-6.57 -0.29 0.64
-6.89 -0.28 0.59
-6.84 -0.25 0.59
-7.14 -0.24 0.54
-7.61 -0.22 0.47
-7.54 -0.20 0.48
-7.18 -0.17 0.54
-7.34 -0.15 0.51
-7.64 -0.13 0.46
-7.77 -0.10 0.44
-8.00 -0.08 0.40
-8.37 -0.06 0.34
-8.48 -0.03 0.32
-8.30 -0.00 0.35
-7.36 0.00 0.88
-9.09 0.04 0.58
-9.22 0.07 0.55
-9.79 0.14 0.45
-9.59 0.16 0.49
-8.62 0.23 0.66
-8.50 0.25 0.68
-8.59 0.27 0.66
-8.54 0.29 0.67
-8.94 0.34 0.60
-10.06 0.70 0.40
-10.20 0.76 0.37
-10.45 0.80 0.33
-7.93 0.67 0.77
-7.91 0.69 0.77
-7.93 0.71 0.77
-7.79 0.72 0.79
-7.76 0.73 0.80
-7.86 0.76 0.78
-7.89 0.78 0.77
-7.81 0.79 0.79
-7.93 0.83 0.76
-7.88 0.84 0.77
-7.81 0.85 0.78
-7.78 0.87 0.79
-7.69 0.88 0.80
-7.82 0.91 0.78
-6.78 1.18 0.95
-7.44 -1.01 0.41
-6.90 -0.64 0.51
-6.54 -0.55 0.57
-4.58 -0.41 0.91
-7.47 -0.32 0.40
-7.08 -0.28 0.47
-6.29 -0.22 0.61
-7.19 -0.21 0.45
