# .PCD v0.7 - Point Cloud Data file format
VERSION 0.7
FIELDS x y z
SIZE 4 4 4
TYPE F F F
COUNT 1 1 1
WIDTH 309
HEIGHT 1
VIEWPOINT 0 0 0 1 0 0 0
POINTS 309
DATA ASCII
-9.09 0.31 1.58
-9.16 0.38 1.47
-9.07 0.40 1.37
-8.78 0.41 1.40
-8.84 0.41 1.22
-8.84 0.32 1.16
-8.98 0.37 1.15
-9.00 0.42 1.14
-8.90 0.44 1.15
-8.86 0.48 1.16
-8.50 0.51 1.20
-8.49 0.57 0.94
-8.39 0.00 0.83
-8.28 0.05 0.84
-8.16 0.07 0.86
-8.21 0.09 0.85
-8.22 0.15 0.85
-8.31 0.20 0.84
-4.71 -0.10 1.38
-4.90 -0.72 1.05
-5.35 -0.47 0.98
-9.10 -0.05 0.57
-4.20 0.21 1.33
-4.55 0.24 1.27
-4.06 0.23 1.36
-4.82 0.08 1.18
-4.47 0.21 1.24
-4.92 -0.72 0.94
-4.77 -0.63 0.96
-4.37 -0.17 1.03
-8.24 -0.11 0.57
-4.75 0.18 1.15
-4.28 0.18 1.24
-4.34 0.19 1.22
-5.26 0.31 1.05
-4.61 0.29 1.17
-4.88 0.36 1.12
-2.68 -0.61 1.30
-4.51 0.22 1.14
-4.12 0.28 1.22
-5.04 0.40 1.04
-5.23 0.43 1.00
-7.24 0.72 0.59
-7.09 0.99 0.61
-5.13 0.82 1.00
-7.11 1.15 0.60
-6.95 -0.72 0.41
-8.08 -0.32 0.45
-7.43 0.02 0.42
-5.74 0.04 0.79
-7.33 0.09 0.45
-7.80 0.12 0.34
-4.83 0.11 0.98
-7.22 0.19 0.47
-6.69 0.19 0.58
-7.01 0.22 0.51
-4.87 0.21 0.97
-4.97 0.23 0.95
-5.13 0.25 0.91
-4.73 0.25 1.00
-4.73 0.26 1.00
-4.71 0.27 1.01
-4.49 0.27 1.05
-4.97 0.31 0.95
-4.97 0.33 0.95
-5.01 0.34 0.94
-5.07 0.36 0.93
-5.15 0.38 0.91
-5.46 0.41 0.84
-5.29 0.42 0.88
-5.52 0.45 0.83
-5.39 0.45 0.85
-5.18 0.45 0.90
-6.00 0.53 0.72
-5.50 0.50 0.83
-4.88 0.47 0.96
-6.35 0.61 0.64
-5.88 0.58 0.74
-5.36 0.58 0.86
-7.15 0.79 0.47
-6.85 0.78 0.53
-6.96 0.83 0.51
-6.76 0.82 0.55
-6.45 0.81 0.61
-5.50 0.71 0.82
-7.37 0.97 0.41
-7.39 0.99 0.41
-6.88 0.95 0.52
-7.10 0.99 0.47
-6.18 0.94 0.67
-5.48 0.89 0.82
-5.23 0.89 0.87
-4.00 -0.73 0.89
-3.78 -0.66 0.93
-4.76 -0.74 0.72
-4.43 -0.66 0.79
-4.51 -0.65 0.78
-4.26 -0.57 0.83
-4.52 -0.29 1.06
-7.73 -0.32 0.36
-7.54 -0.06 0.40
-7.83 -0.04 0.34
-3.80 -0.00 0.87
-6.49 0.08 0.56
-4.94 0.13 0.91
-4.78 0.25 0.94
-4.63 0.27 0.97
-5.31 0.40 0.82
-4.69 0.37 0.96
-4.88 0.41 0.91
-5.61 0.48 0.75
-4.88 0.44 0.91
-5.03 0.47 0.88
-7.41 0.79 0.33
-5.37 0.68 0.79
-2.89 -0.70 1.08
-5.11 -0.81 0.58
-7.06 0.16 0.35
-5.80 0.65 0.64
-6.64 0.77 0.43
-5.50 0.68 0.70
-5.78 0.90 0.63
-6.17 0.99 0.54
-5.72 0.96 0.64
-5.56 0.96 0.68
-5.32 0.94 0.73
-0.03 1.21 0.48
-0.78 -1.60 0.22
-1.91 -0.73 0.66
-1.65 0.90 0.63
-4.84 -0.69 1.06
-3.40 0.24 0.78
-2.40 0.79 0.65
-2.41 0.79 0.63
-1.19 -0.86 0.59
-1.71 1.01 0.59
-2.26 -0.64 0.60
-2.11 0.93 0.58
-3.12 0.21 0.60
-2.88 0.40 0.59
-1.83 0.85 0.54
-1.08 -0.92 0.56
-1.58 -0.86 0.54
-2.89 0.82 0.55
-2.50 0.94 0.54
-1.66 0.92 0.52
-2.78 0.53 0.51
-2.52 0.87 0.51
-2.93 0.26 0.49
-2.84 0.79 0.49
-2.35 0.62 0.48
-1.70 0.99 0.49
-1.66 1.02 0.49
-2.60 0.68 0.46
-2.36 0.76 0.47
-1.63 0.95 0.47
-2.71 0.58 0.44
-2.50 0.71 0.44
-2.32 0.81 0.45
-2.08 0.98 0.45
-1.66 1.01 0.46
-2.96 0.34 0.41
-2.62 0.69 0.42
-2.38 0.78 0.43
-2.03 0.73 0.43
-3.39 0.43 0.37
-2.57 0.53 0.40
-2.26 0.52 0.41
-2.67 0.79 0.39
-2.04 0.80 0.42
-1.94 0.83 0.42
-1.68 1.07 0.42
-3.26 0.49 0.34
-2.90 0.49 0.36
-3.26 0.68 0.34
-2.86 0.72 0.36
-2.80 0.77 0.36
-2.68 0.80 0.37
-1.94 0.91 0.40
-3.20 0.39 0.32
-2.86 0.56 0.34
-2.60 0.61 0.36
-2.33 0.68 0.37
-1.98 0.88 0.38
-1.94 0.91 0.38
-1.62 0.94 0.40
-2.11 -0.73 0.40
-3.23 0.39 0.29
-3.11 0.46 0.30
-2.90 0.49 0.31
-2.97 0.59 0.30
-2.81 0.62 0.32
-2.61 0.61 0.33
-2.66 0.71 0.33
-2.62 0.77 0.33
-2.28 0.71 0.35
-2.25 0.76 0.35
-2.29 0.86 0.35
-2.16 1.08 0.35
-1.91 0.88 0.37
-3.20 0.48 0.26
-2.81 0.62 0.29
-2.24 0.69 0.34
-2.26 0.84 0.33
-1.93 0.89 0.35
-1.62 0.85 0.38
-3.16 0.29 0.24
-3.08 0.37 0.25
-3.06 0.71 0.24
-2.86 0.72 0.26
-2.55 0.66 0.29
-2.48 0.69 0.30
-2.23 0.75 0.32
-2.13 0.81 0.32
-3.06 0.71 0.21
-2.92 0.74 0.22
-2.69 0.72 0.25
-2.39 0.79 0.28
-2.18 0.78 0.30
-2.19 0.86 0.30
-1.89 0.85 0.33
-2.93 -0.50 0.24
-2.66 0.71 0.23
-2.44 0.68 0.26
-2.35 0.69 0.27
-2.29 0.72 0.28
-2.32 0.88 0.26
-2.04 0.80 0.30
-1.85 0.96 0.30
-1.58 0.87 0.34
-1.87 -0.50 0.35
-2.36 0.63 0.26
-2.14 0.57 0.29
-2.23 0.82 0.26
-2.05 0.81 0.28
-1.92 0.82 0.29
-1.60 0.90 0.32
-2.43 0.67 0.22
-2.29 0.66 0.24
-2.25 0.84 0.23
-2.02 0.85 0.26
-1.69 0.73 0.32
-1.59 0.89 0.30
-0.94 -1.01 0.33
-1.92 -0.89 0.29
-2.26 0.64 0.23
-2.37 0.78 0.20
-2.21 0.74 0.23
-2.15 0.76 0.24
-2.13 0.81 0.23
-2.08 0.83 0.24
-1.98 0.81 0.25
-1.69 0.88 0.28
-1.08 -0.81 0.35
-1.19 -0.90 0.33
-2.27 0.71 0.21
-2.16 0.77 0.22
-2.12 0.80 0.22
-1.90 0.67 0.27
-1.94 0.84 0.24
-1.78 0.80 0.27
-1.62 0.94 0.27
-1.15 -1.50 0.22
-1.27 -1.50 0.22
-1.37 -1.03 0.29
-2.09 0.78 0.21
-1.90 0.68 0.25
-1.96 0.80 0.23
-1.86 0.76 0.25
-1.85 0.81 0.24
-1.93 0.98 0.20
-2.13 -0.57 0.24
-2.00 0.76 0.21
-1.91 0.74 0.23
-1.75 0.70 0.26
-1.76 0.83 0.24
-1.66 0.84 0.25
-1.70 1.00 0.22
-1.38 -0.77 0.31
-1.90 0.73 0.22
-1.82 0.71 0.23
-1.63 0.87 0.23
-1.32 -0.81 0.29
-1.41 -0.74 0.30
-1.71 -0.77 0.25
-1.75 -0.70 0.26
-1.80 0.54 0.25
-1.77 0.85 0.20
-1.59 0.89 0.22
-1.66 0.84 0.20
-1.52 0.93 0.20
-1.29 -0.80 0.27
-1.61 0.76 0.22
-1.31 -0.98 0.21
-1.58 -0.64 0.26
-0.87 -0.81 0.24
-1.03 -0.97 0.21
-1.15 -0.86 0.24
-0.94 -0.82 0.24
-1.30 -0.92 0.20
-1.37 -0.74 0.24
-1.54 -0.71 0.23
-0.94 -0.81 0.23
-1.05 -0.78 0.24
-0.95 -0.78 0.22
-1.05 -0.81 0.21
-1.05 -0.82 0.20
-1.08 -0.80 0.21
-1.24 -0.76 0.20
