# .PCD v0.7 - Point Cloud Data file format
VERSION 0.7
FIELDS x y z
SIZE 4 4 4
TYPE F F F
COUNT 1 1 1
WIDTH 2454
HEIGHT 1
VIEWPOINT 0 0 0 1 0 0 0
POINTS 2454
DATA ASCII
-1.06 -0.35 2.27
-15.97 1.25 1.53
-10.20 -1.10 1.67
-9.67 -0.91 1.69
-9.36 -0.83 1.70
-9.53 -0.81 1.65
-15.16 1.08 1.29
-1.76 -1.02 1.93
-12.16 0.09 1.26
-4.02 -0.79 1.77
-9.25 0.42 1.55
-12.53 0.68 1.32
-4.05 -0.94 1.74
-4.09 -0.82 1.73
-3.98 -0.75 1.74
-3.95 -0.73 1.75
-4.17 -0.69 1.73
-4.14 -0.67 1.73
-8.45 -0.58 1.44
-11.79 -0.01 1.14
-11.79 0.09 1.13
-11.73 0.12 1.14
-11.70 0.16 1.14
-12.02 0.19 1.12
-12.55 0.31 1.08
-12.50 0.34 1.08
-12.86 0.42 1.06
-9.75 -0.45 1.29
-12.37 0.05 1.20
-12.64 0.08 1.18
-12.97 0.11 1.15
-13.03 0.18 1.15
-12.88 0.20 1.16
-13.02 0.24 1.15
-13.29 0.27 1.13
-15.45 0.47 0.96
-15.72 0.51 0.94
-13.79 0.62 1.09
-4.34 -0.92 1.64
-4.40 -0.90 1.64
-4.29 -0.81 1.65
-4.34 -0.79 1.64
-4.03 -0.74 1.67
-4.11 -0.73 1.66
-4.15 -0.72 1.66
-4.16 -0.70 1.66
-3.98 -0.65 1.67
-4.19 -0.63 1.65
-4.13 -0.61 1.66
-4.26 -0.60 1.65
-8.96 -0.44 1.47
-3.68 -0.11 1.89
-7.84 -0.18 1.56
-11.55 -0.01 1.00
-11.73 0.02 0.99
-13.04 0.21 1.08
-12.85 0.23 1.10
-13.16 0.37 1.07
-13.34 0.40 1.06
-13.50 0.57 1.04
-13.95 0.66 1.00
-14.16 0.70 0.99
-5.43 -1.06 1.52
-4.24 -0.82 1.62
-4.25 -0.79 1.62
-4.23 -0.77 1.62
-4.20 -0.74 1.62
-4.27 -0.67 1.61
-4.33 -0.65 1.61
-4.27 -0.62 1.61
-9.17 -0.62 1.20
-9.33 -0.54 1.19
-11.55 -0.25 1.00
-11.08 -0.21 1.04
-11.37 -0.18 1.02
-11.50 -0.11 1.01
-11.52 -0.08 1.01
-11.52 -0.05 1.01
-12.72 0.05 1.03
-12.51 0.08 1.05
-12.66 0.11 1.03
-12.52 0.14 1.05
-12.67 0.17 1.03
-12.86 0.20 1.01
-12.73 0.23 1.03
-12.84 0.27 1.01
-12.69 0.29 1.03
-13.08 0.33 0.99
-12.92 0.36 1.01
-13.10 0.40 0.99
-13.16 0.46 0.99
-12.97 0.49 1.00
-13.62 0.54 0.94
-13.65 0.58 0.94
-13.66 0.61 0.94
-13.76 0.65 0.93
-13.92 0.69 0.92
-14.04 0.73 0.90
-7.53 0.41 1.49
-15.76 0.89 0.75
-14.31 0.88 0.88
-13.98 0.89 0.91
-14.20 0.94 0.89
-4.64 -1.13 1.54
-4.97 -1.17 1.50
-4.91 -0.92 1.51
-6.11 -1.05 1.40
-4.77 -0.87 1.52
-4.25 -0.79 1.57
-4.45 -0.80 1.55
-4.41 -0.78 1.56
-4.28 -0.73 1.57
-4.03 -0.69 1.59
-4.07 -0.68 1.59
-4.12 -0.67 1.58
-4.30 -0.67 1.57
-4.14 -0.62 1.58
-4.03 -0.58 1.59
-4.12 -0.57 1.58
-3.78 -0.50 1.62
-4.10 -0.51 1.59
-4.16 -0.50 1.58
-3.94 -0.45 1.60
-4.04 -0.44 1.59
-3.84 -0.40 1.61
-9.25 -0.54 1.12
-8.98 -0.50 1.15
-12.62 -0.13 1.04
-12.32 -0.07 1.06
-12.71 -0.04 1.03
-12.59 -0.01 1.04
-12.28 0.02 1.07
-10.95 0.02 0.89
-11.22 0.05 0.87
-11.41 0.09 0.85
-11.48 0.12 0.84
-11.44 0.15 0.85
-11.48 0.19 0.84
-11.54 0.22 0.84
-11.26 0.25 0.86
-11.70 0.29 0.82
-11.87 0.33 0.80
-13.04 0.43 0.92
-12.94 0.45 0.93
-13.01 0.49 0.93
-13.12 0.52 0.92
-13.37 0.56 0.89
-13.52 0.60 0.88
-13.70 0.64 0.86
-13.81 0.68 0.85
-13.80 0.71 0.85
-13.86 0.75 0.84
-14.02 0.79 0.83
-14.16 0.84 0.81
-13.84 0.85 0.84
-13.88 0.89 0.84
-14.26 0.94 0.80
-13.93 0.96 0.83
-14.32 1.02 0.80
-13.88 1.05 0.84
-14.62 1.18 0.77
-4.85 -1.16 1.48
-4.72 -1.12 1.49
-5.00 -1.04 1.46
-4.53 -0.91 1.51
-4.67 -0.91 1.50
-4.57 -0.88 1.50
-4.29 -0.83 1.53
-4.43 -0.83 1.52
-4.33 -0.80 1.53
-4.30 -0.78 1.53
-4.25 -0.74 1.54
-4.32 -0.73 1.53
-4.34 -0.72 1.53
-4.14 -0.65 1.55
-4.05 -0.60 1.56
-3.85 -0.56 1.57
-3.85 -0.55 1.57
-3.94 -0.51 1.57
-3.83 -0.49 1.58
-3.84 -0.44 1.58
-3.79 -0.42 1.58
-8.90 -0.52 1.09
-8.96 -0.36 1.08
-9.10 -0.31 1.07
-6.43 -0.16 1.33
-11.23 -0.21 0.87
-11.27 -0.18 0.86
-11.26 -0.14 0.86
-11.15 -0.11 0.87
-10.91 -0.08 0.90
-12.23 0.05 0.92
-12.09 0.08 0.94
-12.10 0.10 0.94
-11.97 0.13 0.95
-12.07 0.16 0.94
-12.23 0.19 0.92
-12.30 0.22 0.92
-12.41 0.26 0.90
-12.38 0.28 0.91
-12.53 0.32 0.89
-12.44 0.35 0.90
-12.59 0.38 0.89
-12.59 0.41 0.88
-12.96 0.46 0.85
-12.70 0.48 0.87
-12.91 0.51 0.85
-13.22 0.56 0.82
-13.23 0.59 0.82
-13.38 0.63 0.80
-13.16 0.65 0.82
-13.54 0.70 0.79
-13.62 0.74 0.78
-13.75 0.78 0.76
-13.77 0.81 0.76
-14.03 0.86 0.73
-14.30 0.91 0.71
-14.59 0.97 0.68
-14.16 0.97 0.72
-14.18 1.01 0.72
-14.17 1.08 0.72
-14.46 1.13 0.69
-4.32 -1.23 1.48
-4.25 -1.17 1.49
-4.33 -1.15 1.48
-4.51 -1.16 1.46
-4.74 -1.18 1.44
-4.89 -1.19 1.42
-4.80 -1.16 1.43
-5.05 -1.18 1.41
-4.52 -1.08 1.46
-4.88 -1.12 1.42
-4.78 -1.08 1.43
-4.79 -1.07 1.43
-4.75 -1.04 1.44
-4.73 -1.02 1.44
-5.05 -1.05 1.41
-4.51 -0.96 1.46
-4.61 -0.96 1.45
-4.26 -0.89 1.49
-4.34 -0.89 1.48
-4.46 -0.89 1.47
-4.62 -0.89 1.45
-4.44 -0.85 1.47
-4.57 -0.85 1.46
-4.43 -0.81 1.47
-4.31 -0.79 1.48
-4.39 -0.78 1.48
-4.31 -0.75 1.48
-4.20 -0.72 1.50
-4.12 -0.70 1.50
-3.85 -0.66 1.53
-4.41 -0.70 1.47
-3.89 -0.63 1.53
-4.07 -0.63 1.51
-3.76 -0.58 1.54
-3.82 -0.58 1.53
-3.79 -0.56 1.54
-3.98 -0.56 1.52
-3.96 -0.54 1.52
-3.77 -0.51 1.54
-4.03 -0.52 1.51
-4.33 -0.53 1.48
-3.96 -0.48 1.52
-3.78 -0.45 1.54
-3.93 -0.45 1.52
-3.60 -0.41 1.56
-3.64 -0.40 1.55
-3.72 -0.39 1.54
-3.72 -0.37 1.54
-3.70 -0.36 1.55
-3.70 -0.34 1.55
-3.68 -0.33 1.55
-3.72 -0.32 1.54
-3.76 -0.30 1.54
-3.61 -0.28 1.56
-9.19 -0.51 0.99
-9.20 -0.46 0.99
-7.40 -0.22 1.42
-9.79 -0.24 1.17
-12.20 -0.16 0.93
-12.13 -0.13 0.93
-12.03 -0.10 0.95
-12.14 -0.07 0.93
-12.32 -0.04 0.92
-11.97 -0.01 0.95
-12.11 0.02 0.94
-10.90 -0.01 0.72
-11.08 0.02 0.70
-10.88 0.05 0.73
-11.08 0.15 0.70
-7.88 0.16 1.05
-7.84 0.21 1.05
-12.63 0.63 0.53
-12.43 0.66 0.55
-13.80 0.75 0.67
-13.54 0.77 0.70
-14.06 0.83 0.64
-15.27 1.23 0.50
-9.58 -1.50 0.87
-9.73 -1.32 0.85
-10.03 -0.99 0.82
-7.07 -0.64 1.14
-10.62 -0.82 0.76
-8.61 -0.59 0.97
-9.38 -0.60 0.89
-9.02 -0.53 0.93
-8.88 -0.50 0.95
-10.04 -0.43 0.82
-9.77 -0.39 0.85
-11.33 -0.31 0.68
-11.09 -0.27 0.70
-11.13 -0.21 0.70
-10.83 -0.17 0.73
-10.66 -0.14 0.75
-10.81 -0.11 0.73
-10.80 -0.08 0.74
-11.16 -0.04 0.70
-11.87 0.04 0.80
-12.16 0.08 0.77
-12.20 0.10 0.76
-12.12 0.13 0.77
-12.10 0.19 0.77
-11.91 0.22 0.79
-12.27 0.25 0.75
-12.15 0.28 0.77
-12.23 0.31 0.76
-12.56 0.35 0.72
-12.67 0.38 0.71
-12.55 0.41 0.72
-8.34 0.31 1.20
-12.75 0.51 0.69
-12.87 0.54 0.68
-13.07 0.58 0.66
-12.85 0.61 0.68
-12.93 0.64 0.67
-13.32 0.69 0.63
-13.44 0.76 0.61
-13.41 0.79 0.62
-13.73 0.84 0.58
-14.15 0.94 0.53
-14.04 0.96 0.54
-14.12 1.00 0.53
-14.36 1.12 0.50
-15.45 1.36 0.38
-15.45 1.47 0.37
-4.77 -1.26 1.34
-4.46 -1.19 1.37
-4.37 -1.06 1.38
-4.11 -0.98 1.41
-4.30 -0.95 1.39
-4.84 -1.00 1.33
-4.48 -0.94 1.37
-5.03 -1.00 1.31
-4.80 -0.95 1.33
-4.52 -0.89 1.37
-4.77 -0.89 1.34
-4.93 -0.89 1.32
-4.70 -0.85 1.35
-4.87 -0.85 1.33
-4.69 -0.81 1.35
-4.76 -0.80 1.34
-4.66 -0.77 1.35
-4.60 -0.75 1.36
-9.58 -1.25 0.78
-4.22 -0.68 1.40
-4.13 -0.65 1.41
-4.02 -0.63 1.43
-3.88 -0.60 1.44
-3.87 -0.58 1.44
-3.87 -0.57 1.44
-3.96 -0.56 1.43
-3.60 -0.51 1.47
-3.61 -0.50 1.47
-4.41 -0.55 1.38
-4.23 -0.52 1.40
-3.85 -0.48 1.45
-4.36 -0.50 1.39
-7.38 -0.69 1.04
-3.80 -0.43 1.45
-3.94 -0.42 1.44
-4.56 -0.44 1.36
-4.00 -0.39 1.43
-3.71 -0.36 1.46
-9.94 -0.49 1.03
-6.86 -0.31 1.38
-6.83 -0.27 1.38
-9.89 -0.34 1.03
-7.69 -0.25 1.28
-6.96 -0.21 1.37
-7.27 -0.20 1.33
-7.49 -0.19 1.31
-9.65 -0.20 1.06
-7.75 -0.14 1.28
-7.33 -0.10 1.33
-7.67 -0.08 1.29
-11.96 -0.10 0.79
-11.91 -0.04 0.80
-11.91 -0.01 0.80
-11.88 0.02 0.80
-7.84 -0.01 0.92
-7.79 0.02 0.92
-11.91 0.13 0.72
-11.77 0.16 0.73
-11.69 0.19 0.74
-12.09 0.22 0.69
-12.17 0.25 0.68
-12.40 0.29 0.66
-12.24 0.31 0.67
-12.38 0.34 0.66
-12.55 0.38 0.64
-8.59 0.28 1.12
-8.30 0.29 1.15
-12.81 0.48 0.60
-13.03 0.52 0.58
-12.95 0.55 0.59
-13.01 0.58 0.58
-13.07 0.62 0.57
-13.24 0.65 0.55
-13.35 0.69 0.54
-13.70 0.74 0.49
-14.06 0.86 0.45
-14.45 0.92 0.40
-15.17 1.00 0.31
-14.70 1.01 0.37
-14.19 1.01 0.43
-14.21 1.04 0.43
-14.18 1.08 0.43
-14.70 1.15 0.36
-15.37 1.28 0.28
-14.64 1.25 0.37
-15.02 1.32 0.32
-15.17 1.37 0.31
-15.16 1.41 0.31
-15.33 1.46 0.29
-0.97 -1.29 1.75
-4.14 -1.24 1.36
-3.98 -1.19 1.38
-4.00 -1.18 1.38
-4.21 -1.19 1.36
-4.01 -1.14 1.38
-4.11 -1.14 1.37
-4.27 -1.15 1.35
-4.12 -1.09 1.37
-4.19 -1.09 1.36
-3.78 -0.99 1.41
-4.35 -1.07 1.34
-4.36 -1.05 1.34
-4.49 -1.06 1.32
-4.25 -1.00 1.35
-4.42 -1.01 1.33
-4.33 -0.98 1.34
-4.32 -0.96 1.35
-4.70 -1.00 1.30
-4.47 -0.95 1.33
-5.03 -1.01 1.26
-5.08 -1.00 1.25
-4.83 -0.95 1.28
-4.74 -0.92 1.29
-4.78 -0.91 1.29
-5.18 -0.94 1.24
-4.68 -0.86 1.30
-4.59 -0.83 1.31
-4.97 -0.86 1.27
-4.78 -0.82 1.29
-4.77 -0.80 1.29
-4.79 -0.79 1.29
-4.51 -0.74 1.32
-4.06 -0.68 1.38
-4.74 -0.73 1.30
-4.36 -0.67 1.34
-4.30 -0.65 1.35
-4.53 -0.66 1.32
-4.15 -0.61 1.37
-4.42 -0.62 1.33
-4.27 -0.59 1.35
-4.52 -0.59 1.32
-4.52 -0.57 1.32
-4.37 -0.54 1.34
-4.32 -0.52 1.35
-4.25 -0.50 1.36
-3.40 -0.42 1.46
-3.64 -0.43 1.43
-3.49 -0.40 1.45
-3.75 -0.41 1.42
-3.64 -0.38 1.43
-8.46 -0.66 0.84
-3.67 -0.36 1.43
-3.48 -0.33 1.45
-3.63 -0.32 1.43
-8.77 -0.57 0.80
-8.45 -0.53 0.84
-3.49 -0.27 1.45
-8.66 -0.49 0.82
-9.38 -0.46 0.73
-9.63 -0.44 0.70
-9.16 -0.40 0.76
-9.38 -0.38 0.73
-9.17 -0.34 0.75
-9.36 -0.32 0.73
-9.73 -0.30 0.69
-9.55 -0.27 0.71
-10.41 -0.26 0.60
-10.86 -0.24 0.55
-5.97 -0.13 1.14
-10.55 -0.17 0.59
-10.77 -0.14 0.56
-10.71 -0.11 0.57
-8.38 -0.06 0.85
-8.47 -0.04 0.84
-11.98 0.05 0.62
-8.93 0.05 1.01
-8.95 0.08 1.01
-9.02 0.12 1.00
-8.91 0.14 1.02
-8.84 0.16 1.03
-8.50 0.20 1.07
-8.80 0.22 1.03
-8.70 0.24 1.04
-9.05 0.30 1.00
-9.14 0.32 0.98
-8.80 0.33 1.03
-8.55 0.36 1.06
-10.07 0.45 0.86
-13.23 0.62 0.45
-6.14 0.32 1.37
-13.59 0.74 0.41
-10.02 0.59 0.87
-9.63 0.80 0.91
-9.97 0.95 0.87
-4.02 -1.27 1.33
-3.97 -1.24 1.34
-3.90 -1.21 1.35
-4.22 -1.24 1.30
-3.96 -1.18 1.34
-3.92 -1.15 1.35
-3.92 -1.14 1.35
-4.16 -1.17 1.31
-4.18 -1.15 1.31
-3.94 -1.10 1.34
-2.02 -0.76 1.59
-4.05 -1.08 1.33
-4.32 -1.11 1.29
-4.02 -1.05 1.33
-4.70 -1.14 1.25
-4.11 -1.03 1.32
-4.30 -1.04 1.30
-4.20 -1.01 1.31
-4.22 -1.00 1.31
-4.09 -0.96 1.33
-4.30 -0.98 1.30
-4.12 -0.94 1.32
-4.34 -0.95 1.29
-4.75 -0.99 1.24
-4.46 -0.93 1.28
-4.87 -0.97 1.22
-4.95 -0.96 1.21
-5.05 -0.96 1.20
-4.81 -0.91 1.23
-5.05 -0.92 1.20
-4.95 -0.89 1.21
-5.00 -0.88 1.21
-4.96 -0.86 1.21
-4.93 -0.84 1.22
-5.00 -0.83 1.21
-5.03 -0.81 1.21
-4.75 -0.77 1.24
-5.23 -0.80 1.18
-5.09 -0.76 1.20
-5.12 -0.75 1.19
-3.84 -0.61 1.36
-4.46 -0.65 1.28
-4.71 -0.66 1.25
-3.84 -0.56 1.36
-4.50 -0.61 1.27
-4.42 -0.58 1.28
-4.61 -0.58 1.26
-4.46 -0.55 1.28
-4.57 -0.54 1.27
-4.66 -0.53 1.25
-4.73 -0.52 1.25
-4.04 -0.46 1.33
-3.98 -0.44 1.34
-3.76 -0.41 1.37
-3.62 -0.38 1.39
-3.61 -0.37 1.39
-3.41 -0.34 1.42
-3.43 -0.33 1.41
-3.56 -0.32 1.40
-3.48 -0.30 1.41
-3.53 -0.29 1.40
-3.45 -0.27 1.41
-3.62 -0.27 1.39
-3.50 -0.25 1.40
-3.46 -0.23 1.41
-8.07 -0.39 0.81
-8.34 -0.37 0.78
-8.78 -0.36 0.72
-8.17 -0.31 0.80
-9.02 -0.31 0.69
-8.69 -0.28 0.73
-10.10 -0.28 0.55
-10.14 -0.25 0.54
-10.43 -0.23 0.51
-11.70 -0.12 0.66
-7.59 -0.06 1.19
-11.80 -0.04 0.64
-11.72 -0.01 0.65
-7.86 -0.01 0.76
-7.67 0.02 0.79
-7.72 0.04 0.78
-7.55 0.06 0.81
-7.84 0.09 0.77
-7.84 0.11 0.77
-7.96 0.14 0.75
-6.14 0.14 1.00
-8.27 0.20 0.71
-9.27 0.24 0.57
-9.06 0.26 0.60
-8.92 0.29 0.95
-9.09 0.32 0.93
-9.77 0.37 0.83
-10.20 0.41 0.77
-9.84 0.42 0.82
-10.00 0.45 0.80
-10.12 0.48 0.78
-9.98 0.49 0.80
-10.12 0.53 0.78
-10.36 0.56 0.75
-10.02 0.57 0.80
-10.16 0.60 0.78
-10.04 0.62 0.79
-9.59 0.61 0.85
-9.22 0.61 0.90
-7.39 0.53 1.15
-6.95 0.51 1.21
-9.16 0.70 0.91
-9.45 0.79 0.87
-9.86 1.04 0.81
-7.11 0.79 1.19
-10.54 1.24 0.71
-10.67 1.33 0.69
-3.78 -1.25 1.32
-3.95 -1.27 1.29
-3.98 -1.26 1.29
-3.84 -1.21 1.31
-3.99 -1.21 1.29
-4.00 -1.20 1.29
-3.77 -1.14 1.32
-3.86 -1.14 1.31
-4.05 -1.16 1.28
-3.85 -1.11 1.31
-3.88 -1.10 1.30
-4.90 -1.26 1.17
-4.49 -1.17 1.22
-4.12 -1.09 1.27
-3.84 -1.03 1.31
-4.17 -1.07 1.27
-3.84 -1.00 1.31
-4.25 -1.05 1.26
-4.19 -1.02 1.26
-4.00 -0.98 1.29
-4.17 -0.99 1.27
-4.18 -0.97 1.27
-4.14 -0.95 1.27
-4.30 -0.96 1.25
-4.13 -0.92 1.27
-4.01 -0.89 1.29
-4.53 -0.94 1.22
-4.67 -0.94 1.20
-4.75 -0.94 1.19
-4.27 -0.86 1.26
-4.43 -0.86 1.23
-4.76 -0.89 1.19
-4.79 -0.87 1.18
-4.76 -0.85 1.19
-4.94 -0.86 1.16
-5.05 -0.85 1.15
-4.93 -0.82 1.17
-4.89 -0.80 1.17
-5.02 -0.79 1.15
-4.65 -0.74 1.20
-4.62 -0.72 1.21
-3.94 -0.63 1.30
-4.71 -0.69 1.20
-4.09 -0.62 1.28
-4.29 -0.62 1.25
-4.59 -0.63 1.21
-4.45 -0.60 1.23
-4.76 -0.61 1.19
-4.40 -0.56 1.24
-4.40 -0.55 1.24
-4.58 -0.54 1.21
-4.14 -0.49 1.27
-5.12 -0.55 1.14
-4.71 -0.50 1.20
-3.68 -0.42 1.34
-3.27 -0.37 1.39
-8.21 -0.67 0.72
-3.38 -0.35 1.38
-3.50 -0.35 1.36
-3.45 -0.33 1.37
-3.45 -0.31 1.37
-3.39 -0.30 1.38
-3.54 -0.29 1.36
-3.46 -0.27 1.37
-3.46 -0.26 1.37
-3.50 -0.25 1.36
-8.95 -0.45 0.62
-10.23 -0.47 0.44
-10.45 -0.44 0.41
-8.48 -0.35 0.68
-8.48 -0.32 0.68
-7.68 -0.27 0.79
-7.75 -0.25 0.78
-7.76 -0.23 0.78
-10.48 -0.26 0.41
-7.66 -0.18 0.79
-7.60 -0.15 0.80
-10.34 -0.17 0.43
-10.46 -0.14 0.41
-7.73 -0.08 0.78
-7.69 -0.06 0.79
-7.89 -0.03 0.76
-11.76 0.07 0.47
-8.85 0.08 0.89
-8.67 0.09 0.92
-8.68 0.14 0.91
-8.88 0.18 0.88
-8.83 0.22 0.89
-8.95 0.25 0.87
-9.09 0.28 0.85
-9.46 0.33 0.80
-9.62 0.38 0.78
-9.97 0.45 0.72
-9.88 0.46 0.74
-6.77 0.34 1.19
-10.19 0.55 0.69
-9.42 0.56 0.80
-9.30 0.60 0.82
-6.93 0.46 1.16
-9.25 0.64 0.83
-6.80 0.51 1.18
-6.96 0.55 1.16
-6.75 0.57 1.18
-6.77 0.59 1.18
-6.72 0.60 1.19
-6.86 0.64 1.17
-6.90 0.68 1.16
-6.93 0.72 1.16
-6.92 0.73 1.16
-10.52 1.13 0.63
-10.48 1.18 0.64
-7.13 0.84 1.12
-10.47 1.28 0.64
-10.98 1.37 0.56
-10.80 1.38 0.59
-10.63 1.41 0.61
-10.45 1.43 0.64
-3.73 -1.36 1.27
-3.80 -1.32 1.26
-3.86 -1.27 1.25
-3.93 -1.25 1.24
-3.95 -1.23 1.24
-3.86 -1.19 1.25
-3.82 -1.17 1.26
-3.84 -1.14 1.26
-3.97 -1.13 1.24
-3.90 -1.09 1.25
-4.04 -1.10 1.23
-4.13 -1.10 1.22
-4.20 -1.08 1.21
-5.92 -1.32 0.96
-4.26 -1.02 1.20
-4.45 -1.04 1.17
-4.39 -1.01 1.18
-4.31 -0.96 1.19
-4.27 -0.93 1.20
-4.44 -0.92 1.18
-4.43 -0.90 1.18
-4.98 -0.95 1.10
-5.21 -0.95 1.06
-4.82 -0.86 1.12
-5.03 -0.85 1.09
-4.71 -0.80 1.14
-4.79 -0.79 1.13
-4.61 -0.75 1.15
-4.54 -0.73 1.16
-4.48 -0.69 1.17
-4.27 -0.65 1.20
-4.30 -0.64 1.20
-4.45 -0.63 1.18
-4.45 -0.62 1.18
-4.33 -0.58 1.19
-4.27 -0.54 1.20
-4.51 -0.54 1.17
-4.79 -0.54 1.13
-4.81 -0.53 1.12
-3.53 -0.42 1.31
-3.80 -0.42 1.27
-4.46 -0.45 1.18
-3.35 -0.37 1.34
-3.47 -0.36 1.32
-3.58 -0.35 1.30
-3.65 -0.34 1.29
-4.18 -0.36 1.22
-3.39 -0.30 1.33
-3.54 -0.29 1.31
-3.48 -0.28 1.32
-3.61 -0.27 1.30
-3.51 -0.25 1.31
-3.44 -0.23 1.32
-3.62 -0.22 1.30
-9.11 -0.25 0.86
-10.19 -0.25 0.70
-11.49 -0.26 0.51
-11.32 -0.20 0.54
-11.45 -0.15 0.52
-11.80 -0.12 0.47
-11.70 -0.10 0.48
-11.72 -0.04 0.48
-11.64 0.02 0.49
-9.71 -0.01 0.33
-9.34 0.02 0.38
-9.35 0.04 0.38
-9.14 0.07 0.41
-9.45 0.10 0.36
-9.20 0.13 0.40
-9.51 0.16 0.35
-8.70 0.25 0.48
-8.74 0.28 0.47
-9.26 0.35 0.39
-8.47 0.36 0.51
-8.66 0.44 0.48
-8.49 0.46 0.50
-9.45 0.49 0.73
-9.41 0.51 0.74
-9.49 0.61 0.72
-9.77 0.77 0.68
-10.12 0.82 0.62
-10.62 1.06 0.54
-10.83 1.19 0.51
-10.71 1.20 0.53
-10.75 1.24 0.52
-4.22 -0.95 1.16
-6.15 -1.12 0.86
-4.26 -0.79 1.15
-4.46 -0.80 1.12
-4.64 -0.80 1.10
-8.98 -0.99 0.44
-3.38 -0.48 1.29
-9.08 -0.92 0.42
-8.82 -0.87 0.46
-9.09 -0.86 0.42
-9.12 -0.84 0.41
-9.19 -0.82 0.41
-9.08 -0.78 0.42
-9.09 -0.75 0.42
-8.34 -0.68 0.53
-8.80 -0.68 0.47
-8.72 -0.65 0.48
-9.40 -0.66 0.37
-8.70 -0.60 0.48
-8.20 -0.54 0.56
-9.21 -0.57 0.40
-9.64 -0.56 0.34
-8.96 -0.50 0.44
-9.02 -0.48 0.43
-9.12 -0.45 0.42
-9.47 -0.44 0.36
-9.42 -0.41 0.37
-9.08 -0.37 0.42
-9.03 -0.34 0.43
-9.55 -0.33 0.35
-9.40 -0.21 0.37
-8.41 -0.09 0.52
-10.07 0.06 0.56
-9.98 0.18 0.57
-10.98 0.23 0.41
-10.33 0.24 0.51
-9.42 0.24 0.66
-9.86 0.27 0.59
-9.23 0.28 0.69
-9.37 0.31 0.67
-9.39 0.33 0.66
-9.25 0.35 0.68
-9.90 0.40 0.58
-9.81 0.42 0.59
-9.67 0.43 0.61
-10.04 0.47 0.56
-9.84 0.49 0.59
-9.59 0.50 0.63
-9.66 0.53 0.62
-9.92 0.56 0.57
-9.77 0.58 0.60
-6.83 0.42 1.07
-9.88 0.63 0.58
-9.93 0.66 0.57
-9.72 0.67 0.60
-9.60 0.69 0.62
-9.61 0.71 0.62
-9.91 0.75 0.57
-6.44 0.51 1.13
-10.17 0.82 0.53
-10.00 0.83 0.56
-9.94 0.85 0.56
-10.20 0.90 0.52
-10.23 0.93 0.52
-9.98 0.93 0.56
-9.87 0.94 0.57
-9.61 0.94 0.61
-9.93 1.00 0.56
-10.59 1.09 0.46
-10.53 1.11 0.47
-11.15 1.20 0.37
-10.62 1.17 0.45
-10.80 1.22 0.42
-7.02 0.81 1.03
-10.94 1.29 0.40
-10.89 1.31 0.40
-10.98 1.34 0.39
-10.31 1.29 0.50
-11.04 1.41 0.38
-10.52 1.37 0.46
-10.64 1.41 0.44
-10.82 1.46 0.41
-10.41 1.43 0.48
-10.40 1.45 0.48
-10.95 1.56 0.39
-3.85 -1.35 1.15
-4.25 -1.41 1.09
-3.78 -1.30 1.16
-3.97 -1.32 1.13
-3.96 -1.31 1.14
-4.91 -1.48 0.98
-3.66 -1.22 1.19
-3.91 -1.25 1.15
-4.04 -1.26 1.12
-4.28 -1.27 1.09
-4.25 -1.25 1.09
-3.79 -1.15 1.17
-4.24 -1.22 1.09
-5.72 -1.46 0.85
-5.86 -1.47 0.83
-4.91 -1.28 0.99
-4.31 -1.16 1.08
-4.79 -1.23 1.01
-5.04 -1.25 0.97
-4.46 -1.14 1.06
-4.55 -1.14 1.04
-4.76 -1.15 1.01
-4.61 -1.11 1.04
-4.63 -1.10 1.03
-4.74 -1.10 1.02
-4.64 -1.06 1.03
-4.57 -1.04 1.04
-4.46 -1.00 1.06
-4.42 -0.98 1.07
-4.24 -0.94 1.10
-4.71 -0.99 1.02
-4.55 -0.95 1.05
-4.16 -0.88 1.11
-4.43 -0.90 1.07
-4.80 -0.93 1.01
-4.71 -0.90 1.02
-4.71 -0.88 1.02
-4.34 -0.82 1.08
-4.35 -0.81 1.08
-4.35 -0.79 1.08
-4.37 -0.78 1.08
-4.66 -0.79 1.03
-4.55 -0.76 1.05
-4.57 -0.75 1.05
-4.55 -0.73 1.05
-4.64 -0.72 1.04
-4.61 -0.70 1.04
-4.89 -0.71 1.00
-4.58 -0.67 1.05
-4.76 -0.66 1.02
-4.59 -0.63 1.04
-4.54 -0.61 1.05
-4.23 -0.57 1.10
-4.37 -0.56 1.08
-4.50 -0.56 1.06
-4.41 -0.53 1.07
-4.53 -0.53 1.05
-4.45 -0.50 1.07
-4.51 -0.49 1.06
-4.61 -0.48 1.04
-4.56 -0.46 1.05
-4.84 -0.46 1.00
-5.03 -0.46 0.97
-8.99 -0.67 0.34
-9.18 -0.45 0.70
-8.95 -0.42 0.74
-9.45 -0.42 0.66
-10.02 -0.42 0.57
-9.85 -0.39 0.59
-9.85 -0.37 0.59
-9.86 -0.34 0.59
-10.66 -0.34 0.46
-10.67 -0.32 0.46
-10.36 -0.28 0.51
-9.91 -0.25 0.58
-10.25 -0.23 0.53
-10.66 -0.22 0.46
-11.00 -0.20 0.41
-11.39 -0.18 0.35
-11.15 -0.15 0.39
-6.65 -0.07 1.10
-11.41 -0.09 0.34
-11.12 -0.06 0.39
-3.56 -0.00 1.16
-3.66 0.01 1.14
-3.60 0.03 1.15
-10.53 0.14 0.40
-10.69 0.17 0.37
-10.02 0.21 0.48
-9.24 0.21 0.62
-9.06 0.23 0.65
-9.16 0.25 0.63
-8.95 0.27 0.66
-9.14 0.30 0.63
-9.66 0.34 0.54
-9.61 0.36 0.55
-10.02 0.40 0.48
-9.91 0.42 0.50
-9.98 0.45 0.49
-9.93 0.47 0.50
-9.99 0.49 0.49
-10.05 0.52 0.48
-6.25 0.34 1.11
-6.15 0.35 1.13
-6.19 0.37 1.12
-9.51 0.58 0.56
-6.52 0.42 1.07
-9.74 0.65 0.52
-9.77 0.67 0.52
-9.56 0.68 0.55
-9.55 0.70 0.56
-9.45 0.72 0.57
-9.54 0.75 0.56
-9.64 0.78 0.54
-9.66 0.81 0.53
-9.61 0.83 0.54
-9.93 0.88 0.49
-6.77 0.62 1.02
-6.82 0.64 1.01
-9.62 0.92 0.54
-6.79 0.67 1.02
-6.98 0.71 0.98
-9.76 1.00 0.51
-9.90 1.04 0.49
-10.77 1.16 0.34
-10.42 1.15 0.40
-10.80 1.21 0.34
-10.56 1.21 0.37
-10.26 1.21 0.43
-6.66 0.81 1.03
-10.76 1.34 0.34
-10.66 1.36 0.35
-6.05 0.79 1.13
-6.62 0.90 1.04
-10.23 1.40 0.43
-6.27 0.88 1.09
-9.93 1.41 0.47
-6.66 0.97 1.03
-6.14 0.91 1.11
-6.33 0.96 1.08
-1.73 -1.23 1.46
-3.80 -1.38 1.11
-3.86 -1.38 1.10
-3.84 -1.36 1.11
-3.88 -1.35 1.10
-3.87 -1.33 1.10
-3.80 -1.30 1.11
-5.75 -1.68 0.78
-3.95 -1.28 1.09
-5.84 -1.64 0.77
-4.34 -1.33 1.02
-6.00 -1.63 0.74
-4.29 -1.29 1.03
-4.18 -1.25 1.05
-4.54 -1.30 0.99
-5.70 -1.50 0.79
-4.24 -1.21 1.04
-5.98 -1.51 0.75
-4.51 -1.23 1.00
-4.58 -1.22 0.99
-4.27 -1.15 1.04
-4.59 -1.19 0.99
-5.88 -1.39 0.77
-4.59 -1.16 0.98
-4.29 -1.09 1.04
-4.60 -1.12 0.98
-4.25 -1.05 1.04
-4.22 -1.03 1.05
-4.24 -1.02 1.05
-4.39 -1.02 1.02
-5.68 -1.20 0.80
-4.45 -1.00 1.01
-4.33 -0.96 1.03
-4.88 -1.03 0.94
-4.14 -0.91 1.06
-4.36 -0.92 1.03
-4.71 -0.95 0.97
-4.58 -0.92 0.99
-4.67 -0.91 0.98
-4.83 -0.92 0.95
-4.79 -0.89 0.95
-4.79 -0.87 0.95
-4.93 -0.87 0.93
-4.87 -0.85 0.94
-5.01 -0.85 0.92
-4.66 -0.79 0.98
-4.86 -0.79 0.94
-4.80 -0.77 0.95
-4.84 -0.76 0.95
-4.59 -0.71 0.99
-4.68 -0.71 0.97
-4.57 -0.68 0.99
-4.69 -0.67 0.97
-4.71 -0.66 0.97
-4.43 -0.62 1.02
-4.34 -0.59 1.03
-4.31 -0.57 1.04
-4.38 -0.56 1.03
-4.42 -0.55 1.02
-4.52 -0.54 1.00
-4.46 -0.52 1.01
-4.55 -0.51 1.00
-4.44 -0.48 1.02
-4.26 -0.46 1.05
-4.38 -0.45 1.03
-4.55 -0.44 1.00
-4.61 -0.43 0.99
-4.61 -0.41 0.99
-4.88 -0.41 0.94
-4.66 -0.38 0.98
-4.55 -0.36 1.00
-4.65 -0.35 0.98
-5.41 -0.36 0.85
-3.65 -0.25 1.15
-3.38 -0.21 1.19
-3.48 -0.20 1.18
-3.52 -0.19 1.17
-3.32 -0.17 1.20
-3.37 -0.16 1.20
-3.08 -0.14 1.24
-8.02 -0.18 0.42
-8.20 -0.14 0.38
-3.72 -0.06 1.13
-3.49 -0.05 1.17
-3.47 -0.03 1.18
-8.12 -0.04 0.40
-10.48 0.06 0.32
-8.41 0.11 0.68
-9.53 0.22 0.49
-9.04 0.23 0.57
-9.27 0.26 0.53
-6.34 0.19 1.05
-9.15 0.30 0.55
-9.40 0.33 0.51
-9.77 0.36 0.44
-9.55 0.38 0.48
-9.28 0.39 0.53
-9.45 0.42 0.50
-9.45 0.44 0.50
-9.50 0.47 0.49
-9.61 0.50 0.47
-5.91 0.32 1.12
-9.45 0.54 0.49
-6.05 0.36 1.09
-6.25 0.39 1.06
-6.15 0.40 1.07
-6.09 0.41 1.08
-5.98 0.42 1.10
-6.27 0.45 1.05
-6.40 0.48 1.03
-6.37 0.49 1.03
-6.23 0.49 1.06
-6.58 0.54 1.00
-6.76 0.57 0.96
-6.62 0.57 0.99
-6.78 0.60 0.96
-6.84 0.62 0.95
-9.45 0.88 0.49
-6.69 0.64 0.97
-6.91 0.68 0.93
-6.55 0.66 1.00
-6.47 0.67 1.01
-6.46 0.69 1.01
-6.70 0.73 0.97
-6.79 0.75 0.95
-6.59 0.75 0.99
-6.79 0.79 0.95
-9.99 1.17 0.38
-6.71 0.81 0.97
-6.95 0.86 0.92
-6.62 0.83 0.98
-6.81 0.87 0.95
-6.36 0.83 1.02
-6.27 0.84 1.04
-5.98 0.82 1.09
-6.12 0.85 1.07
-6.07 0.86 1.08
-6.17 0.89 1.06
-6.18 0.90 1.05
-6.05 0.90 1.08
-6.08 0.92 1.07
-3.82 -1.34 1.06
-4.36 -1.42 0.96
-5.72 -1.66 0.72
-5.84 -1.67 0.70
-5.80 -1.64 0.70
-4.68 -1.40 0.90
-4.41 -1.33 0.95
-4.24 -1.28 0.98
-5.50 -1.50 0.76
-5.40 -1.46 0.78
-4.59 -1.29 0.92
-5.96 -1.52 0.68
-5.97 -1.50 0.68
-5.78 -1.45 0.71
-4.23 -1.16 0.99
-5.58 -1.38 0.75
-5.74 -1.38 0.72
-4.92 -1.23 0.86
-4.20 -1.09 0.99
-4.70 -1.16 0.91
-5.31 -1.24 0.80
-4.05 -1.02 1.02
-5.13 -1.17 0.83
-5.29 -1.18 0.80
-5.24 -1.15 0.81
-5.66 -1.20 0.74
-4.98 -1.08 0.86
-4.61 -1.01 0.92
-4.46 -0.97 0.95
-4.42 -0.95 0.96
-4.55 -0.95 0.93
-4.97 -0.99 0.86
-4.54 -0.91 0.94
-4.76 -0.92 0.90
-5.20 -0.96 0.82
-5.04 -0.92 0.85
-5.18 -0.92 0.82
-5.46 -0.94 0.77
-4.95 -0.84 0.87
-5.38 -0.87 0.79
-4.93 -0.80 0.87
-4.90 -0.78 0.87
-4.84 -0.76 0.89
-4.87 -0.74 0.88
-4.50 -0.69 0.95
-4.62 -0.68 0.92
-4.53 -0.66 0.94
-4.48 -0.64 0.95
-4.24 -0.60 0.99
-4.22 -0.58 1.00
-4.34 -0.58 0.97
-4.40 -0.56 0.96
-4.45 -0.55 0.96
-4.42 -0.52 0.96
-4.42 -0.50 0.96
-4.48 -0.49 0.95
-4.46 -0.47 0.95
-4.52 -0.46 0.94
-4.42 -0.43 0.96
-4.33 -0.41 0.98
-4.40 -0.38 0.96
-4.93 -0.40 0.87
-4.47 -0.35 0.95
-4.48 -0.34 0.95
-4.28 -0.31 0.98
-4.51 -0.31 0.94
-4.58 -0.29 0.93
-3.72 -0.23 1.08
-7.86 -0.33 0.36
-3.41 -0.17 1.14
-3.32 -0.13 1.15
-3.30 -0.10 1.16
-10.27 -0.11 0.36
-6.59 -0.01 1.00
-3.73 -0.00 1.03
-3.79 0.01 1.01
-3.73 0.03 1.03
-3.87 0.04 1.00
-3.87 0.06 1.00
-3.78 0.07 1.02
-3.71 0.08 1.03
-3.81 0.10 1.01
-3.94 0.12 0.98
-3.95 0.13 0.98
-4.21 0.16 0.94
-9.22 0.30 0.46
-9.23 0.32 0.46
-9.25 0.35 0.45
-9.28 0.37 0.45
-9.27 0.39 0.45
-9.35 0.42 0.43
-9.33 0.44 0.44
-9.41 0.46 0.42
-9.55 0.50 0.39
-9.59 0.52 0.39
-5.50 0.31 1.14
-5.77 0.34 1.09
-9.32 0.57 0.44
-5.73 0.37 1.10
-5.90 0.39 1.07
-5.95 0.41 1.06
-5.54 0.40 1.13
-5.62 0.42 1.12
-5.18 0.40 1.20
-5.29 0.42 1.18
-6.02 0.49 1.04
-5.46 0.46 1.15
-6.13 0.53 1.02
-6.40 0.57 0.97
-6.41 0.58 0.97
-6.41 0.60 0.97
-6.49 0.62 0.95
-6.20 0.61 1.01
-6.13 0.62 1.02
-6.32 0.66 0.98
-6.50 0.69 0.95
-5.98 0.65 1.04
-6.17 0.69 1.01
-6.10 0.69 1.02
-5.78 0.67 1.08
-5.97 0.71 1.04
-5.87 0.71 1.06
-6.13 0.76 1.01
-6.04 0.76 1.03
-5.99 0.77 1.04
-6.05 0.79 1.03
-6.05 0.81 1.03
-6.05 0.82 1.03
-6.27 0.87 0.99
-6.00 0.85 1.03
-6.14 0.88 1.01
-6.24 0.91 0.99
-6.03 0.90 1.03
-9.66 1.44 0.35
-9.64 1.46 0.35
-0.95 -1.43 1.52
-0.82 -1.36 1.54
-5.25 -1.60 0.73
-5.35 -1.60 0.71
-4.62 -1.44 0.85
-5.02 -1.50 0.78
-5.19 -1.51 0.75
-4.29 -1.32 0.92
-4.36 -1.32 0.90
-4.37 -1.30 0.90
-6.07 -1.60 0.58
-6.13 -1.59 0.57
-4.12 -1.20 0.95
-4.40 -1.24 0.90
-5.71 -1.46 0.65
-4.21 -1.17 0.93
-4.17 -1.15 0.94
-4.25 -1.15 0.93
-4.05 -1.10 0.96
-4.96 -1.23 0.79
-4.97 -1.22 0.79
-4.68 -1.15 0.85
-4.83 -1.16 0.82
-4.46 -1.08 0.89
-4.46 -1.07 0.89
-4.38 -1.04 0.91
-5.22 -1.15 0.75
-4.45 -1.02 0.89
-4.12 -0.95 0.95
-4.33 -0.96 0.91
-4.89 -1.03 0.81
-3.90 -0.87 1.00
-4.55 -0.94 0.87
-4.50 -0.92 0.88
-6.69 -1.19 0.48
-4.26 -0.86 0.93
-3.22 -0.71 1.12
-3.00 -0.67 1.16
-2.81 -0.63 1.20
-2.62 -0.60 1.23
-3.12 -0.64 1.14
-3.62 -0.69 1.05
-3.51 -0.66 1.07
-3.11 -0.60 1.14
-4.77 -0.77 0.84
-5.00 -0.77 0.79
-4.97 -0.75 0.80
-3.68 -0.61 1.04
-3.09 -0.54 1.15
-4.58 -0.66 0.87
-4.77 -0.66 0.84
-4.61 -0.63 0.86
-2.39 -0.42 1.28
-4.23 -0.55 0.94
-4.39 -0.55 0.91
-4.41 -0.53 0.90
-4.32 -0.51 0.92
-4.25 -0.49 0.93
-4.26 -0.47 0.93
-4.21 -0.45 0.94
-3.43 -0.39 1.08
-3.07 -0.35 1.15
-4.44 -0.42 0.90
-3.32 -0.34 1.10
-3.18 -0.30 1.13
-3.37 -0.30 1.10
-2.96 -0.26 1.17
-4.28 -0.31 0.93
-3.68 -0.27 1.04
-3.90 -0.26 1.00
-3.48 -0.23 1.08
-2.84 -0.18 1.19
-3.09 -0.16 1.15
-3.05 -0.15 1.15
-3.44 -0.13 1.08
-3.27 -0.10 1.11
-6.83 -0.10 0.45
-3.67 -0.02 1.04
-8.04 0.05 0.61
-5.74 0.12 1.05
-6.35 0.18 0.93
-9.05 0.27 0.41
-5.39 0.18 1.11
-6.19 0.22 0.96
-5.47 0.21 1.10
-5.50 0.22 1.09
-5.57 0.24 1.08
-5.68 0.27 1.06
-5.87 0.29 1.02
-5.95 0.31 1.00
-5.53 0.30 1.08
-5.67 0.33 1.06
-6.63 0.40 0.87
-7.10 0.44 0.78
-5.55 0.36 1.08
-5.52 0.37 1.08
-5.59 0.39 1.07
-5.43 0.39 1.10
-5.44 0.41 1.10
-5.43 0.42 1.10
-5.47 0.43 1.09
-6.15 0.50 0.96
-5.97 0.50 0.99
-5.81 0.50 1.03
-6.16 0.55 0.96
-6.23 0.57 0.94
-6.41 0.60 0.91
-6.33 0.61 0.92
-6.58 0.65 0.87
-6.33 0.64 0.92
-6.45 0.67 0.90
-6.45 0.69 0.90
-6.42 0.70 0.90
-6.14 0.68 0.96
-6.05 0.69 0.97
-6.29 0.73 0.93
-6.11 0.73 0.96
-6.00 0.73 0.98
-6.19 0.77 0.95
-5.96 0.75 0.99
-6.20 0.80 0.94
-5.89 0.77 1.00
-5.77 0.77 1.03
-5.89 0.80 1.00
-5.91 0.82 1.00
-6.41 0.91 0.90
-6.04 0.87 0.97
-6.09 0.89 0.96
-5.81 0.87 1.01
-6.05 0.92 0.96
-5.80 0.89 1.01
-6.05 0.95 0.96
-6.15 0.98 0.94
-4.70 -1.54 0.77
-4.64 -1.51 0.78
-4.45 -1.46 0.82
-4.59 -1.47 0.79
-5.41 -1.62 0.63
-5.16 -1.55 0.68
-4.84 -1.47 0.74
-4.82 -1.45 0.75
-4.56 -1.38 0.80
-4.78 -1.40 0.76
-4.48 -1.33 0.82
-4.47 -1.31 0.82
-4.41 -1.28 0.83
-4.34 -1.25 0.84
-4.57 -1.28 0.80
-4.25 -1.20 0.86
-4.33 -1.20 0.85
-4.27 -1.17 0.86
-5.47 -1.36 0.62
-5.20 -1.29 0.68
-4.44 -1.15 0.83
-4.48 -1.14 0.82
-4.38 -1.11 0.84
-4.47 -1.11 0.82
-4.48 -1.09 0.82
-4.45 -1.07 0.83
-4.30 -1.03 0.86
-4.33 -1.02 0.85
-4.27 -0.99 0.86
-4.13 -0.96 0.89
-4.24 -0.96 0.87
-4.63 -0.99 0.79
-4.43 -0.95 0.83
-4.63 -0.96 0.79
-6.64 -1.21 0.40
-2.94 -0.71 1.12
-6.72 -1.17 0.39
-3.08 -0.68 1.10
-6.66 -1.10 0.40
-5.15 -0.90 0.69
-5.13 -0.88 0.70
-5.07 -0.85 0.71
-3.42 -0.65 1.03
-5.40 -0.85 0.65
-2.97 -0.58 1.12
-3.34 -0.60 1.05
-2.97 -0.55 1.12
-3.20 -0.56 1.07
-4.95 -0.72 0.73
-5.01 -0.71 0.72
-5.05 -0.69 0.72
-4.93 -0.66 0.74
-4.94 -0.64 0.74
-4.91 -0.63 0.74
-5.03 -0.62 0.72
-2.85 -0.42 1.14
-5.47 -0.61 0.63
-4.68 -0.54 0.79
-4.30 -0.49 0.86
-4.91 -0.52 0.74
-4.57 -0.48 0.81
-4.47 -0.45 0.83
-4.26 -0.42 0.87
-3.92 -0.39 0.93
-4.20 -0.39 0.88
-4.25 -0.38 0.87
-4.32 -0.36 0.86
-4.24 -0.34 0.87
-3.91 -0.31 0.94
-3.13 -0.26 1.09
-3.08 -0.24 1.10
-3.62 -0.25 0.99
-4.40 -0.27 0.84
-7.05 -0.18 0.80
-6.63 -0.14 0.88
-9.06 -0.14 0.41
-6.51 -0.09 0.90
-6.37 -0.07 0.93
-6.56 -0.06 0.89
-6.60 -0.04 0.89
-6.75 -0.02 0.86
-3.52 0.04 0.96
-3.62 0.20 0.94
-3.58 0.23 0.95
-3.64 0.26 0.93
-3.96 0.29 0.87
-5.30 0.29 1.09
-5.46 0.31 1.06
-5.17 0.31 1.11
-5.34 0.33 1.08
-5.46 0.35 1.05
-5.41 0.36 1.07
-5.27 0.37 1.09
-5.30 0.38 1.09
-5.12 0.38 1.12
-5.35 0.41 1.08
-5.74 0.45 1.00
-5.92 0.48 0.96
-5.99 0.50 0.94
-5.44 0.47 1.06
-5.97 0.53 0.95
-5.64 0.51 1.01
-5.96 0.56 0.95
-5.80 0.56 0.98
-5.85 0.58 0.97
-5.84 0.60 0.97
-5.83 0.62 0.97
-5.83 0.63 0.97
-6.14 0.70 0.91
-4.03 0.47 1.34
-6.01 0.71 0.93
-6.01 0.73 0.93
-6.03 0.74 0.93
-5.99 0.75 0.94
-5.98 0.77 0.94
-5.96 0.78 0.94
-5.65 0.75 1.00
-5.67 0.77 1.00
-5.63 0.78 1.00
-5.62 0.79 1.01
-5.79 0.83 0.97
-5.79 0.86 0.97
-5.66 0.86 1.00
-4.36 -1.46 0.78
-4.21 -1.37 0.81
-4.40 -1.39 0.77
-4.93 -1.48 0.67
-4.12 -1.28 0.83
-4.16 -1.28 0.83
-4.02 -1.23 0.86
-4.14 -1.24 0.83
-4.30 -1.25 0.80
-4.04 -1.19 0.85
-3.93 -1.14 0.88
-3.98 -1.13 0.87
-4.24 -1.16 0.81
-4.29 -1.15 0.80
-4.19 -1.12 0.82
-4.13 -1.09 0.84
-4.34 -1.10 0.79
-4.26 -1.07 0.81
-3.96 -1.00 0.87
-4.11 -1.01 0.84
-4.11 -1.00 0.84
-4.18 -0.99 0.83
-4.19 -0.98 0.83
-4.03 -0.94 0.86
-2.92 -0.76 1.09
-4.34 -0.95 0.80
-4.62 -0.97 0.74
-2.54 -0.67 1.16
-2.36 -0.64 1.20
-2.40 -0.63 1.19
-1.98 -0.57 1.28
-2.30 -0.59 1.21
-2.14 -0.56 1.25
-2.36 -0.58 1.20
-2.57 -0.59 1.16
-2.55 -0.57 1.16
-2.44 -0.54 1.18
-2.28 -0.51 1.22
-2.43 -0.52 1.19
-2.09 -0.47 1.26
-2.11 -0.46 1.25
-1.93 -0.43 1.29
-1.81 -0.40 1.31
-2.48 -0.44 1.18
-2.12 -0.38 1.25
-2.18 -0.37 1.24
-2.29 -0.37 1.22
-2.12 -0.34 1.25
-2.85 -0.22 1.10
-3.00 -0.20 1.07
-3.05 -0.17 1.06
-3.14 -0.17 1.04
-3.04 -0.13 1.06
-6.05 0.08 0.88
-7.42 0.24 0.58
-7.35 0.26 0.60
-7.79 0.29 0.50
-7.07 0.30 0.66
-7.08 0.32 0.65
-5.31 0.25 1.03
-5.24 0.28 1.04
-6.34 0.35 0.81
-8.09 0.46 0.44
-6.41 0.40 0.79
-6.84 0.44 0.70
-6.34 0.42 0.81
-5.53 0.40 0.98
-5.77 0.43 0.93
-5.77 0.44 0.93
-5.96 0.49 0.89
-5.91 0.50 0.90
-5.96 0.52 0.88
-5.91 0.54 0.89
-5.73 0.54 0.93
-5.89 0.57 0.90
-5.96 0.61 0.88
-6.21 0.65 0.83
-5.97 0.64 0.88
-5.99 0.67 0.87
-6.12 0.70 0.85
-6.02 0.70 0.86
-6.21 0.75 0.82
-6.21 0.77 0.82
-6.37 0.80 0.79
-6.24 0.82 0.81
-6.18 0.83 0.83
-6.30 0.86 0.80
-6.16 0.87 0.83
-6.02 0.87 0.86
-6.27 0.92 0.80
-6.02 0.91 0.86
-5.91 0.91 0.88
-5.79 0.91 0.90
-5.93 0.96 0.87
-5.69 0.94 0.92
-5.48 0.92 0.97
-5.47 0.94 0.97
-5.34 0.98 0.99
-4.45 -1.65 0.68
-4.05 -1.53 0.77
-4.66 -1.66 0.64
-4.48 -1.60 0.68
-4.62 -1.62 0.65
-4.57 -1.59 0.66
-4.57 -1.57 0.66
-4.66 -1.57 0.64
-4.39 -1.50 0.70
-4.47 -1.50 0.68
-4.59 -1.50 0.66
-4.53 -1.47 0.67
-4.41 -1.43 0.70
-4.48 -1.43 0.68
-4.83 -1.48 0.61
-4.75 -1.45 0.63
-4.53 -1.39 0.67
-4.46 -1.36 0.69
-4.34 -1.32 0.71
-4.39 -1.31 0.71
-4.43 -1.30 0.70
-4.10 -1.22 0.77
-4.11 -1.21 0.77
-4.24 -1.22 0.74
-4.16 -1.19 0.76
-4.03 -1.15 0.79
-4.05 -1.14 0.78
-4.24 -1.15 0.74
-4.11 -1.11 0.77
-4.31 -1.13 0.73
-4.48 -1.14 0.69
-4.40 -1.11 0.71
-4.55 -1.12 0.68
-4.33 -1.07 0.72
-4.47 -1.07 0.69
-4.52 -1.06 0.68
-4.35 -1.02 0.72
-4.36 -1.01 0.72
-4.52 -1.01 0.68
-4.19 -0.95 0.76
-4.18 -0.93 0.76
-4.43 -0.95 0.71
-4.45 -0.94 0.70
-4.46 -0.92 0.70
-4.73 -0.94 0.64
-4.63 -0.91 0.66
-4.62 -0.89 0.67
-4.80 -0.90 0.63
-5.27 -0.93 0.53
-2.85 -0.63 1.04
-5.59 -0.94 0.46
-5.57 -0.91 0.46
-5.58 -0.90 0.46
-2.69 -0.56 1.08
-5.09 -0.80 0.57
-3.39 -0.59 0.93
-5.29 -0.77 0.53
-5.31 -0.75 0.52
-5.26 -0.73 0.53
-5.16 -0.70 0.55
-5.16 -0.68 0.55
-2.39 -0.42 1.14
-5.03 -0.64 0.58
-2.37 -0.40 1.15
-2.42 -0.39 1.13
-5.74 -0.62 0.43
-5.66 -0.59 0.45
-5.83 -0.58 0.41
-5.89 -0.57 0.40
-2.62 -0.31 1.09
-6.20 -0.32 0.85
-6.01 -0.30 0.89
-8.34 -0.27 0.39
-8.24 -0.19 0.42
-8.40 -0.17 0.38
-8.24 -0.09 0.42
-8.16 -0.05 0.43
-7.98 -0.01 0.47
-3.55 0.02 0.84
-5.68 0.10 0.90
-5.11 0.11 1.03
-5.41 0.12 0.96
-4.85 0.12 1.08
-4.88 0.14 1.08
-4.62 0.14 1.14
-4.98 0.16 1.06
-4.95 0.17 1.06
-5.03 0.19 1.04
-5.14 0.21 1.02
-5.28 0.22 0.99
-5.14 0.23 1.02
-5.18 0.25 1.01
-5.34 0.27 0.97
-5.01 0.26 1.05
-5.23 0.29 1.00
-5.23 0.30 1.00
-6.66 0.40 0.68
-6.60 0.41 0.69
-6.84 0.44 0.64
-6.54 0.44 0.71
-5.61 0.39 0.91
-6.31 0.45 0.76
-6.57 0.49 0.70
-5.71 0.44 0.89
-5.65 0.45 0.90
-5.80 0.47 0.87
-5.73 0.48 0.88
-5.78 0.50 0.87
-5.73 0.51 0.88
-5.80 0.53 0.86
-5.79 0.54 0.86
-5.60 0.54 0.91
-5.72 0.57 0.88
-5.86 0.59 0.85
-5.95 0.62 0.83
-6.00 0.64 0.82
-6.00 0.65 0.82
-5.96 0.66 0.82
-5.99 0.68 0.82
-6.05 0.70 0.80
-6.01 0.71 0.81
-6.03 0.73 0.81
-6.07 0.75 0.80
-6.04 0.76 0.80
-6.07 0.78 0.79
-5.98 0.78 0.81
-6.08 0.81 0.79
-5.79 0.79 0.86
-5.96 0.83 0.82
-5.94 0.84 0.82
-6.00 0.86 0.81
-5.86 0.86 0.84
-5.96 0.88 0.82
-5.71 0.87 0.87
-5.68 0.87 0.87
-5.68 0.89 0.88
-5.60 0.89 0.89
-5.58 0.90 0.90
-5.32 0.87 0.95
-5.24 0.87 0.97
-5.30 0.90 0.96
-5.16 0.89 0.99
-5.23 0.91 0.97
-5.21 0.92 0.98
-5.23 0.95 0.97
-5.24 0.97 0.97
-4.52 -1.52 0.61
-4.68 -1.52 0.57
-4.43 -1.45 0.63
-4.82 -1.51 0.54
-4.44 -1.42 0.63
-4.33 -1.38 0.65
-4.53 -1.40 0.61
-4.30 -1.34 0.66
-4.25 -1.31 0.67
-4.16 -1.28 0.69
-4.34 -1.29 0.66
-4.22 -1.26 0.68
-4.28 -1.25 0.67
-4.21 -1.22 0.68
-4.45 -1.25 0.63
-4.30 -1.21 0.66
-4.37 -1.20 0.65
-4.16 -1.15 0.70
-4.25 -1.15 0.68
-4.49 -1.17 0.62
-4.58 -1.17 0.60
-4.20 -1.09 0.69
-4.15 -1.07 0.70
-4.29 -1.07 0.67
-4.48 -1.09 0.63
-4.62 -1.09 0.60
-4.48 -1.05 0.63
-3.99 -0.96 0.74
-4.27 -0.99 0.68
-4.14 -0.96 0.71
-4.52 -0.99 0.62
-4.70 -1.00 0.58
-4.68 -0.98 0.59
-4.44 -0.93 0.64
-4.84 -0.97 0.55
-4.73 -0.94 0.58
-2.78 -0.67 1.01
-2.41 -0.61 1.09
-2.39 -0.60 1.10
-2.74 -0.63 1.02
-2.38 -0.57 1.10
-2.26 -0.55 1.13
-2.10 -0.52 1.16
-2.14 -0.51 1.15
-2.15 -0.50 1.15
-1.98 -0.47 1.19
-2.21 -0.49 1.14
-2.02 -0.46 1.18
-2.07 -0.45 1.17
-2.33 -0.46 1.11
-3.05 -0.52 0.95
-2.21 -0.43 1.14
-1.98 -0.40 1.19
-2.11 -0.40 1.16
-2.16 -0.39 1.15
-1.97 -0.37 1.19
-2.03 -0.36 1.18
-2.43 -0.38 1.09
-2.21 -0.35 1.14
-2.00 -0.32 1.18
-2.11 -0.32 1.16
-2.17 -0.31 1.15
-2.84 -0.35 1.00
-2.39 -0.30 1.10
-2.56 -0.30 1.06
-4.29 -0.39 0.68
-2.79 -0.29 1.01
-4.26 -0.36 0.68
-3.70 -0.31 0.81
-3.12 -0.27 0.94
-2.84 -0.24 1.00
-2.82 -0.23 1.00
-2.71 -0.21 1.03
-3.33 -0.23 0.89
-4.11 -0.24 0.72
-3.16 -0.19 0.92
-3.47 -0.19 0.86
-3.05 -0.16 0.95
-3.19 -0.15 0.92
-2.82 -0.13 1.00
-3.12 -0.12 0.93
-3.01 -0.11 0.96
-2.98 -0.10 0.96
-3.07 -0.08 0.94
-3.17 -0.07 0.92
-3.20 -0.02 0.91
-5.00 0.16 1.00
-6.88 0.39 0.56
-6.83 0.41 0.57
-6.91 0.43 0.55
-7.05 0.45 0.52
-7.26 0.48 0.47
-6.76 0.47 0.58
-6.57 0.47 0.63
-6.65 0.49 0.61
-6.69 0.51 0.60
-6.82 0.54 0.57
-6.93 0.56 0.54
-6.73 0.56 0.59
-6.35 0.55 0.68
-6.32 0.56 0.68
-6.05 0.55 0.75
-5.89 0.55 0.78
-6.21 0.60 0.71
-5.92 0.59 0.77
-6.16 0.62 0.72
-6.14 0.64 0.72
-6.15 0.65 0.72
-6.84 0.74 0.56
-6.15 0.68 0.72
-6.13 0.70 0.72
-6.16 0.71 0.71
-6.02 0.71 0.74
-6.09 0.74 0.73
-5.96 0.74 0.76
-6.04 0.76 0.74
-5.88 0.76 0.77
-5.98 0.79 0.75
-5.92 0.79 0.76
-5.98 0.81 0.75
-6.07 0.84 0.73
-6.22 0.88 0.69
-6.34 0.91 0.66
-6.34 0.93 0.66
-6.23 0.93 0.69
-6.26 0.95 0.68
-5.89 0.91 0.77
-5.73 0.90 0.80
-6.35 1.02 0.66
-6.14 1.00 0.70
-5.98 0.99 0.74
-5.30 0.90 0.90
-5.29 0.91 0.90
-4.43 -1.32 0.56
-4.43 -1.30 0.56
-4.32 -1.26 0.59
-4.66 -1.31 0.51
-4.53 -1.27 0.54
-4.70 -1.28 0.50
-4.79 -1.28 0.48
-4.48 -1.21 0.55
-4.60 -1.21 0.53
-4.65 -1.20 0.51
-4.58 -1.17 0.53
-4.55 -1.15 0.54
-4.88 -1.19 0.46
-5.08 -1.00 0.42
-4.99 -0.95 0.44
-5.07 -0.71 0.43
-5.12 -0.70 0.42
-5.13 -0.68 0.41
-5.05 -0.65 0.43
-5.12 -0.64 0.42
-4.34 -0.41 0.60
-4.22 -0.37 0.62
-3.30 -0.20 0.84
-1.20 -0.66 0.58
-2.63 -0.07 0.60
-3.74 0.45 0.46
-3.66 0.74 0.46
-3.56 0.47 0.23
-3.33 0.65 0.25
-3.32 0.57 0.23
-3.15 0.80 0.22
-2.99 0.92 0.23
-2.82 1.28 0.22
-1.40 -0.80 0.29
-0.73 -0.97 0.22
-1.46 -0.66 0.29
-15.56 0.47 0.87
-10.33 -1.51 1.10
-15.29 0.53 0.79
-14.47 0.79 0.87
-9.88 -1.54 1.06
-9.80 -1.30 1.07
-7.36 -0.67 1.29
-9.86 -1.42 1.00
-9.67 -1.31 1.01
-7.00 -0.78 1.27
-7.50 -0.67 1.22
-11.27 -0.24 0.86
-9.61 -1.46 0.94
-9.91 -1.34 0.91
-9.48 -1.24 0.95
-9.62 -1.22 0.94
-9.76 -1.21 0.93
-10.33 -1.23 0.87
-9.38 -1.11 0.97
-9.91 -1.13 0.91
-9.58 -1.05 0.95
-9.80 -1.04 0.92
-10.84 -1.09 0.82
-10.05 -1.00 0.90
-7.19 -0.68 1.19
-7.24 -0.66 1.19
-11.09 -0.82 0.79
-11.41 -0.81 0.76
-9.54 -0.58 0.95
-9.14 -0.54 0.99
-14.28 -0.02 0.36
-12.66 0.47 0.71
-15.57 0.77 0.37
-9.53 -1.68 0.78
-9.87 -1.69 0.75
-9.21 -1.58 0.82
-9.85 -1.60 0.75
-10.42 -1.52 0.68
-10.13 -1.46 0.72
-9.66 -1.38 0.77
-9.87 -1.37 0.75
-9.67 -1.32 0.77
-9.48 -1.27 0.79
-9.87 -1.25 0.75
-9.72 -1.21 0.77
-9.55 -1.16 0.79
-9.69 -1.15 0.77
-9.55 -1.10 0.79
-9.80 -1.10 0.76
-9.91 -1.08 0.75
-10.23 -1.07 0.71
-9.93 -1.02 0.74
-9.16 -0.87 0.83
-7.16 -0.70 1.06
-8.92 -0.75 0.86
-8.32 -0.66 0.93
-8.25 -0.62 0.94
-9.74 -0.29 1.05
-9.69 -0.27 1.05
-9.51 -0.24 1.07
-12.11 -0.16 0.77
-12.00 -0.13 0.79
-10.98 -0.01 0.53
-10.93 0.02 0.54
-12.77 0.42 0.61
-12.60 0.44 0.63
-5.71 -1.30 1.17
-9.26 -1.64 0.74
-9.19 -1.60 0.75
-9.51 -1.61 0.71
-9.97 -1.62 0.65
-9.81 -1.45 0.67
-9.53 -1.39 0.71
-9.72 -1.35 0.68
-9.66 -1.31 0.69
-9.59 -1.28 0.70
-9.55 -1.25 0.71
-9.55 -1.21 0.71
-9.58 -1.19 0.70
-9.48 -1.15 0.71
-9.26 -1.10 0.74
-9.29 -1.08 0.74
-9.40 -1.06 0.73
-9.16 -1.01 0.76
-9.03 -0.97 0.77
-8.97 -0.94 0.78
-8.80 -0.90 0.80
-8.63 -0.86 0.82
-6.59 -0.66 1.07
-8.84 -0.79 0.79
-8.64 -0.72 0.82
-8.35 -0.68 0.85
-8.42 -0.63 0.85
-8.74 -0.62 0.81
-8.88 -0.61 0.79
-9.29 -0.54 0.74
-10.78 -0.20 0.56
-10.69 -0.08 0.57
-10.72 -0.04 0.56
-12.16 0.08 0.60
-11.77 0.10 0.65
-11.92 0.16 0.63
-11.78 0.19 0.64
-11.35 0.21 0.70
-12.21 0.28 0.59
-12.78 0.36 0.51
-12.94 0.42 0.49
-13.56 0.47 0.41
-12.96 0.48 0.49
-13.69 0.58 0.40
-13.23 0.59 0.45
-10.35 0.54 0.83
-14.08 0.83 0.34
-3.84 -1.06 1.36
-9.07 -1.67 0.68
-9.24 -1.64 0.65
-9.59 -1.63 0.61
-9.86 -1.57 0.57
-9.49 -1.50 0.62
-9.80 -1.48 0.58
-9.82 -1.42 0.58
-9.98 -1.41 0.56
-9.46 -1.32 0.63
-9.35 -1.25 0.64
-9.59 -1.25 0.61
-9.24 -1.18 0.66
-9.75 -1.21 0.59
-9.13 -1.12 0.67
-9.15 -1.09 0.67
-8.73 -1.03 0.72
-6.97 -0.84 0.95
-9.08 -1.00 0.68
-8.97 -0.94 0.70
-9.08 -0.87 0.68
-8.81 -0.79 0.72
-8.45 -0.74 0.76
-8.14 -0.69 0.80
-8.17 -0.67 0.80
-7.64 -0.61 0.87
-7.70 -0.59 0.86
-7.71 -0.57 0.86
-7.49 -0.53 0.89
-7.90 -0.53 0.83
-8.28 -0.52 0.78
-8.30 -0.50 0.78
-9.36 -0.52 0.65
-9.53 -0.50 0.62
-7.93 -0.41 0.83
-10.38 -0.47 0.51
-11.75 -0.10 0.65
-11.25 -0.01 0.30
-11.09 0.02 0.32
-11.02 0.05 0.33
-11.05 0.08 0.33
-8.24 0.17 0.71
-13.48 0.44 0.33
-13.30 0.46 0.35
-13.56 0.51 0.31
-13.46 0.54 0.33
-13.52 0.63 0.32
-13.70 0.68 0.30
-9.27 0.68 0.90
-10.48 1.15 0.72
-10.11 -1.48 0.45
-9.84 -1.39 0.49
-9.40 -1.26 0.55
-9.47 -1.24 0.54
-9.41 -1.20 0.55
-9.56 -1.19 0.53
-9.04 -1.11 0.60
-8.96 -1.07 0.61
-8.95 -1.04 0.62
-6.80 -0.83 0.91
-9.18 -1.01 0.58
-9.14 -0.98 0.59
-8.84 -0.93 0.63
-8.75 -0.89 0.64
-8.53 -0.85 0.67
-8.53 -0.82 0.67
-8.22 -0.77 0.72
-8.02 -0.73 0.74
-8.23 -0.72 0.72
-7.81 -0.67 0.77
-7.72 -0.62 0.79
-5.45 -0.46 1.10
-8.27 -0.60 0.71
-9.16 -0.62 0.59
-8.81 -0.58 0.64
-8.52 -0.53 0.68
-9.37 -0.55 0.56
-8.55 -0.48 0.67
-8.89 -0.47 0.62
-10.52 -0.29 0.40
-10.27 -0.22 0.44
-10.27 -0.19 0.44
-10.49 -0.11 0.41
-10.34 -0.07 0.43
-10.48 -0.04 0.41
-11.84 0.10 0.46
-11.86 0.13 0.46
-11.93 0.19 0.45
-12.85 0.33 0.31
-12.96 0.36 0.30
-9.99 0.50 0.72
-9.28 0.62 0.82
-9.37 0.69 0.81
-9.51 0.75 0.79
-9.63 0.80 0.77
-10.00 0.88 0.71
-10.24 0.95 0.68
-10.75 1.26 0.60
-5.74 -1.41 0.98
-9.34 -1.28 0.47
-9.66 -1.29 0.42
-9.42 -1.12 0.46
-8.98 -1.05 0.52
-9.19 -1.04 0.49
-9.27 -0.99 0.48
-9.30 -0.94 0.48
-9.37 -0.92 0.47
-9.02 -0.86 0.52
-8.68 -0.81 0.57
-8.84 -0.79 0.54
-8.75 -0.76 0.56
-8.50 -0.72 0.59
-8.39 -0.68 0.61
-5.36 -0.47 1.04
-8.16 -0.62 0.64
-8.02 -0.59 0.66
-8.54 -0.59 0.59
-9.91 -0.63 0.39
-7.99 -0.51 0.67
-8.52 -0.51 0.59
-8.59 -0.49 0.58
-8.64 -0.46 0.57
-8.80 -0.44 0.55
-9.45 -0.44 0.46
-10.90 -0.30 0.60
-9.34 -0.97 0.38
-9.57 0.59 0.63
-9.96 0.78 0.56
-11.10 1.28 0.37
-6.21 -1.61 0.77
-6.08 -1.57 0.80
-6.21 -1.57 0.77
-8.28 -0.78 0.45
-8.12 -0.74 0.48
-8.39 -0.74 0.44
-8.01 -0.69 0.50
-7.91 -0.66 0.51
-8.04 -0.64 0.49
-11.37 -0.12 0.35
-7.28 0.04 0.54
-9.59 0.52 0.55
-9.91 0.56 0.50
-10.11 0.60 0.46
-9.65 0.62 0.54
-9.62 0.87 0.54
-9.70 0.90 0.52
-9.48 0.93 0.56
-9.88 0.99 0.49
-10.91 1.31 0.32
-10.74 1.39 0.34
-10.62 1.43 0.36
-10.21 1.43 0.43
-10.07 1.46 0.45
-6.12 -1.63 0.72
-6.08 -1.61 0.73
-6.07 -1.54 0.73
-6.88 -0.90 0.60
-8.23 -0.80 0.38
-8.23 -0.72 0.38
-7.95 -0.68 0.43
-7.96 -0.66 0.43
-7.91 -0.63 0.43
-7.91 -0.60 0.43
-7.93 -0.58 0.43
-7.64 -0.52 0.48
-8.37 -0.53 0.36
-8.54 -0.51 0.33
-7.88 -0.11 0.44
-7.80 -0.08 0.45
-8.19 -0.06 0.39
-9.07 0.27 0.57
-9.53 0.52 0.48
-9.64 0.57 0.46
-9.34 0.58 0.51
-9.52 0.61 0.48
-9.47 0.63 0.49
-9.33 0.64 0.51
-9.42 0.67 0.50
-9.32 0.69 0.51
-9.32 0.71 0.51
-9.41 0.74 0.50
-9.44 0.77 0.49
-9.42 0.79 0.49
-9.36 0.80 0.50
-9.52 0.84 0.47
-9.56 0.87 0.47
-9.59 0.92 0.46
-9.57 0.94 0.46
-9.73 0.98 0.44
-9.93 1.02 0.40
-10.05 1.06 0.38
-10.03 1.11 0.38
-10.03 1.13 0.38
-9.98 1.15 0.39
-10.23 1.25 0.34
-10.24 1.28 0.34
-10.29 1.31 0.33
-10.01 1.30 0.38
-9.98 1.32 0.38
-9.88 1.33 0.40
-9.89 1.36 0.40
-9.84 1.38 0.40
-9.82 1.40 0.41
-9.62 1.39 0.44
-9.79 1.44 0.41
-9.89 1.48 0.39
-7.29 -1.41 0.45
-6.52 -0.87 0.59
-6.47 -0.84 0.60
-7.89 -0.85 0.35
-7.95 -0.63 0.34
-8.12 -0.59 0.31
-7.74 -0.55 0.38
-7.52 -0.51 0.42
-7.61 -0.49 0.40
-7.56 -0.46 0.41
-7.47 -0.44 0.42
-7.43 -0.41 0.43
-7.72 -0.38 0.38
-7.46 -0.32 0.43
-6.89 0.15 0.44
-5.96 0.19 0.61
-9.13 0.52 0.47
-9.44 0.60 0.41
-9.46 0.63 0.41
-9.44 0.65 0.41
-9.23 0.66 0.45
-9.36 0.69 0.42
-9.30 0.71 0.44
-9.48 0.74 0.40
-9.57 0.77 0.38
-9.60 0.80 0.38
-9.85 0.84 0.33
-9.73 0.86 0.35
-9.75 0.88 0.35
-9.70 0.93 0.36
-9.85 1.01 0.33
-9.70 1.38 0.34
-9.69 1.40 0.34
-9.56 1.41 0.37
-6.20 -1.59 0.56
-6.33 -1.33 0.54
-6.41 -1.30 0.53
-6.71 -1.33 0.47
-6.47 -1.27 0.51
-6.54 -1.23 0.50
-6.72 -1.24 0.47
-5.40 -0.97 0.72
-5.22 -0.92 0.75
-4.80 -0.86 0.83
-5.00 -0.86 0.79
-6.84 -1.05 0.45
-6.76 -0.96 0.47
-6.74 -0.93 0.47
-7.00 -0.91 0.42
-4.57 -0.61 0.87
-7.52 -0.39 0.33
-5.39 -0.14 0.72
-7.41 -0.03 0.35
-9.11 0.30 0.40
-8.97 0.31 0.42
-8.79 0.33 0.46
-8.83 0.35 0.45
-9.06 0.38 0.40
-9.06 0.43 0.40
-9.29 0.48 0.36
-9.00 0.51 0.41
-8.95 0.53 0.42
-8.95 0.55 0.42
-9.22 0.59 0.37
-9.05 0.60 0.40
-9.13 0.63 0.38
-9.26 0.66 0.36
-9.36 0.69 0.34
-9.36 0.71 0.34
-9.36 0.74 0.34
-6.43 -1.35 0.44
-6.59 -1.36 0.41
-6.70 -1.33 0.39
-6.73 -1.31 0.38
-6.66 -1.28 0.40
-6.61 -1.23 0.41
-4.66 -0.93 0.79
-5.16 -0.94 0.69
-5.18 -0.85 0.69
-5.21 -0.82 0.68
-5.23 -0.80 0.68
-5.15 -0.77 0.70
-5.16 -0.76 0.69
-6.77 -0.78 0.38
-4.72 -0.57 0.78
-9.28 -0.12 0.37
-8.77 0.54 0.39
-4.59 -0.95 0.75
-5.38 -0.81 0.59
-7.08 0.33 0.65
-5.11 -0.90 0.56
-5.52 -0.87 0.48
-5.34 -0.79 0.51
-5.09 -0.66 0.57
-5.33 0.01 0.44
-5.30 0.03 0.45
-7.79 0.27 0.44
-4.67 -0.91 0.59
-4.86 -0.92 0.55
-4.86 -0.90 0.55
-4.95 -0.89 0.53
-5.11 -0.90 0.49
-5.22 -0.89 0.47
-5.17 -0.87 0.48
-5.06 -0.83 0.50
-5.24 -0.84 0.46
-5.22 -0.82 0.47
-4.91 -0.77 0.54
-5.52 -0.81 0.40
-5.35 -0.77 0.44
-5.26 -0.75 0.46
-5.13 -0.72 0.49
-5.22 -0.71 0.47
-5.16 -0.68 0.48
-5.27 -0.67 0.46
-5.42 -0.65 0.43
-5.46 -0.63 0.42
-4.70 -0.55 0.59
-4.46 -0.44 0.64
-5.16 -0.10 0.48
-5.20 -0.02 0.47
