# .PCD v0.7 - Point Cloud Data file format
VERSION 0.7
FIELDS x y z
SIZE 4 4 4
TYPE F F F
COUNT 1 1 1
WIDTH 2862
HEIGHT 1
VIEWPOINT 0 0 0 1 0 0 0
POINTS 2862
DATA ASCII
-8.27 0.62 1.52
-8.07 0.67 1.53
-5.24 0.81 1.75
-1.10 -1.17 1.89
-3.56 -0.99 1.70
-8.60 -1.24 1.30
-8.34 -1.14 1.32
-8.33 -1.11 1.33
-8.05 -1.06 1.35
-8.31 -1.05 1.33
-8.30 -1.03 1.33
-8.24 -1.00 1.33
-8.20 -0.97 1.34
-8.13 -0.94 1.34
-8.34 -0.93 1.32
-8.52 -0.92 1.31
-8.19 -0.87 1.34
-8.07 -0.83 1.35
-8.55 -0.84 1.31
-8.36 -0.80 1.32
-8.16 -0.76 1.34
-8.57 -0.77 1.31
-8.48 -0.73 1.31
-9.96 -0.80 1.20
-7.87 -0.64 1.36
-8.03 -0.63 1.35
-7.93 -0.60 1.36
-7.50 -0.55 1.39
-11.49 -0.64 1.27
-11.48 -0.61 1.27
-11.41 -0.58 1.28
-11.12 -0.54 1.30
-11.12 -0.51 1.30
-11.41 -0.49 1.28
-8.65 -0.36 1.49
-11.37 -0.44 1.28
-10.51 -0.38 1.35
-10.94 -0.34 1.31
-10.71 -0.31 1.33
-10.53 -0.28 1.34
-10.79 -0.23 1.32
-10.60 -0.20 1.34
-10.95 -0.18 1.31
-10.77 -0.15 1.33
-10.57 -0.13 1.34
-10.62 -0.10 1.34
-8.78 -0.06 1.48
-10.41 -0.02 1.35
-9.47 0.02 1.17
-9.39 0.05 1.18
-10.48 0.08 1.29
-3.13 0.03 1.91
-10.52 0.13 1.29
-12.58 0.18 1.12
-10.42 0.20 1.30
-8.29 0.18 1.48
-9.92 0.24 1.34
-8.51 0.23 1.46
-8.49 0.25 1.46
-8.29 0.26 1.48
-8.62 0.29 1.45
-8.47 0.31 1.46
-8.66 0.34 1.44
-8.45 0.35 1.46
-8.14 0.36 1.49
-8.32 0.38 1.47
-8.06 0.39 1.49
-8.15 0.42 1.49
-8.24 0.44 1.48
-8.45 0.47 1.46
-8.34 0.49 1.47
-8.20 0.50 1.48
-8.44 0.53 1.46
-8.26 0.54 1.48
-8.62 0.59 1.45
-8.33 0.59 1.47
-8.20 0.60 1.48
-8.45 0.64 1.46
-8.33 0.65 1.47
-8.32 0.67 1.47
-8.24 0.68 1.48
-8.61 0.88 1.44
-4.13 1.23 1.80
-1.15 -1.20 1.87
-8.54 -1.23 1.25
-8.38 -1.19 1.27
-8.35 -1.16 1.27
-8.70 -1.17 1.24
-8.09 -1.08 1.29
-8.10 -1.06 1.29
-8.37 -1.06 1.27
-8.13 -1.01 1.29
-8.31 -1.00 1.27
-8.17 -0.96 1.28
-8.22 -0.94 1.28
-8.14 -0.91 1.29
-8.38 -0.91 1.27
-8.27 -0.87 1.28
-8.22 -0.84 1.28
-8.00 -0.80 1.30
-8.11 -0.78 1.29
-8.41 -0.78 1.27
-8.19 -0.74 1.28
-7.92 -0.69 1.31
-7.89 -0.67 1.31
-7.89 -0.64 1.31
-8.15 -0.63 1.29
-8.51 -0.63 1.26
-8.02 -0.58 1.30
-8.84 -0.57 1.23
-9.30 -0.56 1.19
-9.02 -0.52 1.21
-8.64 -0.48 1.25
-8.58 -0.45 1.25
-8.62 -0.35 1.25
-8.77 -0.32 1.24
-8.70 -0.30 1.24
-9.21 -0.06 1.20
-9.09 -0.00 1.21
-10.32 0.00 1.24
-10.20 0.02 1.25
-10.48 0.05 1.23
-10.31 0.08 1.24
-10.33 0.10 1.24
-10.35 0.12 1.24
-10.26 0.15 1.25
-10.02 0.17 1.27
-10.12 0.20 1.26
-8.30 0.20 1.42
-8.20 0.22 1.43
-8.63 0.25 1.39
-8.29 0.26 1.42
-8.11 0.29 1.44
-8.32 0.32 1.42
-8.12 0.36 1.44
-8.22 0.38 1.43
-8.10 0.39 1.44
-8.23 0.42 1.42
-8.07 0.43 1.44
-10.16 0.57 1.25
-8.30 0.48 1.42
-8.39 0.51 1.41
-8.12 0.51 1.43
-8.20 0.54 1.43
-8.41 0.57 1.41
-8.27 0.58 1.42
-8.23 0.60 1.42
-8.62 0.65 1.39
-8.34 0.65 1.41
-8.33 0.67 1.41
-8.46 0.70 1.40
-8.30 0.71 1.42
-8.40 0.74 1.41
-8.37 0.75 1.41
-8.49 0.79 1.40
-8.48 0.81 1.40
-8.36 0.82 1.41
-7.91 -1.24 1.24
-7.84 -1.13 1.25
-8.10 -1.14 1.22
-8.17 -1.09 1.22
-8.05 -1.05 1.23
-8.23 -1.05 1.21
-8.06 -1.01 1.23
-8.16 -0.99 1.22
-8.34 -0.95 1.20
-8.46 -0.94 1.19
-8.38 -0.91 1.20
-8.33 -0.88 1.20
-8.16 -0.84 1.22
-8.24 -0.82 1.21
-7.83 -0.76 1.25
-8.79 -0.78 1.16
-9.03 -0.77 1.14
-8.22 -0.69 1.21
-8.31 -0.67 1.20
-8.73 -0.67 1.17
-8.61 -0.63 1.18
-8.22 -0.59 1.21
-9.27 -0.59 1.12
-8.21 -0.51 1.21
-8.13 -0.48 1.22
-8.72 -0.48 1.17
-8.16 -0.43 1.22
-8.41 -0.42 1.20
-9.11 -0.42 1.13
-8.83 -0.35 1.16
-9.01 -0.33 1.14
-9.08 -0.31 1.13
-9.23 -0.28 1.12
-9.56 -0.26 1.09
-9.12 -0.22 1.13
-10.38 -0.15 1.24
-8.22 -0.10 1.43
-10.12 -0.10 1.26
-10.24 -0.07 1.25
-10.26 -0.05 1.25
-9.98 -0.02 1.27
-9.43 0.02 1.04
-9.28 0.05 1.05
-9.77 0.08 1.00
-9.52 0.17 1.03
-9.81 0.20 1.00
-9.49 0.22 1.03
-9.77 0.26 1.00
-7.13 0.22 1.26
-9.27 0.27 1.28
-8.26 0.26 1.38
-8.19 0.28 1.38
-8.45 0.31 1.36
-8.30 0.32 1.37
-7.90 0.33 1.41
-7.97 0.35 1.41
-7.89 0.36 1.41
-8.01 0.39 1.40
-7.92 0.40 1.41
-8.36 0.45 1.37
-8.34 0.46 1.37
-8.07 0.47 1.39
-8.22 0.50 1.38
-8.34 0.53 1.37
-8.32 0.55 1.37
-8.45 0.57 1.36
-8.48 0.60 1.35
-8.45 0.62 1.36
-8.40 0.63 1.36
-8.73 0.68 1.33
-9.19 0.73 1.29
-8.44 0.70 1.36
-8.41 0.71 1.36
-8.50 0.74 1.35
-8.49 0.76 1.35
-8.35 0.77 1.36
-8.43 0.80 1.36
-8.44 0.82 1.35
-2.37 -0.78 1.72
-7.20 -1.24 1.25
-7.87 -1.28 1.19
-7.76 -1.15 1.20
-8.32 -1.18 1.14
-8.48 -1.17 1.13
-8.28 -1.13 1.15
-8.20 -1.09 1.16
-8.10 -1.06 1.17
-8.01 -1.02 1.17
-8.05 -1.00 1.17
-7.98 -0.97 1.18
-7.75 -0.93 1.20
-7.94 -0.92 1.18
-7.94 -0.89 1.18
-8.12 -0.88 1.16
-8.14 -0.86 1.16
-8.20 -0.84 1.16
-8.29 -0.82 1.15
-8.18 -0.79 1.16
-7.92 -0.74 1.18
-7.76 -0.71 1.20
-8.08 -0.71 1.17
-7.77 -0.66 1.20
-8.17 -0.66 1.16
-8.20 -0.64 1.16
-7.91 -0.59 1.18
-8.20 -0.59 1.16
-8.67 -0.59 1.11
-10.20 -0.64 0.96
-8.86 -0.54 1.09
-9.23 -0.53 1.06
-8.95 -0.49 1.08
-11.01 -0.52 0.89
-9.32 -0.42 1.05
-9.05 -0.36 1.07
-11.86 -0.41 0.80
-9.44 -0.32 1.04
-9.65 -0.29 1.02
-9.64 -0.26 1.02
-10.83 -0.26 0.90
-11.06 -0.23 0.88
-9.12 -0.17 1.07
-9.18 -0.14 1.06
-9.22 -0.11 1.06
-2.90 -0.04 1.67
-9.40 -0.06 1.04
-8.94 -0.03 1.08
-9.23 -0.00 1.06
-10.38 0.00 1.11
-9.97 0.02 1.15
-10.16 0.05 1.13
-8.44 0.06 1.31
-8.42 0.08 1.31
-10.02 0.12 1.14
-10.54 0.15 1.09
-10.48 0.18 1.10
-9.73 0.21 1.17
-9.55 0.23 1.19
-8.81 0.24 1.27
-8.38 0.24 1.31
-8.36 0.26 1.31
-7.92 0.27 1.36
-8.16 0.30 1.33
-8.27 0.32 1.32
-8.22 0.34 1.33
-8.12 0.35 1.34
-8.25 0.38 1.32
-8.03 0.39 1.35
-7.98 0.41 1.35
-7.80 0.42 1.37
-7.83 0.44 1.37
-7.87 0.46 1.36
-8.07 0.49 1.34
-8.16 0.52 1.33
-8.23 0.54 1.32
-8.40 0.57 1.31
-8.20 0.58 1.33
-8.24 0.60 1.32
-8.39 0.63 1.31
-8.41 0.65 1.30
-8.45 0.68 1.30
-8.40 0.70 1.30
-8.34 0.71 1.31
-8.52 0.75 1.29
-8.45 0.76 1.30
-8.31 0.77 1.31
-8.60 0.82 1.28
-8.20 0.80 1.32
-5.88 0.67 1.56
-8.87 1.10 1.25
-4.42 0.88 1.70
-4.23 1.09 1.71
-4.03 1.66 1.71
-2.88 -1.46 1.62
-3.00 -1.28 1.62
-2.83 -1.21 1.63
-2.24 -0.87 1.70
-3.36 -1.04 1.58
-2.94 -0.96 1.62
-7.19 -1.31 1.19
-7.46 -1.26 1.16
-7.45 -1.21 1.16
-7.76 -1.22 1.13
-7.53 -1.17 1.15
-7.24 -1.11 1.18
-7.43 -1.11 1.16
-7.55 -1.10 1.15
-7.53 -1.07 1.15
-7.32 -1.03 1.18
-7.52 -1.03 1.16
-7.59 -1.01 1.15
-7.82 -1.01 1.12
-7.77 -0.98 1.13
-7.83 -0.96 1.12
-7.78 -0.93 1.13
-3.03 -0.49 1.62
-7.69 -0.87 1.14
-7.66 -0.85 1.14
-7.85 -0.84 1.12
-7.93 -0.82 1.11
-8.07 -0.80 1.10
-8.08 -0.78 1.10
-2.89 -0.39 1.63
-2.79 -0.36 1.64
-7.54 -0.67 1.15
-7.75 -0.66 1.13
-7.95 -0.65 1.11
-9.76 -0.73 0.93
-7.86 -0.59 1.12
-8.73 -0.62 1.03
-8.27 -0.57 1.08
-9.57 -0.60 0.95
-9.80 -0.59 0.92
-9.38 -0.54 0.97
-9.34 -0.51 0.97
-8.95 -0.47 1.01
-9.11 -0.44 0.99
-9.90 -0.45 0.91
-9.45 -0.34 1.21
-9.73 -0.33 1.18
-9.81 -0.31 1.17
-9.98 -0.29 1.15
-9.67 -0.26 1.18
-9.77 -0.24 1.17
-9.84 -0.21 1.17
-9.88 -0.19 1.16
-8.49 -0.14 1.30
-8.34 -0.12 1.32
-10.08 -0.12 1.14
-10.20 -0.10 1.13
-10.23 -0.07 1.12
-10.37 -0.05 1.11
-10.09 -0.02 1.14
-10.70 0.03 0.74
-10.43 0.06 0.77
-11.02 0.12 0.71
-6.95 0.13 1.15
-10.36 0.21 0.78
-6.65 0.17 1.19
-10.78 0.28 0.73
-10.59 0.31 0.75
-7.90 0.39 1.05
-8.35 0.43 1.00
-7.41 0.46 1.10
-8.00 0.39 1.30
-13.63 0.69 0.68
-8.09 0.45 1.29
-8.65 0.56 1.22
-8.08 0.55 1.29
-9.54 1.02 1.12
-7.02 -1.08 1.15
-7.04 -1.06 1.14
-7.52 -1.07 1.09
-7.42 -1.01 1.10
-7.47 -0.99 1.10
-7.82 -1.00 1.06
-7.85 -0.98 1.06
-7.66 -0.94 1.08
-8.12 -0.96 1.03
-8.05 -0.93 1.03
-7.78 -0.88 1.06
-7.91 -0.87 1.05
-7.92 -0.84 1.05
-8.19 -0.84 1.02
-8.08 -0.81 1.03
-8.23 -0.79 1.01
-8.24 -0.77 1.01
-8.27 -0.74 1.01
-8.48 -0.73 0.99
-8.02 -0.65 1.04
-1.48 -0.23 1.75
-12.13 -0.80 0.59
-8.80 -0.59 0.95
-9.38 -0.57 0.89
-10.17 -0.42 0.80
-9.91 -0.27 0.83
-10.10 -0.21 0.81
-9.73 -0.18 0.85
-9.92 -0.15 0.83
-10.50 -0.13 0.77
-10.66 -0.00 0.75
-10.05 0.00 1.01
-10.63 0.03 0.94
-9.94 0.05 1.02
-10.30 0.07 0.98
-10.71 0.10 0.93
-10.19 0.12 0.99
-8.41 0.12 1.19
-8.24 0.14 1.21
-9.57 0.18 1.06
-11.02 0.24 0.89
-10.69 0.26 0.93
-8.23 0.22 1.21
-10.88 0.31 0.91
-8.49 0.27 1.18
-8.02 0.27 1.24
-8.41 0.31 1.19
-8.23 0.34 1.21
-8.33 0.37 1.20
-7.74 0.36 1.27
-8.05 0.39 1.23
-8.43 0.43 1.19
-8.12 0.43 1.22
-8.16 0.46 1.22
-8.23 0.48 1.21
-8.28 0.50 1.21
-8.15 0.52 1.22
-9.05 0.59 1.12
-8.25 0.56 1.21
-8.55 0.60 1.17
-9.97 0.75 1.01
-10.16 0.79 0.99
-8.45 0.68 1.18
-9.83 0.81 1.02
-10.13 0.86 0.99
-8.39 0.76 1.19
-10.36 1.01 0.96
-3.80 0.64 1.71
-4.09 1.09 1.67
-4.07 1.31 1.66
-2.33 -1.33 1.62
-2.03 -0.92 1.66
-7.22 -1.30 1.05
-7.19 -1.25 1.06
-7.29 -1.21 1.05
-7.09 -1.17 1.07
-7.09 -1.14 1.07
-8.19 -1.25 0.94
-7.66 -1.14 1.00
-7.64 -1.11 1.01
-7.75 -1.10 0.99
-7.83 -1.08 0.98
-7.58 -1.03 1.01
-7.60 -1.01 1.01
-7.74 -1.00 1.00
-7.76 -0.98 0.99
-2.99 -0.51 1.55
-7.47 -0.90 1.03
-7.54 -0.88 1.02
-7.68 -0.87 1.00
-7.89 -0.87 0.98
-7.87 -0.84 0.98
-7.94 -0.82 0.97
-7.87 -0.79 0.98
-2.47 -0.37 1.61
-7.90 -0.74 0.98
-8.12 -0.74 0.95
-1.96 -0.30 1.67
-7.72 -0.66 1.00
-3.02 -0.34 1.54
-2.89 -0.32 1.56
-2.72 -0.30 1.58
-3.12 -0.31 1.53
-10.23 -0.57 0.99
-9.84 -0.52 1.03
-9.88 -0.50 1.03
-10.53 -0.51 0.95
-9.71 -0.45 1.05
-9.71 -0.42 1.05
-10.05 -0.41 1.01
-9.69 -0.37 1.05
-10.33 -0.37 0.98
-9.34 -0.31 1.09
-9.69 -0.30 1.05
-9.75 -0.28 1.04
-10.02 -0.26 1.01
-10.49 -0.25 0.96
-9.73 -0.21 1.04
-10.05 -0.19 1.01
-10.02 -0.17 1.01
-10.16 -0.15 0.99
-10.16 -0.12 0.99
-9.96 -0.10 1.02
-10.35 -0.08 0.97
-10.53 -0.05 0.95
-10.10 -0.02 1.00
-9.09 0.02 0.76
-9.75 0.05 0.68
-9.95 0.07 0.95
-10.13 0.10 0.93
-7.90 0.09 1.20
-8.00 0.14 1.19
-8.33 0.16 1.15
-8.11 0.18 1.17
-8.04 0.19 1.18
-8.69 0.23 1.10
-11.41 0.33 0.77
-8.22 0.26 1.16
-8.27 0.30 1.16
-7.72 0.32 1.22
-8.12 0.35 1.17
-8.06 0.37 1.18
-7.78 0.38 1.21
-8.13 0.41 1.17
-8.15 0.46 1.17
-7.70 0.45 1.22
-8.48 0.51 1.13
-10.05 0.63 0.93
-8.76 0.57 1.09
-9.93 0.67 0.95
-10.23 0.72 0.91
-10.16 0.76 0.92
-4.87 0.38 1.57
-9.90 0.79 0.95
-9.86 0.81 0.95
-10.12 0.86 0.92
-10.17 0.89 0.92
-10.73 1.01 0.85
-10.48 1.02 0.88
-4.20 0.63 1.64
-1.62 -1.05 1.68
-2.46 -1.18 1.57
-2.32 -1.03 1.59
-1.94 -0.93 1.64
-1.97 -0.84 1.64
-7.21 -1.27 0.99
-7.26 -1.25 0.99
-7.07 -1.21 1.01
-7.36 -1.22 0.97
-7.52 -1.17 0.95
-7.78 -1.17 0.92
-7.62 -1.08 0.94
-7.56 -1.05 0.95
-7.61 -1.03 0.94
-7.65 -1.01 0.94
-4.34 -0.67 1.35
-7.70 -0.97 0.93
-7.73 -0.95 0.93
-7.82 -0.93 0.92
-7.69 -0.90 0.94
-8.16 -0.91 0.88
-7.57 -0.84 0.95
-7.61 -0.82 0.95
-2.47 -0.39 1.58
-7.71 -0.78 0.93
-7.96 -0.77 0.90
-8.04 -0.75 0.89
-2.54 -0.35 1.57
-2.57 -0.34 1.57
-2.65 -0.33 1.56
-2.65 -0.32 1.56
-3.22 -0.34 1.49
-2.95 -0.31 1.52
-3.24 -0.31 1.48
-2.99 -0.29 1.51
-2.76 -0.26 1.54
-3.02 -0.26 1.51
-2.94 -0.25 1.52
-3.08 -0.24 1.50
-8.89 -0.46 0.79
-2.87 -0.21 1.53
-2.97 -0.20 1.51
-2.85 -0.18 1.53
-3.05 -0.17 1.50
-8.66 -0.32 0.82
-9.53 -0.32 0.71
-9.85 -0.30 0.67
-10.10 -0.27 0.64
-12.09 -0.28 0.40
-9.47 -0.20 0.72
-2.84 -0.08 1.53
-9.65 -0.15 0.70
-9.73 -0.12 0.69
-11.03 -0.10 0.52
-10.41 -0.07 0.60
-6.57 -0.03 1.07
-10.72 -0.00 0.56
-11.27 0.00 0.71
-7.64 0.02 1.18
-9.61 0.05 0.92
-7.73 0.06 1.17
-7.67 0.07 1.17
-7.67 0.09 1.17
-7.64 0.11 1.17
-7.87 0.13 1.15
-7.83 0.15 1.15
-8.09 0.18 1.12
-7.87 0.19 1.15
-7.82 0.21 1.15
-8.20 0.24 1.10
-7.85 0.25 1.15
-7.80 0.26 1.15
-7.93 0.29 1.14
-7.78 0.30 1.16
-8.09 0.33 1.12
-7.73 0.34 1.16
-7.79 0.36 1.15
-7.71 0.38 1.16
-7.81 0.40 1.15
-8.22 0.44 1.10
-7.74 0.43 1.16
-9.83 0.57 0.89
-10.06 0.61 0.86
-9.96 0.63 0.87
-7.49 0.49 1.19
-10.13 0.69 0.85
-8.48 0.60 1.06
-9.95 0.72 0.87
-5.39 0.41 1.46
-5.39 0.42 1.46
-9.98 0.80 0.87
-10.09 0.83 0.85
-10.03 0.85 0.86
-9.91 0.87 0.87
-9.98 0.90 0.86
-9.97 0.92 0.86
-10.12 0.96 0.84
-10.20 0.99 0.83
-7.86 0.82 1.14
-3.24 -1.64 1.43
-3.24 -1.40 1.43
-2.70 -1.25 1.50
-2.73 -1.23 1.50
-2.75 -1.22 1.50
-2.60 -1.17 1.52
-2.64 -1.17 1.51
-2.61 -1.14 1.52
-2.41 -1.08 1.54
-3.06 -1.20 1.46
-2.65 -1.08 1.51
-2.86 -0.98 1.49
-2.84 -0.76 1.49
-7.25 -1.25 0.92
-7.32 -1.24 0.91
-7.16 -1.20 0.93
-7.57 -1.22 0.87
-7.57 -1.20 0.87
-3.37 -0.68 1.42
-3.25 -0.66 1.44
-3.13 -0.63 1.45
-7.06 -1.05 0.94
-3.18 -0.59 1.45
-7.64 -1.04 0.87
-7.62 -1.01 0.87
-7.59 -0.98 0.87
-7.70 -0.97 0.86
-7.50 -0.93 0.89
-4.36 -0.62 1.29
-7.22 -0.86 0.92
-4.48 -0.60 1.28
-7.54 -0.84 0.88
-4.03 -0.53 1.34
-4.00 -0.51 1.34
-3.94 -0.49 1.35
-7.64 -0.75 0.87
-7.75 -0.73 0.85
-4.15 -0.46 1.32
-3.64 -0.41 1.39
-3.54 -0.39 1.40
-3.64 -0.38 1.39
-3.70 -0.37 1.38
-3.30 -0.33 1.43
-3.41 -0.32 1.42
-3.41 -0.31 1.42
-3.62 -0.31 1.39
-3.27 -0.28 1.44
-3.46 -0.27 1.41
-3.39 -0.25 1.42
-3.39 -0.24 1.42
-3.27 -0.22 1.44
-3.16 -0.20 1.45
-3.07 -0.19 1.46
-3.10 -0.17 1.46
-3.23 -0.17 1.44
-3.12 -0.15 1.46
-3.18 -0.14 1.45
-3.11 -0.12 1.46
-3.21 -0.11 1.44
-2.93 -0.09 1.48
-3.00 -0.08 1.47
-10.22 -0.15 0.84
-10.20 -0.12 0.85
-9.51 -0.09 0.94
-9.55 -0.07 0.93
-9.64 -0.05 0.92
-10.45 -0.03 0.81
-9.34 0.02 0.56
-6.32 0.04 0.98
-9.92 0.08 0.48
-9.21 0.11 0.58
-9.24 0.13 0.57
-3.02 0.08 1.43
-6.88 0.15 0.90
-3.26 0.11 1.40
-3.57 0.13 1.35
-3.56 0.14 1.35
-3.61 0.16 1.35
-7.74 0.22 1.11
-7.59 0.24 1.13
-7.79 0.26 1.10
-7.71 0.28 1.11
-7.91 0.31 1.08
-7.99 0.33 1.07
-8.34 0.36 1.02
-9.50 0.43 0.86
-7.80 0.38 1.09
-7.64 0.39 1.12
-7.84 0.42 1.09
-10.34 0.57 0.75
-10.25 0.59 0.76
-9.77 0.59 0.82
-7.90 0.50 1.08
-9.10 0.59 0.92
-9.81 0.66 0.82
-9.92 0.69 0.80
-9.70 0.70 0.83
-9.46 0.71 0.87
-9.15 0.71 0.91
-10.26 0.87 0.75
-10.11 0.88 0.77
-9.71 0.87 0.83
-10.34 0.95 0.74
-10.15 0.96 0.77
-10.24 0.99 0.75
-10.36 1.03 0.74
-10.35 1.05 0.74
-4.93 0.52 1.48
-5.05 0.55 1.46
-6.59 0.74 1.25
-1.86 -1.17 1.58
-2.57 -1.21 1.49
-2.41 -1.16 1.51
-2.50 -1.16 1.50
-2.56 -1.16 1.49
-2.28 -1.05 1.53
-2.29 -1.04 1.53
-2.70 -0.76 1.48
-1.90 -0.56 1.59
-7.55 -1.17 0.81
-7.77 -1.17 0.78
-2.92 -0.60 1.45
-7.73 -1.12 0.78
-7.65 -1.09 0.79
-7.63 -1.06 0.80
-7.63 -1.04 0.80
-7.65 -1.01 0.79
-7.60 -0.99 0.80
-7.52 -0.95 0.81
-7.77 -0.95 0.78
-7.77 -0.93 0.78
-8.04 -0.93 0.74
-4.45 -0.59 1.24
-7.88 -0.86 0.76
-1.87 -0.35 1.59
-7.52 -0.79 0.81
-7.75 -0.78 0.78
-7.82 -0.76 0.77
-2.14 -0.33 1.55
-2.42 -0.34 1.51
-4.21 -0.45 1.27
-3.98 -0.42 1.30
-3.99 -0.40 1.30
-3.28 -0.34 1.40
-3.63 -0.35 1.35
-3.44 -0.33 1.37
-3.20 -0.30 1.41
-3.89 -0.32 1.31
-3.41 -0.28 1.38
-3.61 -0.28 1.35
-3.25 -0.25 1.40
-3.16 -0.23 1.41
-3.05 -0.21 1.43
-3.12 -0.20 1.42
-3.16 -0.19 1.41
-3.08 -0.17 1.42
-3.04 -0.16 1.43
-2.96 -0.15 1.44
-3.13 -0.14 1.42
-3.13 -0.12 1.42
-3.14 -0.11 1.41
-3.13 -0.09 1.42
-3.05 -0.08 1.43
-3.10 -0.07 1.42
-2.88 -0.05 1.45
-2.80 -0.04 1.46
-9.38 -0.06 0.56
-2.91 -0.02 1.44
-9.90 -0.00 0.48
-7.78 0.00 1.04
-10.32 0.02 0.67
-7.70 0.04 1.05
-7.62 0.05 1.06
-7.50 0.07 1.08
-7.54 0.09 1.07
-7.50 0.11 1.08
-7.57 0.13 1.07
-7.58 0.15 1.07
-7.54 0.17 1.07
-7.68 0.19 1.05
-7.75 0.21 1.04
-7.80 0.23 1.03
-8.16 0.26 0.98
-7.72 0.26 1.05
-7.85 0.29 1.03
-7.83 0.30 1.03
-8.08 0.33 0.99
-7.91 0.34 1.02
-8.00 0.37 1.00
-7.99 0.39 1.00
-11.07 0.56 0.56
-10.81 0.58 0.60
-11.07 0.62 0.56
-10.02 0.58 0.71
-10.31 0.62 0.67
-8.04 0.51 1.00
-7.30 0.48 1.10
-7.39 0.50 1.09
-7.36 0.52 1.09
-7.55 0.55 1.07
-9.83 0.74 0.74
-9.45 0.73 0.79
-9.91 0.79 0.72
-9.89 0.82 0.73
-7.15 0.61 1.12
-9.79 0.85 0.74
-9.82 0.88 0.73
-10.05 0.93 0.70
-10.10 0.96 0.69
-6.95 0.68 1.15
-7.31 0.73 1.10
-7.23 0.74 1.11
-9.91 1.04 0.72
-10.09 1.08 0.69
-9.83 1.08 0.73
-9.90 1.11 0.72
-10.03 1.15 0.70
-10.24 1.19 0.67
-4.84 0.65 1.45
-4.50 0.62 1.50
-4.44 0.98 1.49
-3.96 1.00 1.56
-2.91 -1.48 1.39
-3.56 -1.57 1.29
-2.90 -1.33 1.39
-2.85 -1.28 1.40
-2.69 -1.22 1.43
-2.71 -1.22 1.42
-2.53 -1.15 1.45
-2.64 -1.16 1.44
-2.70 -1.17 1.43
-2.77 -1.17 1.42
-2.61 -1.12 1.44
-2.69 -1.12 1.43
-2.46 -1.06 1.46
-2.57 -1.05 1.45
-2.51 -1.01 1.46
-3.39 -0.80 1.33
-3.04 -0.72 1.38
-3.14 -0.72 1.37
-3.28 -0.70 1.35
-7.58 -1.20 0.72
-3.11 -0.65 1.37
-3.47 -0.68 1.32
-7.83 -1.16 0.69
-3.05 -0.61 1.38
-7.57 -1.08 0.73
-2.98 -0.57 1.39
-7.14 -0.99 0.79
-7.69 -1.02 0.71
-3.93 -0.63 1.26
-6.98 -0.90 0.81
-4.26 -0.63 1.21
-7.46 -0.90 0.74
-7.51 -0.88 0.74
-7.57 -0.86 0.73
-4.29 -0.57 1.20
-4.16 -0.54 1.22
-4.45 -0.55 1.18
-4.10 -0.50 1.23
-4.11 -0.49 1.23
-4.05 -0.47 1.24
-3.97 -0.45 1.25
-4.14 -0.44 1.22
-4.00 -0.42 1.25
-3.93 -0.40 1.26
-3.91 -0.38 1.26
-3.93 -0.37 1.26
-3.95 -0.35 1.25
-3.95 -0.34 1.25
-3.75 -0.31 1.28
-3.85 -0.30 1.27
-3.68 -0.28 1.29
-3.72 -0.27 1.29
-3.77 -0.26 1.28
-3.70 -0.24 1.29
-3.59 -0.22 1.30
-3.36 -0.20 1.34
-9.04 -0.31 0.86
-8.93 -0.28 0.88
-8.99 -0.26 0.87
-9.51 -0.25 0.79
-9.73 -0.24 0.76
-10.00 -0.22 0.72
-9.94 -0.19 0.73
-9.76 -0.17 0.76
-9.77 -0.14 0.75
-9.80 -0.12 0.75
-9.54 -0.09 0.79
-9.34 -0.07 0.81
-9.89 -0.05 0.74
-9.75 -0.02 0.76
-8.40 0.02 0.53
-9.73 0.05 0.32
-8.47 0.07 0.52
-9.27 0.11 0.39
-9.30 0.13 0.39
-9.55 0.17 0.35
-8.98 0.19 0.43
-8.74 0.21 0.47
-9.66 0.25 0.33
-9.21 0.27 0.40
-8.66 0.29 0.48
-9.10 0.33 0.42
-9.03 0.35 0.43
-9.03 0.38 0.43
-9.67 0.43 0.33
-8.56 0.41 0.50
-8.63 0.44 0.49
-8.37 0.46 0.53
-8.75 0.50 0.47
-11.01 0.56 0.49
-11.01 0.58 0.49
-11.10 0.61 0.47
-10.66 0.64 0.54
-10.93 0.68 0.50
-9.88 0.64 0.66
-10.34 0.70 0.59
-10.04 1.07 0.62
-0.89 -0.72 1.67
-1.56 -0.78 1.57
-2.69 -0.65 1.40
-7.73 -1.26 0.62
-7.18 -1.06 0.71
-7.70 -1.09 0.63
-7.30 -1.00 0.69
-7.31 -0.98 0.69
-6.91 -0.92 0.75
-7.69 -0.90 0.64
-7.84 -0.86 0.61
-7.39 -0.80 0.68
-8.45 -0.86 0.52
-7.53 -0.76 0.66
-7.68 -0.75 0.64
-8.42 -0.78 0.52
-7.37 -0.68 0.69
-7.66 -0.65 0.64
-7.40 -0.61 0.68
-7.80 -0.61 0.62
-8.01 -0.60 0.59
-1.90 -0.23 1.52
-8.23 -0.54 0.55
-8.45 -0.50 0.52
-2.70 -0.16 1.40
-8.57 -0.27 0.50
-9.45 -0.26 0.37
-2.38 -0.10 1.45
-2.35 -0.08 1.45
-2.34 -0.07 1.45
-8.73 -0.11 0.48
-9.44 -0.09 0.37
-8.14 -0.00 0.57
-11.20 -0.00 0.37
-7.95 0.02 0.89
-10.09 0.05 0.55
-8.12 0.06 0.86
-11.36 0.11 0.34
-11.16 0.13 0.38
-10.10 0.15 0.54
-10.80 0.18 0.43
-10.16 0.20 0.54
-10.96 0.24 0.41
-7.78 0.19 0.91
-10.81 0.29 0.43
-11.05 0.32 0.39
-9.78 0.31 0.59
-9.38 0.32 0.66
-9.44 0.34 0.65
-8.00 0.31 0.88
-9.56 0.39 0.63
-9.52 0.41 0.64
-11.02 0.51 0.40
-10.84 0.52 0.42
-10.89 0.55 0.41
-10.01 0.53 0.55
-10.21 0.57 0.52
-9.77 0.57 0.59
-10.27 0.62 0.51
-9.83 0.62 0.58
-10.06 0.66 0.54
-10.12 0.69 0.54
-8.33 0.59 0.82
-8.75 0.66 0.75
-8.25 0.64 0.83
-8.79 0.70 0.75
-8.80 0.73 0.74
-9.20 0.78 0.68
-9.25 0.81 0.67
-9.33 0.84 0.66
-8.91 0.82 0.72
-9.35 0.89 0.65
-9.48 0.92 0.63
-9.81 0.98 0.58
-9.91 1.01 0.56
-9.65 1.01 0.60
-6.68 0.72 1.08
-9.77 1.07 0.58
-9.84 1.10 0.57
-9.66 1.11 0.60
-9.69 1.13 0.59
-4.63 0.57 1.41
-9.62 1.17 0.60
-9.58 1.19 0.61
-9.68 1.23 0.59
-4.37 0.59 1.45
-3.75 1.01 1.52
-3.28 1.69 1.55
-2.56 -1.44 1.36
-2.93 -1.44 1.30
-2.45 -1.19 1.38
-2.46 -1.18 1.38
-2.27 -1.13 1.41
-2.45 -1.08 1.39
-1.35 -0.82 1.57
-2.34 -0.99 1.41
-3.13 -0.84 1.28
-3.09 -0.73 1.29
-7.27 -1.19 0.62
-3.32 -0.69 1.25
-2.78 -0.60 1.34
-2.92 -0.61 1.32
-3.10 -0.61 1.29
-2.81 -0.57 1.33
-7.35 -1.03 0.60
-2.79 -0.54 1.34
-7.34 -0.99 0.61
-2.97 -0.53 1.31
-7.56 -0.96 0.57
-3.28 -0.54 1.26
-2.46 -0.45 1.39
-7.39 -0.87 0.60
-7.51 -0.86 0.58
-4.11 -0.55 1.12
-4.14 -0.54 1.12
-4.36 -0.54 1.09
-2.26 -0.36 1.42
-4.30 -0.50 1.09
-4.57 -0.51 1.05
-3.82 -0.44 1.17
-4.04 -0.44 1.14
-3.95 -0.42 1.15
-3.77 -0.39 1.18
-3.87 -0.38 1.17
-3.70 -0.36 1.19
-3.79 -0.35 1.18
-9.24 -0.49 0.69
-10.32 -0.52 0.51
-9.22 -0.45 0.69
-9.65 -0.44 0.62
-9.92 -0.43 0.58
-9.88 -0.41 0.58
-9.38 -0.36 0.66
-9.87 -0.36 0.58
-9.22 -0.31 0.69
-9.55 -0.30 0.64
-8.88 -0.26 0.74
-9.72 -0.26 0.61
-9.33 -0.23 0.67
-9.55 -0.21 0.63
-10.58 -0.21 0.47
-9.77 -0.14 0.60
-9.67 -0.12 0.62
-9.55 -0.07 0.63
-11.22 -0.05 0.37
-4.19 0.01 1.06
-3.17 0.02 1.23
-4.94 0.05 0.93
-10.64 0.08 0.38
-10.73 0.10 0.36
-7.76 0.09 0.86
-7.60 0.11 0.88
-9.73 0.16 0.53
-9.66 0.19 0.54
-10.00 0.22 0.48
-9.67 0.23 0.54
-10.19 0.27 0.45
-9.73 0.28 0.52
-9.66 0.30 0.54
-9.51 0.32 0.56
-9.41 0.34 0.58
-9.18 0.35 0.62
-9.36 0.38 0.59
-4.40 0.20 1.42
-4.49 0.21 1.40
-4.69 0.23 1.37
-4.43 0.23 1.41
-10.12 0.54 0.46
-9.80 0.54 0.51
-4.89 0.29 1.33
-4.88 0.30 1.33
-10.22 0.64 0.44
-4.98 0.33 1.32
-6.93 0.47 0.99
-6.77 0.48 1.02
-9.48 0.69 0.56
-6.51 0.49 1.06
-9.32 0.72 0.59
-9.22 0.74 0.60
-9.16 0.75 0.61
-9.47 0.80 0.56
-9.04 0.79 0.63
-6.49 0.59 1.06
-9.01 0.83 0.64
-5.23 0.50 1.27
-4.41 0.44 1.41
-4.99 0.50 1.31
-9.52 0.97 0.55
-9.50 0.99 0.55
-9.65 1.03 0.53
-4.94 0.55 1.32
-9.79 1.09 0.50
-5.00 0.58 1.31
-5.02 0.60 1.30
-4.85 0.59 1.33
-4.76 0.59 1.35
-4.86 0.62 1.33
-9.45 1.20 0.55
-4.60 0.61 1.37
-4.64 0.69 1.36
-4.76 0.75 1.34
-6.73 1.11 1.01
-3.62 0.97 1.51
-2.34 -1.38 1.36
-2.85 -1.44 1.27
-2.87 -1.43 1.27
-2.79 -1.35 1.29
-2.89 -1.36 1.27
-2.73 -1.29 1.30
-2.69 -1.23 1.30
-2.44 -1.16 1.35
-2.74 -1.22 1.30
-2.51 -1.15 1.34
-2.44 -1.12 1.35
-2.36 -1.09 1.36
-2.39 -1.08 1.36
-2.36 -1.06 1.36
-2.50 -1.08 1.34
-2.49 -1.06 1.34
-2.12 -0.97 1.41
-2.32 -0.99 1.37
-1.85 -0.88 1.45
-2.10 -0.92 1.41
-2.09 -0.91 1.41
-2.00 -0.86 1.43
-2.25 -0.90 1.39
-2.19 -0.83 1.40
-6.55 -1.60 0.65
-6.80 -1.48 0.61
-3.02 -0.85 1.26
-3.94 -0.96 1.10
-2.26 -0.70 1.39
-2.82 -0.77 1.29
-3.15 -0.79 1.24
-4.22 -0.91 1.06
-6.86 -1.22 0.61
-3.98 -0.83 1.10
-3.56 -0.76 1.17
-5.93 -1.04 0.77
-7.55 -1.15 0.49
-2.92 -0.60 1.28
-3.14 -0.62 1.24
-3.21 -0.61 1.23
-3.16 -0.59 1.24
-3.07 -0.57 1.25
-4.36 -0.68 1.03
-2.76 -0.51 1.30
-3.09 -0.53 1.25
-2.96 -0.50 1.27
-4.50 -0.63 1.01
-4.39 -0.61 1.03
-4.36 -0.59 1.03
-2.41 -0.41 1.36
-3.90 -0.52 1.11
-3.96 -0.51 1.10
-4.04 -0.50 1.09
-3.98 -0.48 1.10
-3.78 -0.45 1.13
-3.69 -0.43 1.15
-3.87 -0.42 1.12
-3.48 -0.38 1.18
-3.53 -0.37 1.17
-3.48 -0.36 1.18
-3.43 -0.34 1.19
-3.63 -0.34 1.16
-3.44 -0.31 1.19
-3.35 -0.29 1.21
-4.40 -0.33 1.03
-3.39 -0.27 1.20
-3.66 -0.27 1.15
-3.15 -0.23 1.24
-3.23 -0.22 1.22
-2.94 -0.20 1.27
-2.95 -0.18 1.27
-3.24 -0.18 1.22
-3.36 -0.17 1.20
-3.05 -0.15 1.25
-3.14 -0.14 1.24
-3.08 -0.12 1.25
-2.96 -0.11 1.27
-2.80 -0.09 1.30
-2.87 -0.08 1.28
-2.81 -0.07 1.29
-2.91 -0.05 1.28
-2.88 -0.04 1.28
-3.01 -0.03 1.26
-2.92 -0.02 1.27
-2.98 -0.00 1.26
-9.28 -0.00 0.53
-9.31 0.02 0.52
-7.56 0.04 0.83
-7.62 0.06 0.82
-7.67 0.07 0.81
-7.55 0.09 0.83
-10.29 0.17 0.35
-9.70 0.19 0.45
-7.53 0.16 0.83
-9.66 0.23 0.46
-9.81 0.26 0.43
-9.66 0.28 0.45
-9.86 0.31 0.42
-9.98 0.34 0.40
-9.96 0.36 0.40
-9.80 0.38 0.43
-9.89 0.41 0.41
-9.75 0.42 0.44
-9.55 0.44 0.47
-9.07 0.44 0.56
-9.08 0.46 0.55
-9.77 0.52 0.43
-9.85 0.55 0.42
-9.83 0.57 0.42
-6.10 0.37 1.08
-10.06 0.63 0.38
-6.27 0.41 1.05
-6.00 0.41 1.09
-6.07 0.43 1.08
-5.82 0.43 1.12
-6.29 0.48 1.04
-6.02 0.47 1.09
-6.23 0.50 1.05
-6.56 0.55 0.99
-6.32 0.54 1.04
-9.05 0.79 0.55
-6.66 0.60 0.97
-8.74 0.81 0.61
-6.50 0.62 1.00
-6.80 0.67 0.95
-6.59 0.66 0.99
-9.42 0.96 0.48
-9.51 0.99 0.47
-6.96 0.75 0.92
-6.80 0.75 0.95
-6.84 0.77 0.94
-4.84 0.56 1.29
-4.84 0.58 1.29
-6.84 0.82 0.94
-6.86 0.84 0.93
-5.28 0.67 1.21
-4.98 0.64 1.26
-7.01 0.95 0.90
-6.96 0.96 0.91
-7.03 0.98 0.90
-6.94 0.99 0.91
-6.93 1.01 0.92
-6.96 1.03 0.91
-6.83 1.03 0.93
-6.76 1.03 0.94
-6.92 1.07 0.91
-4.93 0.79 1.27
-7.19 1.15 0.86
-7.00 1.14 0.90
-7.00 1.16 0.90
-6.79 1.14 0.93
-3.02 -1.50 1.19
-3.06 -1.47 1.19
-3.09 -1.31 1.19
-2.68 -1.20 1.26
-2.74 -1.18 1.25
-2.85 -1.20 1.23
-2.53 -1.11 1.29
-2.52 -1.10 1.29
-6.05 -1.65 0.66
-6.23 -1.65 0.63
-6.40 -1.66 0.60
-6.32 -1.62 0.62
-6.30 -1.60 0.62
-6.41 -1.57 0.60
-6.33 -1.54 0.62
-2.01 -0.76 1.39
-6.36 -1.48 0.61
-6.17 -1.42 0.65
-6.25 -1.42 0.63
-6.11 -1.33 0.66
-3.61 -0.91 1.11
-3.97 -0.95 1.04
-4.11 -0.96 1.02
-4.25 -0.96 0.99
-3.96 -0.89 1.04
-3.89 -0.87 1.06
-3.84 -0.83 1.07
-3.75 -0.80 1.08
-3.76 -0.79 1.08
-4.00 -0.80 1.04
-4.29 -0.81 0.99
-5.71 -0.96 0.73
-7.20 -1.09 0.47
-3.69 -0.68 1.09
-3.79 -0.67 1.08
-4.70 -0.75 0.92
-3.64 -0.61 1.10
-3.95 -0.63 1.05
-4.35 -0.64 0.98
-4.20 -0.61 1.00
-4.33 -0.60 0.98
-4.06 -0.56 1.03
-3.94 -0.52 1.05
-3.86 -0.50 1.07
-3.88 -0.47 1.06
-3.80 -0.45 1.08
-3.77 -0.43 1.08
-3.70 -0.41 1.09
-3.91 -0.40 1.06
-4.10 -0.39 1.02
-6.31 -0.48 0.63
-3.98 -0.34 1.04
-4.42 -0.35 0.96
-4.70 -0.34 0.92
-3.69 -0.27 1.09
-3.21 -0.23 1.18
-3.37 -0.21 1.15
-6.35 -0.30 0.62
-3.66 -0.19 1.10
-3.41 -0.17 1.14
-3.29 -0.15 1.17
-2.97 -0.13 1.22
-3.08 -0.12 1.20
-3.44 -0.10 1.14
-9.59 -0.14 0.47
-9.44 -0.11 0.50
-9.35 -0.09 0.51
-9.28 -0.07 0.53
-7.41 -0.04 0.85
-9.46 -0.02 0.49
-2.63 0.01 1.24
-2.60 0.02 1.24
-2.49 0.03 1.26
-4.30 0.06 0.92
-4.41 0.08 0.90
-4.32 0.09 0.92
-4.33 0.11 0.92
-4.39 0.13 0.91
-4.27 0.14 0.93
-4.07 0.15 0.97
-3.35 0.15 1.10
-9.90 0.38 0.32
-10.05 0.41 0.30
-6.36 0.28 0.98
-5.81 0.27 1.08
-4.90 0.24 1.25
-5.78 0.30 1.08
-5.59 0.30 1.12
-5.91 0.33 1.06
-5.60 0.33 1.12
-5.24 0.32 1.18
-5.27 0.34 1.18
-6.16 0.41 1.01
-5.20 0.36 1.19
-5.77 0.41 1.08
-5.48 0.40 1.14
-5.40 0.41 1.15
-5.75 0.45 1.09
-5.22 0.42 1.18
-5.38 0.45 1.15
-5.33 0.46 1.16
-5.16 0.46 1.19
-5.00 0.46 1.22
-4.95 0.46 1.23
-4.76 0.46 1.27
-4.80 0.47 1.26
-4.77 0.48 1.27
-4.83 0.50 1.25
-4.79 0.51 1.26
-4.73 0.51 1.27
-4.83 0.54 1.25
-4.95 0.56 1.23
-4.74 0.55 1.27
-4.84 0.58 1.25
-4.79 0.58 1.26
-6.97 0.85 0.85
-4.71 0.60 1.27
-4.82 0.62 1.25
-4.51 0.59 1.31
-4.42 0.59 1.32
-7.06 0.95 0.83
-6.86 0.94 0.87
-4.29 0.61 1.35
-7.22 1.03 0.80
-6.96 1.01 0.85
-4.25 0.64 1.35
-6.98 1.04 0.84
-6.87 1.10 0.86
-7.10 1.37 0.81
-3.94 0.94 1.39
-3.79 0.94 1.42
-4.20 1.07 1.34
-3.52 1.38 1.44
-1.57 -1.24 1.42
-2.77 -1.43 1.20
-2.82 -1.43 1.19
-2.72 -1.38 1.21
-2.69 -1.36 1.21
-2.58 -1.24 1.24
-2.65 -1.25 1.22
-2.43 -1.17 1.27
-2.60 -1.20 1.24
-2.57 -1.18 1.24
-2.50 -1.15 1.25
-2.55 -1.15 1.24
-2.60 -1.14 1.24
-2.39 -1.08 1.28
-1.54 -0.86 1.44
-2.43 -1.00 1.27
-6.01 -1.68 0.60
-1.97 -0.86 1.36
-1.94 -0.85 1.36
-1.70 -0.79 1.41
-1.73 -0.79 1.41
-6.13 -1.60 0.58
-1.81 -0.78 1.39
-6.33 -1.60 0.54
-2.11 -0.82 1.33
-6.23 -1.54 0.56
-6.61 -1.58 0.49
-0.90 -0.58 1.56
-6.34 -1.49 0.54
-6.39 -1.48 0.53
-6.30 -1.45 0.55
-6.16 -1.40 0.57
-6.08 -1.37 0.59
-5.95 -1.33 0.61
-6.03 -1.32 0.60
-5.49 -1.22 0.70
-5.51 -1.20 0.70
-5.02 -1.11 0.79
-5.07 -1.10 0.78
-3.62 -0.87 1.05
-3.86 -0.89 1.01
-3.58 -0.84 1.06
-4.09 -0.89 0.97
-4.00 -0.86 0.98
-4.17 -0.87 0.95
-4.19 -0.86 0.95
-3.80 -0.79 1.02
-3.38 -0.72 1.10
-2.99 -0.66 1.17
-3.98 -0.77 0.99
-3.88 -0.74 1.01
-3.95 -0.73 0.99
-3.66 -0.69 1.05
-3.42 -0.64 1.09
-3.53 -0.64 1.07
-3.66 -0.64 1.05
-3.58 -0.62 1.06
-3.40 -0.59 1.10
-3.40 -0.57 1.10
-3.48 -0.57 1.08
-3.96 -0.60 0.99
-3.77 -0.57 1.03
-3.57 -0.53 1.06
-3.57 -0.52 1.06
-3.51 -0.50 1.08
-3.35 -0.47 1.11
-3.16 -0.44 1.14
-3.62 -0.46 1.06
-3.19 -0.42 1.14
-3.33 -0.42 1.11
-4.48 -0.48 0.90
-3.02 -0.37 1.17
-3.17 -0.36 1.14
-3.12 -0.35 1.15
-2.89 -0.32 1.19
-3.24 -0.33 1.13
-3.13 -0.31 1.15
-2.90 -0.28 1.19
-2.79 -0.27 1.21
-2.95 -0.26 1.18
-2.96 -0.25 1.18
-2.99 -0.24 1.17
-2.91 -0.22 1.19
-2.55 -0.19 1.25
-2.75 -0.19 1.22
-2.51 -0.17 1.26
-2.65 -0.16 1.23
-2.61 -0.15 1.24
-2.39 -0.13 1.28
-2.73 -0.13 1.22
-2.64 -0.11 1.24
-2.68 -0.10 1.23
-2.60 -0.09 1.24
-2.71 -0.08 1.22
-2.88 -0.07 1.19
-2.39 -0.05 1.28
-2.66 -0.04 1.23
-2.77 -0.03 1.21
-2.99 -0.02 1.17
-2.79 -0.00 1.21
-8.46 0.29 0.51
-9.14 0.40 0.38
-8.27 0.40 0.55
-8.42 0.45 0.52
-8.38 0.49 0.53
-8.37 0.53 0.53
-8.64 0.59 0.47
-5.41 0.40 1.10
-5.07 0.40 1.16
-6.13 0.51 0.96
-5.48 0.49 1.08
-5.02 0.47 1.17
-6.61 0.65 0.86
-6.85 0.70 0.81
-6.77 0.73 0.83
-6.72 0.76 0.84
-4.91 0.59 1.19
-6.66 0.82 0.85
-5.14 0.67 1.14
-6.92 0.92 0.79
-6.91 0.95 0.80
-6.83 0.98 0.81
-6.84 1.01 0.81
-6.99 1.07 0.77
-6.86 1.12 0.80
-6.85 1.15 0.80
-7.42 1.28 0.68
-7.52 1.34 0.66
-7.68 1.40 0.63
-7.61 1.43 0.64
-7.70 1.60 0.62
-2.72 -1.50 1.15
-2.56 -1.43 1.19
-3.06 -1.53 1.09
-2.79 -1.43 1.14
-2.94 -1.46 1.11
-2.99 -1.46 1.10
-2.93 -1.43 1.12
-2.86 -1.40 1.13
-2.75 -1.36 1.15
-2.78 -1.35 1.15
-2.77 -1.33 1.15
-2.82 -1.33 1.14
-2.94 -1.35 1.12
-2.74 -1.27 1.16
-2.68 -1.25 1.17
-2.76 -1.25 1.15
-3.08 -1.32 1.09
-2.97 -1.28 1.11
-2.71 -1.21 1.17
-2.70 -1.19 1.17
-2.69 -1.18 1.17
-2.75 -1.16 1.16
-2.55 -1.11 1.20
-3.85 -1.35 0.94
-2.64 -1.08 1.18
-2.44 -1.01 1.22
-2.68 -1.03 1.18
-2.98 -1.08 1.12
-2.99 -1.06 1.12
-6.11 -1.65 0.50
-6.20 -1.64 0.48
-2.44 -0.92 1.22
-6.13 -1.59 0.50
-6.30 -1.60 0.47
-6.28 -1.57 0.47
-2.87 -0.95 1.14
-6.22 -1.52 0.48
-6.06 -1.47 0.51
-6.12 -1.46 0.50
-6.10 -1.44 0.51
-5.97 -1.39 0.53
-5.97 -1.37 0.53
-6.15 -1.38 0.50
-5.76 -1.30 0.58
-5.95 -1.31 0.54
-3.76 -0.95 0.97
-6.03 -1.28 0.52
-5.18 -1.13 0.69
-4.67 -1.04 0.79
-4.78 -1.04 0.77
-4.20 -0.94 0.88
-3.89 -0.88 0.94
-4.06 -0.89 0.91
-4.20 -0.89 0.88
-3.89 -0.84 0.94
-3.83 -0.81 0.96
-3.85 -0.80 0.95
-3.73 -0.77 0.98
-4.02 -0.79 0.92
-3.73 -0.74 0.98
-3.73 -0.73 0.98
-3.87 -0.73 0.95
-3.71 -0.70 0.98
-3.66 -0.67 0.99
-4.12 -0.71 0.90
-3.78 -0.66 0.97
-3.90 -0.66 0.94
-4.00 -0.65 0.92
-3.99 -0.63 0.93
-4.09 -0.63 0.91
-4.06 -0.61 0.91
-4.16 -0.60 0.89
-3.74 -0.55 0.98
-3.60 -0.52 1.00
-3.88 -0.53 0.95
-3.50 -0.49 1.02
-3.76 -0.49 0.97
-3.78 -0.48 0.97
-3.48 -0.44 1.03
-4.20 -0.48 0.89
-3.73 -0.43 0.98
-3.67 -0.41 0.99
-3.34 -0.38 1.05
-3.45 -0.37 1.03
-3.43 -0.35 1.04
-3.46 -0.34 1.03
-3.48 -0.33 1.03
-3.17 -0.30 1.09
-3.11 -0.28 1.10
-3.23 -0.27 1.08
-3.08 -0.25 1.10
-3.10 -0.24 1.10
-2.89 -0.22 1.14
-2.91 -0.21 1.14
-2.75 -0.19 1.17
-4.79 -0.17 1.23
-4.74 -0.14 1.24
-4.73 -0.12 1.24
-4.75 -0.09 1.24
-9.51 -0.14 0.32
-9.30 -0.09 0.36
-9.52 -0.05 0.31
-2.59 0.01 1.16
-2.41 0.02 1.19
-2.41 0.03 1.19
-2.38 0.04 1.20
-2.70 0.06 1.14
-2.62 0.07 1.15
-3.64 0.10 0.94
-3.58 0.11 0.96
-2.75 0.11 1.12
-3.65 0.14 0.94
-3.70 0.16 0.93
-3.27 0.16 1.02
-3.89 0.19 0.89
-3.67 0.20 0.94
-3.71 0.22 0.93
-3.72 0.23 0.93
-3.44 0.25 0.98
-3.38 0.26 0.99
-4.97 0.24 1.15
-5.18 0.26 1.11
-5.38 0.29 1.06
-4.88 0.27 1.17
-4.88 0.29 1.17
-4.91 0.30 1.16
-4.86 0.31 1.17
-4.51 0.30 1.24
-4.85 0.33 1.17
-4.65 0.33 1.21
-4.70 0.35 1.20
-4.62 0.35 1.21
-4.65 0.37 1.21
-4.52 0.37 1.23
-4.64 0.39 1.21
-4.82 0.42 1.17
-4.57 0.41 1.22
-4.73 0.43 1.19
-4.62 0.43 1.21
-4.63 0.45 1.21
-5.15 0.51 1.10
-4.94 0.50 1.15
-4.83 0.50 1.17
-4.73 0.50 1.19
-4.54 0.49 1.23
-4.64 0.52 1.21
-4.74 0.54 1.18
-4.82 0.56 1.17
-7.36 1.25 0.64
-2.77 -1.47 1.11
-2.92 -1.48 1.07
-2.28 -1.29 1.21
-2.70 -1.40 1.12
-2.48 -1.30 1.17
-2.67 -1.34 1.13
-2.58 -1.30 1.15
-2.68 -1.32 1.13
-2.42 -1.22 1.18
-2.67 -1.28 1.13
-2.45 -1.21 1.18
-2.62 -1.24 1.14
-2.52 -1.13 1.17
-2.22 -1.02 1.23
-1.57 -0.83 1.36
-1.89 -0.88 1.30
-1.99 -0.87 1.28
-1.84 -0.83 1.31
-6.20 -1.57 0.42
-1.81 -0.76 1.32
-1.60 -0.71 1.36
-5.80 -1.42 0.50
-1.85 -0.65 1.31
-1.72 -0.60 1.34
-3.45 -0.79 0.99
-3.72 -0.81 0.93
-3.31 -0.74 1.01
-2.81 -0.66 1.12
-3.36 -0.72 1.00
-1.05 -0.43 1.47
-2.97 -0.65 1.08
-2.94 -0.63 1.09
-2.78 -0.60 1.12
-3.14 -0.63 1.05
-2.73 -0.57 1.13
-2.77 -0.56 1.13
-2.94 -0.57 1.09
-3.22 -0.58 1.03
-3.04 -0.55 1.07
-3.46 -0.58 0.98
-3.09 -0.53 1.06
-3.46 -0.55 0.99
-3.12 -0.51 1.05
-2.85 -0.47 1.11
-2.71 -0.44 1.14
-2.59 -0.42 1.16
-3.08 -0.45 1.06
-2.99 -0.43 1.08
-3.07 -0.42 1.06
-2.84 -0.39 1.11
-2.53 -0.36 1.17
-2.68 -0.36 1.14
-2.66 -0.34 1.15
-2.75 -0.34 1.13
-2.87 -0.33 1.11
-2.66 -0.31 1.15
-2.59 -0.29 1.16
-2.78 -0.29 1.12
-2.72 -0.27 1.14
-2.76 -0.26 1.13
-2.50 -0.24 1.18
-2.50 -0.23 1.18
-2.53 -0.22 1.17
-2.45 -0.20 1.19
-2.26 -0.18 1.23
-2.33 -0.17 1.21
-2.35 -0.16 1.21
-2.53 -0.16 1.17
-2.48 -0.14 1.18
-2.46 -0.13 1.19
-2.44 -0.12 1.19
-2.36 -0.11 1.21
-2.57 -0.10 1.16
-2.52 -0.09 1.17
-2.62 -0.08 1.15
-2.63 -0.06 1.15
-2.63 -0.05 1.15
-2.32 -0.04 1.21
-2.55 -0.03 1.17
-2.27 -0.02 1.22
-2.18 -0.00 1.24
-5.09 0.00 1.07
-4.95 0.05 1.10
-5.43 0.07 1.00
-5.29 0.08 1.03
-5.11 0.09 1.07
-5.43 0.11 1.00
-5.75 0.18 0.93
-5.68 0.20 0.94
-5.54 0.20 0.97
-5.51 0.22 0.98
-5.49 0.23 0.98
-5.42 0.24 1.00
-5.35 0.25 1.01
-5.84 0.29 0.91
-5.59 0.29 0.96
-7.84 0.42 0.49
-7.70 0.43 0.51
-8.41 0.51 0.36
-5.93 0.38 0.89
-7.98 0.52 0.45
-5.41 0.37 1.00
-5.00 0.36 1.08
-5.80 0.43 0.91
-7.93 0.60 0.46
-4.95 0.39 1.09
-5.48 0.45 0.98
-5.82 0.49 0.91
-5.72 0.49 0.93
-5.60 0.51 0.95
-5.47 0.51 0.98
-4.90 0.47 1.10
-4.86 0.48 1.11
-5.61 0.57 0.95
-6.23 0.64 0.82
-4.72 0.50 1.14
-4.80 0.53 1.12
-5.48 0.61 0.97
-6.42 0.73 0.77
-6.08 0.71 0.85
-4.94 0.59 1.09
-4.82 0.59 1.11
-5.46 0.68 0.98
-6.01 0.76 0.86
-6.44 0.83 0.77
-5.29 0.70 1.01
-6.63 0.88 0.72
-6.36 0.86 0.78
-6.67 0.92 0.71
-6.57 0.92 0.74
-4.84 0.70 1.10
-6.61 0.96 0.72
-7.02 1.05 0.64
-7.20 1.10 0.60
-7.26 1.13 0.58
-7.16 1.13 0.60
-4.97 0.81 1.07
-7.36 1.20 0.56
-4.48 0.75 1.17
-7.16 1.20 0.60
-7.38 1.26 0.55
-7.89 1.36 0.44
-7.85 1.38 0.45
-7.73 1.38 0.47
-7.60 1.37 0.50
-7.90 1.44 0.44
-7.59 1.41 0.50
-7.24 1.36 0.58
-7.98 1.52 0.42
-7.80 1.50 0.46
-7.61 1.51 0.49
-7.84 1.57 0.44
-7.68 1.56 0.48
-7.53 1.55 0.51
-7.52 1.57 0.51
-7.25 1.53 0.56
-7.25 1.55 0.56
-7.15 1.55 0.59
-7.41 1.62 0.53
-2.48 -1.35 1.11
-2.60 -1.37 1.09
-2.49 -1.30 1.11
-2.83 -1.38 1.04
-2.53 -1.29 1.10
-2.49 -1.26 1.11
-2.71 -1.31 1.06
-2.80 -1.32 1.05
-2.75 -1.29 1.06
-2.56 -1.23 1.10
-2.64 -1.24 1.08
-2.91 -1.29 1.02
-2.70 -1.23 1.07
-2.71 -1.22 1.07
-2.59 -1.18 1.09
-2.79 -1.21 1.05
-2.53 -1.14 1.11
-2.75 -1.18 1.06
-2.83 -1.18 1.04
-2.83 -1.17 1.04
-2.78 -1.14 1.06
-2.69 -1.11 1.08
-2.59 -1.08 1.10
-2.73 -1.10 1.07
-2.51 -1.04 1.12
-2.80 -1.09 1.05
-2.68 -1.05 1.08
-2.78 -1.06 1.06
-2.79 -1.04 1.06
-2.77 -1.03 1.06
-2.77 -1.02 1.06
-2.72 -1.00 1.07
-2.81 -1.00 1.05
-2.56 -0.94 1.11
-2.88 -0.99 1.04
-2.75 -0.95 1.07
-3.06 -0.99 1.00
-2.80 -0.93 1.06
-3.05 -0.96 1.00
-3.15 -0.97 0.98
-3.12 -0.95 0.99
-3.22 -0.95 0.97
-3.28 -0.95 0.95
-3.35 -0.95 0.94
-3.46 -0.95 0.92
-3.58 -0.96 0.89
-3.55 -0.94 0.90
-3.61 -0.93 0.89
-3.66 -0.92 0.88
-3.77 -0.92 0.85
-4.10 -0.96 0.78
-3.37 -0.84 0.94
-3.52 -0.85 0.91
-3.36 -0.81 0.94
-3.31 -0.79 0.95
-3.41 -0.79 0.93
-3.45 -0.78 0.92
-3.85 -0.82 0.84
-4.00 -0.82 0.81
-3.96 -0.80 0.81
-3.92 -0.78 0.82
-3.76 -0.75 0.86
-4.25 -0.79 0.75
-3.91 -0.73 0.83
-3.70 -0.70 0.87
-3.66 -0.68 0.88
-3.79 -0.67 0.85
-3.41 -0.62 0.93
-3.97 -0.66 0.81
-3.55 -0.61 0.90
-3.93 -0.63 0.82
-3.74 -0.59 0.86
-4.07 -0.61 0.79
-3.22 -0.52 0.97
-3.86 -0.56 0.84
-3.79 -0.54 0.85
-3.65 -0.51 0.88
-4.16 -0.54 0.77
-3.88 -0.50 0.83
-3.73 -0.48 0.86
-3.71 -0.46 0.87
-3.55 -0.43 0.90
-4.18 -0.46 0.77
-4.08 -0.44 0.79
-3.45 -0.38 0.92
-3.82 -0.39 0.85
-3.32 -0.35 0.95
-4.30 -0.39 0.74
-3.62 -0.34 0.89
-7.93 -0.44 0.48
-4.60 -0.20 1.18
-4.61 -0.18 1.18
-4.53 -0.17 1.19
-4.45 -0.15 1.21
-4.64 -0.15 1.17
-4.36 -0.13 1.23
-4.15 -0.11 1.27
-4.62 -0.11 1.17
-4.35 -0.10 1.23
-4.50 -0.09 1.20
-4.38 -0.06 1.22
-3.82 -0.05 1.34
-4.30 -0.04 1.24
-4.47 -0.03 1.20
-4.58 -0.02 1.18
-4.83 -0.01 1.13
-3.16 0.01 0.93
-3.27 0.02 0.91
-3.36 0.04 0.89
-4.55 0.03 1.14
-4.89 0.05 1.07
-4.82 0.06 1.09
-4.78 0.07 1.09
-4.98 0.08 1.05
-5.44 0.11 0.95
-5.48 0.12 0.94
-5.26 0.13 0.99
-5.43 0.14 0.95
-5.41 0.16 0.95
-5.34 0.17 0.97
-5.46 0.19 0.94
-5.38 0.20 0.96
-5.41 0.21 0.95
-5.29 0.22 0.98
-5.42 0.24 0.95
-5.38 0.25 0.96
-5.49 0.27 0.93
-5.25 0.27 0.99
-5.26 0.28 0.98
-5.38 0.30 0.96
-4.72 0.28 1.10
-4.81 0.30 1.08
-4.74 0.30 1.09
-4.77 0.32 1.09
-4.68 0.32 1.11
-4.64 0.33 1.12
-4.98 0.37 1.04
-4.75 0.36 1.09
-4.73 0.37 1.10
-4.77 0.39 1.09
-4.61 0.39 1.12
-5.29 0.45 0.97
-4.68 0.42 1.11
-4.99 0.46 1.04
-5.01 0.47 1.03
-4.75 0.46 1.09
-5.43 0.54 0.94
-4.82 0.49 1.07
-5.99 0.62 0.81
-6.16 0.65 0.77
-5.05 0.55 1.02
-6.45 0.71 0.71
-5.74 0.66 0.86
-6.22 0.73 0.76
-6.10 0.73 0.78
-5.86 0.72 0.84
-6.20 0.78 0.76
-5.96 0.76 0.81
-5.17 0.68 0.99
-5.46 0.73 0.92
-5.16 0.70 0.99
-6.31 0.87 0.73
-6.26 0.88 0.74
-7.12 1.01 0.55
-4.94 0.72 1.04
-4.87 0.73 1.05
-6.25 0.94 0.74
-4.82 0.75 1.06
-4.92 0.77 1.04
-4.44 0.71 1.14
-6.82 1.09 0.61
-4.34 0.72 1.17
-4.21 0.71 1.19
-7.05 1.18 0.56
-4.50 0.78 1.13
-6.89 1.19 0.59
-3.87 0.70 1.27
-3.77 0.69 1.29
-3.77 0.70 1.29
-4.04 0.75 1.23
-4.07 0.77 1.22
-3.91 0.75 1.25
-3.79 0.74 1.28
-7.47 1.44 0.45
-7.23 1.41 0.51
-7.25 1.45 0.50
-7.81 1.58 0.37
-7.41 1.52 0.46
-7.23 1.51 0.50
-7.28 1.53 0.49
-2.78 -1.09 1.01
-2.77 -1.08 1.01
-2.53 -1.01 1.07
-2.71 -1.04 1.03
-2.73 -1.03 1.02
-2.52 -0.98 1.07
-2.89 -1.04 0.99
-2.53 -0.95 1.07
-2.73 -0.98 1.03
-2.90 -1.00 0.99
-2.98 -1.00 0.97
-2.94 -0.98 0.98
-3.06 -0.99 0.95
-2.57 -0.89 1.06
-2.05 -0.79 1.18
-2.53 -0.86 1.07
-3.13 -0.95 0.94
-3.10 -0.93 0.94
-3.24 -0.94 0.91
-3.24 -0.92 0.91
-3.35 -0.93 0.89
-3.32 -0.91 0.90
-3.31 -0.90 0.90
-3.09 -0.85 0.95
-3.22 -0.85 0.92
-3.00 -0.81 0.97
-3.08 -0.81 0.95
-3.04 -0.79 0.96
-3.07 -0.78 0.95
-2.90 -0.74 0.99
-3.48 -0.81 0.86
-3.64 -0.82 0.83
-3.11 -0.73 0.95
-3.61 -0.78 0.83
-3.91 -0.81 0.77
-3.94 -0.80 0.76
-3.67 -0.75 0.82
-3.35 -0.69 0.89
-3.87 -0.74 0.78
-3.55 -0.69 0.85
-3.35 -0.65 0.89
-3.36 -0.64 0.89
-3.27 -0.62 0.91
-3.07 -0.58 0.96
-2.86 -0.55 1.00
-2.66 -0.51 1.05
-2.88 -0.52 1.00
-3.02 -0.52 0.97
-3.71 -0.58 0.81
-3.24 -0.52 0.92
-2.70 -0.46 1.04
-3.57 -0.52 0.84
-3.47 -0.50 0.87
-3.79 -0.51 0.80
-3.59 -0.48 0.84
-2.53 -0.38 1.08
-3.56 -0.45 0.85
-3.82 -0.45 0.79
-3.75 -0.43 0.80
-4.01 -0.43 0.75
-3.72 -0.40 0.81
-3.39 -0.37 0.89
-4.17 -0.40 0.71
-3.05 -0.32 0.96
-4.43 -0.38 0.66
-4.20 -0.35 0.71
-3.12 -0.28 0.95
-2.61 -0.25 1.06
-2.77 -0.24 1.02
-4.05 -0.28 0.74
-2.72 -0.21 1.03
-2.73 -0.20 1.03
-2.41 -0.18 1.10
-2.61 -0.17 1.06
-2.62 -0.16 1.05
-2.69 -0.15 1.04
-2.67 -0.14 1.04
-2.70 -0.13 1.04
-3.02 -0.12 0.96
-3.10 -0.11 0.95
-3.14 -0.10 0.94
-3.09 -0.08 0.95
-3.19 -0.07 0.93
-5.37 0.09 0.91
-5.29 0.14 0.92
-5.48 0.16 0.88
-4.93 0.41 1.00
-5.21 0.45 0.93
-5.84 0.52 0.79
-5.73 0.52 0.81
-5.92 0.57 0.77
-5.70 0.56 0.82
-5.91 0.60 0.77
-5.81 0.60 0.79
-5.39 0.57 0.89
-5.69 0.62 0.82
-6.39 0.71 0.65
-5.47 0.62 0.87
-5.62 0.65 0.83
-7.48 0.88 0.40
-5.39 0.65 0.88
-5.54 0.68 0.85
-5.81 0.73 0.78
-6.11 0.78 0.71
-6.27 0.82 0.68
-5.97 0.79 0.75
-6.07 0.82 0.72
-5.92 0.82 0.76
-6.09 0.86 0.71
-6.20 0.89 0.69
-5.96 0.87 0.74
-6.50 0.96 0.62
-6.61 0.99 0.59
-6.67 1.02 0.58
-6.92 1.07 0.52
-6.77 1.07 0.55
-7.19 1.15 0.45
-6.72 1.09 0.56
-7.22 1.19 0.44
-6.92 1.16 0.51
-6.71 1.14 0.56
-6.89 1.19 0.52
-6.95 1.22 0.50
-6.96 1.24 0.50
-6.93 1.25 0.51
-7.14 1.31 0.46
-7.07 1.31 0.47
-7.01 1.32 0.48
-7.21 1.37 0.44
-6.91 1.33 0.51
-6.98 1.40 0.49
-3.19 -1.03 0.86
-3.21 -1.02 0.86
-3.12 -0.99 0.88
-3.23 -0.99 0.86
-3.22 -0.98 0.86
-3.25 -0.97 0.85
-3.44 -0.99 0.81
-3.61 -1.00 0.77
-3.57 -0.98 0.78
-3.21 -0.91 0.86
-3.53 -0.95 0.79
-3.45 -0.92 0.81
-3.65 -0.93 0.76
-3.04 -0.83 0.90
-3.07 -0.82 0.89
-4.59 -1.03 0.54
-4.25 -0.96 0.62
-4.53 -0.99 0.56
-4.49 -0.97 0.56
-4.39 -0.93 0.59
-4.28 -0.90 0.61
-4.22 -0.88 0.63
-4.12 -0.83 0.65
-4.16 -0.82 0.64
-4.13 -0.80 0.65
-3.59 -0.72 0.78
-3.81 -0.74 0.72
-3.82 -0.72 0.72
-3.74 -0.70 0.74
-4.21 -0.73 0.63
-3.78 -0.67 0.73
-4.08 -0.69 0.66
-3.91 -0.66 0.70
-3.71 -0.62 0.75
-3.61 -0.60 0.77
-3.70 -0.59 0.75
-3.74 -0.58 0.74
-3.86 -0.58 0.71
-3.96 -0.57 0.69
-3.97 -0.56 0.69
-3.68 -0.50 0.76
-3.88 -0.50 0.71
-3.13 -0.38 0.88
-3.38 -0.38 0.83
-3.53 -0.23 0.79
-3.63 -0.22 0.77
-2.91 -0.17 0.93
-2.99 -0.16 0.92
-3.62 -0.16 0.77
-3.45 -0.15 0.81
-3.55 -0.13 0.79
-3.59 -0.12 0.78
-3.38 -0.10 0.83
-1.01 -0.95 0.68
-1.32 -1.20 0.68
-2.53 -0.39 0.57
-3.88 0.39 0.61
-1.26 -0.59 0.50
-3.68 0.41 0.49
-3.21 0.54 0.44
-1.35 -0.65 0.45
-1.27 -0.60 0.44
-3.29 0.66 0.28
-3.67 -0.01 0.23
-3.16 0.81 0.21
-1.38 -0.56 0.40
-3.21 0.03 0.20
-1.85 -1.51 0.20
-0.72 -0.83 0.28
-0.68 -0.84 0.27
-0.71 -0.91 0.26
-0.73 -0.92 0.24
-0.80 -0.88 0.26
-0.70 -0.81 0.25
-0.74 -0.80 0.26
-0.74 -0.78 0.25
-0.68 -0.82 0.23
-0.79 -0.79 0.25
-0.67 -0.78 0.21
-1.28 -0.51 0.27
-1.39 -0.56 0.23
-1.24 -0.32 0.28
-10.88 -1.11 1.91
-10.83 -1.14 1.87
-10.52 -0.99 1.75
-11.23 -0.92 1.62
-10.50 -0.93 1.60
-12.82 0.09 1.55
-8.68 -0.77 1.63
-11.17 -0.91 1.51
-10.85 -0.79 1.52
-7.70 -0.58 1.68
-10.27 0.00 1.58
-11.51 -1.00 1.36
-7.59 -0.67 1.59
-11.28 -0.89 1.38
-11.10 -0.78 1.38
-10.77 -0.57 1.41
-10.48 -0.86 1.36
-11.02 -0.80 1.33
-12.71 0.00 1.31
-12.93 0.03 1.30
-12.84 0.06 1.30
-12.72 0.09 1.31
-13.05 0.13 1.29
-13.58 0.52 1.25
-12.88 0.22 1.16
-13.44 0.29 1.11
-10.19 0.35 1.37
-10.14 0.42 1.37
-10.63 0.49 1.33
-13.81 0.70 1.08
-13.50 0.72 1.11
-13.99 0.77 1.07
-10.27 -0.79 1.17
-10.59 -0.75 1.15
-10.98 -0.45 1.31
-11.55 0.06 1.00
-10.36 0.10 1.30
-12.73 0.15 1.11
-13.62 0.62 1.03
-14.11 0.81 0.99
-13.84 0.83 1.01
-10.41 -0.71 1.10
-12.97 -0.74 0.88
-11.62 -0.07 0.99
-10.02 0.36 1.27
-12.76 0.49 1.02
-13.36 0.58 0.96
-10.14 0.49 1.25
-10.34 0.52 1.24
-10.62 0.56 1.21
-13.63 0.85 0.94
-10.18 -0.12 1.25
-12.92 0.37 0.93
-13.27 0.54 0.90
-10.13 0.59 1.20
-10.03 0.61 1.21
-10.39 0.68 1.17
-11.42 -0.43 0.85
-11.16 -0.13 0.87
-9.20 -0.09 1.06
-15.09 -0.09 0.49
-11.96 0.03 0.95
-10.41 0.10 1.11
-11.85 0.14 0.96
-12.91 0.34 0.85
-13.73 0.46 0.76
-13.56 0.52 0.78
-13.65 0.56 0.77
-13.40 0.61 0.80
-13.02 0.63 0.84
-13.23 0.70 0.81
-14.63 0.88 0.67
-10.18 0.94 1.12
-12.38 -1.35 0.66
-7.74 -0.90 1.13
-15.97 -1.54 0.29
-8.30 -0.77 1.08
-7.88 -0.72 1.12
-12.36 -0.81 0.66
-11.69 -0.25 0.98
-15.66 -0.15 0.57
-10.47 0.18 0.77
-10.27 0.24 0.79
-9.40 -0.68 0.89
-11.87 0.17 0.80
-10.65 0.28 0.94
-12.23 0.41 0.75
-13.41 0.61 0.61
-13.45 0.65 0.61
-10.19 0.54 0.99
-10.45 0.61 0.95
-10.49 0.63 0.95
-10.59 0.95 0.93
-7.71 -0.95 1.00
-10.14 -1.12 0.72
-7.87 -0.77 0.98
-7.92 -0.70 0.98
-7.67 -0.63 1.00
-7.62 -0.60 1.01
-9.41 -0.68 0.80
-10.60 -0.72 0.66
-14.69 -0.78 0.47
-12.69 -0.43 0.70
-12.85 -0.40 0.68
-12.62 -0.36 0.71
-15.73 -0.11 0.35
-11.52 0.14 0.76
-11.57 0.19 0.75
-11.71 0.22 0.74
-11.70 0.25 0.74
-11.08 0.27 0.81
-11.32 0.30 0.78
-10.74 0.44 0.85
-10.42 0.58 0.89
-9.91 0.58 0.95
-10.11 0.78 0.92
-7.70 -0.99 0.93
-7.63 -0.80 0.94
-7.79 -0.71 0.92
-7.82 -0.69 0.92
-7.75 -0.66 0.93
-7.37 -0.61 0.98
-7.44 -0.59 0.97
-7.91 -0.60 0.91
-7.97 -0.58 0.90
-7.93 -0.55 0.91
-8.02 -0.53 0.90
-8.02 -0.50 0.90
-9.43 -0.54 0.72
-9.09 -0.50 0.76
-11.58 -0.57 0.46
-8.98 -0.44 0.78
-8.68 -0.40 0.81
-8.54 -0.37 0.83
-8.66 -0.35 0.82
-9.34 -0.17 0.73
-10.58 -0.04 0.58
-14.77 -0.00 0.26
-9.59 0.02 0.92
-11.70 0.05 0.65
-11.71 0.08 0.65
-10.10 0.10 0.86
-11.06 0.13 0.73
-11.05 0.16 0.73
-11.28 0.19 0.70
-11.48 0.22 0.68
-11.89 0.26 0.63
-11.62 0.28 0.66
-11.44 0.30 0.68
-11.57 0.33 0.67
-11.53 0.36 0.67
-11.48 0.39 0.68
-11.22 0.41 0.71
-10.55 0.48 0.80
-10.65 0.51 0.78
-10.05 0.66 0.86
-9.98 0.75 0.87
-9.82 0.76 0.89
-7.71 -1.17 0.86
-7.55 -1.12 0.88
-7.67 -1.06 0.86
-7.52 -0.91 0.88
-7.87 -0.89 0.84
-7.93 -0.85 0.83
-7.60 -0.79 0.87
-7.71 -0.78 0.86
-7.83 -0.71 0.84
-7.54 -0.67 0.88
-7.51 -0.64 0.89
-7.63 -0.63 0.87
-7.66 -0.61 0.87
-7.46 -0.57 0.89
-7.59 -0.55 0.88
-7.77 -0.54 0.85
-8.03 -0.53 0.82
-9.41 -0.57 0.64
-9.52 -0.54 0.62
-8.84 -0.49 0.71
-8.80 -0.46 0.72
-8.30 -0.41 0.78
-8.62 -0.40 0.74
-8.45 -0.37 0.76
-8.62 -0.35 0.74
-8.55 -0.32 0.75
-8.70 -0.30 0.73
-8.54 -0.27 0.75
-9.14 -0.25 0.67
-10.20 -0.25 0.54
-10.34 -0.22 0.52
-10.05 -0.18 0.55
-14.98 -0.07 0.23
-14.86 -0.04 0.24
-9.94 0.05 0.48
-6.63 0.12 0.93
-8.65 0.18 0.66
-6.98 0.17 0.88
-6.54 0.19 0.94
-6.84 0.22 0.90
-8.62 0.29 0.66
-10.95 0.32 0.67
-11.28 0.41 0.62
-11.91 0.46 0.54
-10.77 0.44 0.69
-12.09 0.58 0.51
-9.81 0.62 0.82
-10.05 1.05 0.78
-10.12 1.08 0.77
-7.74 -1.14 0.78
-7.85 -0.89 0.77
-4.25 -0.54 1.26
-7.65 -0.72 0.80
-7.73 -0.71 0.78
-7.51 -0.67 0.81
-7.34 -0.63 0.84
-7.68 -0.63 0.79
-7.53 -0.60 0.81
-7.31 -0.56 0.84
-7.43 -0.54 0.83
-7.47 -0.52 0.82
-8.97 -0.58 0.61
-8.77 -0.54 0.64
-8.24 -0.49 0.71
-8.60 -0.48 0.67
-10.70 -0.54 0.38
-8.15 -0.41 0.73
-9.85 -0.44 0.49
-9.55 -0.40 0.53
-8.86 -0.35 0.63
-8.70 -0.32 0.65
-8.80 -0.30 0.64
-8.99 -0.28 0.61
-8.55 -0.24 0.67
-11.36 -0.27 0.29
-10.01 -0.21 0.47
-9.99 -0.18 0.47
-8.92 -0.14 0.62
-9.62 -0.12 0.52
-8.94 -0.09 0.62
-9.36 -0.03 0.56
-12.38 0.00 0.38
-10.66 0.05 0.62
-10.91 0.08 0.59
-11.45 0.11 0.51
-11.41 0.14 0.52
-11.16 0.16 0.55
-10.54 0.18 0.64
-11.16 0.21 0.55
-11.53 0.25 0.50
-10.91 0.26 0.59
-10.76 0.29 0.61
-10.56 0.31 0.64
-10.23 0.32 0.69
-10.77 0.39 0.61
-10.87 0.45 0.59
-10.98 0.48 0.57
-10.75 0.49 0.61
-10.76 0.52 0.61
-9.85 0.64 0.73
-9.92 0.67 0.72
-10.30 0.72 0.67
-10.20 0.74 0.68
-10.02 0.85 0.71
-9.98 0.97 0.71
-9.85 0.98 0.73
-9.77 1.00 0.74
-6.80 0.92 1.16
-7.60 -1.18 0.72
-7.98 -1.20 0.66
-7.70 -1.12 0.71
-7.25 -1.02 0.77
-7.54 -0.98 0.73
-6.96 -0.88 0.81
-7.66 -0.85 0.71
-7.45 -0.81 0.75
-7.24 -0.77 0.77
-7.25 -0.74 0.77
-7.09 -0.71 0.80
-7.54 -0.72 0.73
-7.15 -0.67 0.79
-7.20 -0.65 0.78
-7.49 -0.64 0.74
-7.40 -0.61 0.75
-8.00 -0.63 0.67
-7.68 -0.58 0.71
-7.61 -0.55 0.72
-7.74 -0.54 0.70
-7.75 -0.51 0.70
-7.83 -0.49 0.69
-7.68 -0.46 0.71
-7.34 -0.42 0.76
-7.84 -0.42 0.69
-8.48 -0.42 0.59
-8.27 -0.39 0.63
-8.20 -0.36 0.64
-12.22 -0.38 0.40
-12.17 -0.18 0.41
-12.38 -0.15 0.38
-12.77 -0.12 0.32
-12.88 -0.09 0.31
-12.28 -0.06 0.39
-8.05 -0.55 0.58
-8.81 -0.35 0.46
-8.97 -0.30 0.44
-8.97 -0.22 0.44
-8.19 -0.18 0.56
-11.70 0.03 0.29
-10.84 0.26 0.43
-9.72 1.04 0.59
-9.82 1.17 0.57
-7.51 -1.19 0.58
-7.42 -1.13 0.59
-7.55 -1.13 0.57
-7.50 -1.10 0.58
-7.31 -1.05 0.61
-7.48 -1.02 0.58
-7.90 -1.02 0.52
-7.41 -0.92 0.60
-7.33 -0.89 0.61
-7.25 -0.81 0.62
-7.24 -0.79 0.62
-7.15 -0.76 0.64
-4.09 -0.50 1.13
-7.06 -0.71 0.65
-7.18 -0.69 0.63
-7.20 -0.67 0.63
-7.59 -0.67 0.57
-7.52 -0.65 0.58
-7.67 -0.63 0.55
-7.63 -0.61 0.56
-7.55 -0.58 0.57
-7.63 -0.56 0.56
-11.88 -0.57 0.26
-8.56 0.02 0.32
-10.00 0.12 0.48
-10.42 0.15 0.41
-11.26 0.43 0.27
-9.66 0.42 0.53
-9.57 0.44 0.55
-9.93 0.48 0.49
-10.14 0.51 0.45
-9.91 0.57 0.49
-10.14 0.61 0.45
-9.94 0.65 0.49
-9.63 0.65 0.54
-9.70 0.68 0.53
-9.04 0.68 0.63
-8.77 0.79 0.68
-8.84 0.84 0.66
-9.54 0.93 0.55
-9.52 0.95 0.55
-6.82 0.75 1.00
-7.01 0.81 0.97
-7.04 0.83 0.96
-9.59 1.14 0.53
-9.73 1.18 0.51
-9.45 1.17 0.55
-6.80 1.00 1.00
-7.01 1.09 0.96
-7.57 -1.13 0.49
-7.54 -1.10 0.50
-7.67 -1.09 0.47
-7.77 -1.07 0.46
-7.47 -1.02 0.51
-7.41 -0.99 0.52
-5.94 -0.82 0.77
-7.68 -0.97 0.47
-7.57 -0.93 0.49
-7.34 -0.89 0.53
-7.49 -0.88 0.51
-7.33 -0.84 0.53
-7.16 -0.80 0.56
-7.23 -0.79 0.55
-7.13 -0.76 0.57
-7.00 -0.72 0.59
-7.14 -0.71 0.57
-6.98 -0.68 0.59
-7.59 -0.70 0.49
-7.52 -0.67 0.50
-7.67 -0.66 0.48
-7.62 -0.63 0.49
-7.67 -0.61 0.48
-7.47 -0.57 0.51
-7.50 -0.55 0.51
-7.76 -0.54 0.46
-7.70 -0.51 0.47
-7.88 -0.50 0.44
-7.20 -0.44 0.56
-8.35 -0.47 0.36
-7.19 -0.40 0.56
-7.76 -0.39 0.46
-7.50 -0.36 0.51
-6.45 -0.30 0.68
-6.47 -0.28 0.68
-6.44 -0.26 0.68
-6.53 -0.24 0.67
-8.27 -0.26 0.38
-8.08 -0.21 0.41
-8.11 -0.18 0.40
-8.62 -0.16 0.32
-8.62 -0.14 0.32
-8.17 -0.11 0.39
-8.55 -0.08 0.33
-8.12 -0.06 0.40
-6.25 -0.03 0.71
-8.38 -0.01 0.36
-10.34 0.12 0.34
-9.64 0.21 0.46
-9.74 0.59 0.44
-10.01 0.65 0.39
-9.38 0.63 0.50
-9.38 0.66 0.50
-8.90 0.65 0.58
-9.27 0.70 0.52
-9.03 0.70 0.56
-9.01 0.72 0.56
-8.85 0.73 0.59
-8.96 0.76 0.57
-9.00 0.81 0.56
-9.13 0.86 0.54
-9.42 0.92 0.48
-9.60 0.96 0.45
-9.66 1.03 0.44
-9.69 1.06 0.43
-9.69 1.08 0.43
-7.02 0.81 0.90
-7.89 0.92 0.75
-9.42 1.12 0.48
-9.47 1.15 0.47
-9.31 1.16 0.50
-6.88 0.88 0.93
-6.91 1.09 0.91
-6.38 -1.50 0.61
-6.12 -1.27 0.66
-6.44 -1.11 0.60
-6.91 -1.03 0.52
-7.36 -1.06 0.44
-7.47 -1.00 0.42
-7.69 -1.00 0.39
-7.71 -0.95 0.38
-7.34 -0.87 0.45
-7.39 -0.85 0.44
-7.28 -0.79 0.46
-6.97 -0.75 0.51
-6.95 -0.70 0.52
-6.77 -0.66 0.55
-7.64 -0.70 0.40
-6.89 -0.63 0.53
-6.91 -0.59 0.52
-6.78 -0.55 0.55
-7.34 -0.52 0.45
-7.38 -0.50 0.44
-7.50 -0.48 0.42
-6.83 -0.40 0.54
-8.05 -0.43 0.32
-6.67 -0.33 0.57
-6.55 -0.26 0.59
-8.00 -0.28 0.33
-7.96 -0.25 0.34
-8.02 -0.18 0.33
-9.82 -0.05 0.43
-7.48 0.04 0.34
-4.32 0.04 0.92
-7.66 0.12 0.30
-7.52 0.14 0.33
-7.44 0.16 0.34
-7.52 0.18 0.33
-7.28 0.20 0.37
-7.31 0.23 0.37
-7.55 0.26 0.32
-10.01 0.46 0.30
-8.66 0.48 0.55
-9.84 0.57 0.33
-8.48 0.51 0.58
-8.44 0.53 0.59
-9.76 0.64 0.35
-9.33 0.63 0.43
-9.16 0.64 0.46
-8.67 0.63 0.55
-9.13 0.68 0.46
-9.05 0.70 0.48
-9.31 0.74 0.43
-9.43 0.78 0.40
-9.18 0.78 0.45
-8.70 0.76 0.54
-8.73 0.78 0.53
-8.59 0.79 0.56
-9.05 0.86 0.47
-9.32 0.90 0.42
-9.60 0.95 0.37
-9.64 0.98 0.36
-9.67 1.01 0.35
-9.75 1.04 0.34
-9.80 1.07 0.33
-9.78 1.09 0.33
-9.73 1.11 0.34
-9.59 1.12 0.36
-9.72 1.16 0.34
-9.79 1.21 0.33
-9.96 1.38 0.29
-6.23 -1.66 0.56
-6.30 -1.66 0.54
-6.33 -1.62 0.54
-6.44 -1.60 0.52
-6.41 -1.53 0.53
-7.29 -1.12 0.37
-7.09 -1.07 0.41
-7.10 -1.05 0.41
-7.27 -1.04 0.38
-7.04 -0.98 0.42
-7.21 -0.88 0.39
-7.37 -0.87 0.36
-7.23 -0.83 0.38
-7.37 -0.82 0.36
-7.02 -0.77 0.42
-7.19 -0.76 0.39
-7.29 -0.75 0.37
-7.12 -0.71 0.40
-7.48 -0.71 0.34
-7.57 -0.70 0.32
-6.94 -0.63 0.44
-7.16 -0.62 0.40
-7.50 -0.62 0.34
-6.69 -0.55 0.49
-7.57 -0.58 0.32
-7.57 -0.55 0.32
-6.95 -0.50 0.44
-7.03 -0.48 0.42
-7.07 -0.46 0.42
-7.31 -0.45 0.37
-7.27 -0.42 0.38
-6.88 -0.38 0.45
-7.56 -0.39 0.32
-7.01 -0.34 0.43
-6.37 -0.28 0.55
-6.40 -0.26 0.54
-8.40 0.61 0.52
-8.70 0.68 0.46
-8.95 0.74 0.41
-9.16 0.80 0.37
-9.25 0.85 0.35
-9.37 0.96 0.33
-6.85 1.08 0.80
-6.20 -1.68 0.48
-6.21 -1.62 0.48
-6.16 -1.53 0.50
-6.08 -1.31 0.51
-6.30 -0.90 0.48
-6.38 -0.89 0.46
-6.34 -0.87 0.47
