# .PCD v0.7 - Point Cloud Data file format
VERSION 0.7
FIELDS x y z
SIZE 4 4 4
TYPE F F F
COUNT 1 1 1
WIDTH 281
HEIGHT 1
VIEWPOINT 0 0 0 1 0 0 0
POINTS 281
DATA ASCII
-6.53 -0.36 1.04
-7.37 0.00 0.86
-7.87 0.02 0.90
-8.06 0.11 0.87
-8.05 0.13 0.87
-8.12 0.23 0.86
-8.08 0.25 0.87
-8.37 0.48 0.82
-8.16 0.06 0.72
-8.24 0.30 0.70
-6.57 -0.29 0.98
-7.50 0.14 0.76
-8.03 0.35 0.67
-8.25 0.47 0.63
-4.30 0.75 1.30
-8.00 0.02 0.61
-7.77 0.06 0.65
-7.62 0.10 0.67
-8.09 0.17 0.59
-8.02 0.19 0.60
-8.20 0.23 0.57
-7.46 0.25 0.70
-7.89 0.29 0.62
-8.09 0.31 0.59
-7.98 0.33 0.60
-8.14 0.36 0.58
-8.05 0.38 0.59
-7.92 0.45 0.61
-8.37 0.54 0.53
-7.94 0.54 0.61
-5.40 -0.63 0.85
-7.00 -0.09 0.79
-6.92 -0.05 0.80
-6.90 0.08 0.50
-8.02 0.27 0.52
-7.83 0.32 0.56
-8.14 0.44 0.50
-3.99 -0.52 1.06
-7.52 0.04 0.55
-7.17 0.06 0.62
-7.12 0.07 0.63
-7.35 0.09 0.58
-7.51 0.12 0.55
-7.57 0.14 0.54
-7.66 0.16 0.52
-7.81 0.18 0.49
-7.78 0.20 0.49
-8.06 0.23 0.44
-7.74 0.24 0.50
-7.58 0.26 0.53
-7.63 0.28 0.52
-7.77 0.30 0.49
-7.62 0.32 0.52
-7.73 0.34 0.50
-8.11 0.38 0.42
-8.29 0.43 0.39
-8.20 0.44 0.41
-6.53 -0.12 0.74
-7.53 -0.04 0.55
-7.37 -0.02 0.58
-7.13 -0.00 0.48
-5.21 0.01 0.90
-7.19 0.04 0.47
-7.44 0.08 0.42
-7.77 0.10 0.35
-7.73 0.12 0.35
-7.74 0.14 0.35
-7.79 0.16 0.34
-7.59 0.20 0.38
-7.81 0.24 0.33
-3.73 0.67 1.20
-4.88 1.20 0.93
-5.43 -0.66 0.58
-5.27 -0.62 0.62
-5.16 -0.60 0.64
-5.24 -0.59 0.63
-5.37 -0.58 0.60
-5.05 -0.54 0.67
-5.16 -0.53 0.64
-5.38 -0.53 0.59
-5.08 -0.49 0.66
-5.52 -0.50 0.56
-5.10 -0.44 0.66
-5.26 -0.43 0.62
-5.15 -0.41 0.64
-5.48 -0.33 0.84
-5.40 -0.31 0.86
-5.40 -0.26 0.86
-5.78 -0.22 0.78
-6.19 -0.20 0.69
-6.51 -0.17 0.62
-6.56 -0.16 0.61
-6.76 -0.14 0.57
-7.33 -0.12 0.44
-6.77 -0.09 0.56
-5.29 -0.06 0.88
-7.46 -0.02 0.41
-5.83 1.12 0.60
-4.65 -0.74 0.62
-4.48 -0.51 0.67
-5.81 -0.37 0.35
-1.80 1.05 0.72
-2.42 0.80 0.70
-2.37 0.84 0.67
-3.16 0.56 0.70
-2.28 0.85 0.61
-1.46 -1.16 0.62
-3.10 0.46 0.63
-2.44 0.89 0.60
-1.58 1.07 0.57
-2.40 0.79 0.57
-2.33 0.82 0.57
-1.97 0.80 0.55
-1.69 0.97 0.55
-3.09 0.46 0.58
-3.01 0.78 0.58
-1.91 1.14 0.55
-1.30 -1.10 0.56
-1.59 -0.87 0.54
-2.29 0.79 0.52
-3.71 0.83 0.54
-2.45 0.75 0.51
-2.31 0.80 0.51
-2.25 0.83 0.50
-1.75 0.89 0.50
-1.67 0.85 0.50
-1.60 1.00 0.50
-2.61 0.84 0.49
-2.22 0.80 0.48
-2.16 0.83 0.49
-1.91 0.88 0.49
-3.17 0.85 0.47
-2.91 0.83 0.47
-2.34 0.82 0.47
-2.20 0.79 0.47
-2.22 0.88 0.45
-2.10 1.00 0.45
-1.96 0.94 0.45
-2.41 0.72 0.42
-2.38 0.85 0.42
-2.35 0.91 0.42
-2.16 0.90 0.43
-1.97 0.87 0.43
-1.58 0.77 0.45
-2.72 0.74 0.39
-2.38 0.85 0.40
-2.57 0.74 0.38
-2.60 0.84 0.37
-2.39 0.78 0.38
-2.34 0.83 0.39
-2.14 0.75 0.40
-2.17 0.92 0.39
-1.84 0.67 0.41
-1.57 0.84 0.42
-2.57 0.82 0.35
-2.36 0.84 0.36
-2.24 0.82 0.37
-2.11 0.86 0.38
-2.02 0.85 0.38
-2.90 0.57 0.31
-2.26 0.58 0.36
-2.42 0.73 0.34
-2.38 0.78 0.34
-2.17 0.77 0.36
-2.36 1.00 0.34
-1.98 0.74 0.37
-1.68 0.96 0.38
-2.11 -0.36 0.39
-3.12 0.93 0.25
-2.46 0.68 0.32
-2.47 0.76 0.32
-2.38 0.78 0.32
-2.27 0.85 0.33
-2.01 0.77 0.35
-2.05 0.96 0.34
-2.61 0.76 0.28
-2.53 0.79 0.29
-2.57 0.90 0.28
-2.19 0.72 0.32
-2.06 0.75 0.33
-2.18 0.93 0.31
-1.86 0.82 0.35
-2.63 0.55 0.27
-2.54 0.65 0.27
-2.49 0.70 0.27
-2.57 0.82 0.26
-2.27 0.85 0.29
-2.21 0.87 0.29
-2.07 0.82 0.31
-1.97 0.80 0.32
-2.00 0.98 0.31
-1.78 0.94 0.33
-2.78 0.85 0.21
-2.59 0.83 0.23
-2.62 0.93 0.22
-2.27 0.92 0.26
-2.08 0.91 0.29
-1.93 0.83 0.31
-1.75 0.89 0.32
-1.69 0.89 0.32
-1.62 0.86 0.33
-1.57 0.95 0.33
-1.12 -0.80 0.38
-2.47 0.91 0.22
-2.30 0.87 0.24
-2.04 0.80 0.28
-1.95 0.85 0.29
-1.76 1.01 0.29
-1.60 0.90 0.32
-1.68 1.18 0.28
-1.44 0.83 0.34
-1.36 -1.21 0.31
-2.38 0.78 0.22
-2.34 0.98 0.21
-1.71 0.83 0.30
-1.55 0.81 0.32
-1.58 1.09 0.28
-2.24 0.90 0.21
-1.96 0.79 0.26
-1.62 0.78 0.30
-1.28 -0.76 0.35
-2.14 0.89 0.21
-1.96 0.80 0.24
-1.93 0.83 0.24
-1.82 0.85 0.26
-1.70 0.83 0.27
-1.55 -0.51 0.35
-2.00 0.83 0.22
-1.95 0.86 0.22
-1.84 0.87 0.23
-1.28 -1.04 0.28
-1.56 -0.82 0.29
-1.97 0.80 0.21
-1.86 0.82 0.22
-1.84 0.88 0.22
-1.66 0.76 0.26
-1.76 1.00 0.21
-1.20 -1.12 0.25
-1.54 -0.54 0.33
-1.70 -0.70 0.28
-1.85 0.82 0.21
-1.65 0.82 0.24
-1.60 0.82 0.24
-1.53 0.77 0.26
-1.19 -0.92 0.28
-1.40 -0.72 0.30
-1.70 0.83 0.22
-1.57 0.77 0.25
-1.52 0.84 0.24
-1.61 -0.63 0.28
-1.74 0.74 0.21
-1.69 0.81 0.21
-1.62 0.86 0.21
-1.53 0.85 0.22
-0.94 -1.00 0.23
-1.28 -1.05 0.21
-1.15 -1.01 0.21
-1.53 0.77 0.21
-1.45 0.76 0.23
-0.86 -0.84 0.24
-0.93 -0.87 0.23
-1.01 -0.82 0.25
-1.23 -0.95 0.21
-1.30 -0.90 0.22
-1.08 -0.84 0.23
-1.15 -0.89 0.22
-1.45 -0.86 0.20
-1.61 -0.63 0.23
-1.65 -0.63 0.23
-1.62 -0.64 0.22
-1.12 -0.68 0.25
-1.61 -0.58 0.22
-1.27 -0.74 0.22
-1.47 -0.58 0.24
-1.46 -0.57 0.22
-1.33 -0.60 0.22
-1.50 -0.41 0.23
-1.50 -0.37 0.24
-1.55 -0.40 0.21
-1.64 -0.29 0.21
-1.34 -0.50 0.23
