# .PCD v0.7 - Point Cloud Data file format
VERSION 0.7
FIELDS x y z
SIZE 4 4 4
TYPE F F F
COUNT 1 1 1
WIDTH 2897
HEIGHT 1
VIEWPOINT 0 0 0 1 0 0 0
POINTS 2897
DATA ASCII
-14.90 0.33 0.82
-15.10 0.37 0.81
-15.27 0.41 0.79
-15.21 0.45 0.80
-8.75 0.28 1.38
-15.36 0.53 0.78
-8.55 0.36 1.40
-14.52 0.64 0.86
-13.76 0.64 0.93
-14.95 0.76 0.82
-8.51 0.46 1.40
-6.84 0.40 1.55
-9.65 0.59 1.30
-13.61 0.86 0.94
-13.75 0.90 0.92
-9.39 0.64 1.32
-6.14 0.44 1.61
-5.84 0.45 1.64
-15.84 1.23 0.73
-9.55 0.82 1.30
-9.44 0.83 1.31
-12.43 1.15 1.04
-9.82 0.93 1.28
-9.87 0.96 1.27
-5.58 0.56 1.66
-5.14 0.53 1.70
-6.43 0.68 1.59
-9.77 1.05 1.28
-9.54 1.07 1.30
-5.36 0.62 1.68
-10.52 1.23 1.21
-12.12 1.44 1.06
-9.52 1.16 1.30
-5.27 0.67 1.69
-12.02 1.52 1.07
-9.47 1.23 1.31
-9.62 1.27 1.29
-9.90 1.33 1.26
-9.45 1.29 1.31
-5.59 0.79 1.66
-9.50 1.35 1.30
-5.71 0.83 1.65
-9.41 1.38 1.31
-9.36 1.40 1.31
-9.17 1.39 1.33
-9.33 1.44 1.31
-9.36 1.47 1.31
-9.19 1.46 1.33
-9.29 1.50 1.32
-5.58 0.93 1.66
-9.53 1.59 1.29
-9.43 1.59 1.30
-5.19 0.90 1.69
-5.36 0.96 1.67
-5.09 0.93 1.70
-5.32 0.99 1.68
-5.07 0.98 1.70
-4.90 0.97 1.71
-4.93 1.54 1.70
-15.17 -1.66 0.58
-14.99 -1.60 0.60
-14.85 -1.55 0.61
-14.77 -1.50 0.62
-14.62 -1.45 0.63
-14.82 -1.42 0.61
-9.13 -0.93 1.13
-9.09 -0.87 1.13
-9.02 -0.84 1.14
-9.00 -0.81 1.14
-9.12 -0.79 1.13
-14.44 -1.11 0.65
-9.06 -0.73 1.13
-8.84 -0.63 1.16
-14.50 -0.91 0.64
-14.06 -0.85 0.68
-9.13 -0.57 1.13
-8.74 -0.52 1.16
-9.01 -0.51 1.14
-9.01 -0.48 1.14
-13.83 -0.60 0.70
-13.85 -0.56 0.70
-13.95 -0.53 0.69
-13.77 -0.48 0.71
-13.79 -0.44 0.71
-14.78 -0.20 0.84
-14.88 -0.17 0.83
-14.87 -0.13 0.83
-14.63 -0.09 0.85
-14.85 -0.06 0.83
-13.80 0.25 0.61
-7.63 0.21 1.21
-7.23 0.22 1.24
-7.39 0.25 1.23
-8.45 0.23 1.36
-8.66 0.26 1.34
-8.56 0.27 1.35
-15.74 0.54 0.66
-13.12 0.51 0.91
-13.34 0.55 0.89
-13.27 0.58 0.90
-14.61 0.71 0.77
-14.62 0.82 0.76
-13.54 0.85 0.87
-13.79 0.90 0.84
-9.25 0.63 1.28
-9.41 0.71 1.26
-9.44 0.73 1.26
-9.62 0.77 1.24
-14.05 1.16 0.82
-9.23 0.79 1.28
-12.36 1.11 0.98
-5.47 0.51 1.64
-10.20 0.96 1.19
-4.97 0.49 1.69
-10.23 1.09 1.18
-9.46 1.06 1.25
-5.31 0.61 1.66
-9.68 1.15 1.23
-5.32 0.66 1.66
-4.38 0.55 1.75
-12.27 1.55 0.98
-9.32 1.20 1.27
-9.11 1.20 1.29
-9.09 1.22 1.29
-4.54 0.63 1.73
-10.70 1.49 1.13
-9.76 1.38 1.22
-9.48 1.37 1.25
-9.30 1.36 1.27
-9.52 1.42 1.24
-9.39 1.42 1.26
-9.52 1.46 1.24
-9.80 1.53 1.22
-9.36 1.49 1.26
-9.52 1.54 1.24
-9.57 1.57 1.24
-9.62 1.60 1.23
-9.88 1.67 1.21
-9.54 1.63 1.24
-4.17 0.93 1.76
-3.93 0.97 1.78
-3.96 1.38 1.76
-3.64 1.33 1.79
-3.10 1.31 1.84
-0.66 -0.48 1.88
-14.96 -1.69 0.51
-15.27 -1.68 0.48
-15.14 -1.62 0.49
-15.08 -1.57 0.50
-15.00 -1.52 0.50
-14.88 -1.47 0.52
-9.01 -0.95 1.08
-8.98 -0.92 1.08
-14.78 -1.34 0.53
-9.00 -0.87 1.08
-8.95 -0.83 1.08
-9.07 -0.82 1.07
-14.35 -1.15 0.57
-14.09 -1.09 0.59
-14.08 -1.04 0.59
-14.20 -1.01 0.58
-9.09 -0.68 1.07
-9.17 -0.65 1.06
-9.05 -0.62 1.07
-9.20 -0.60 1.06
-8.96 -0.56 1.08
-9.15 -0.54 1.06
-8.98 -0.50 1.08
-8.73 -0.47 1.10
-13.97 -0.65 0.60
-14.12 -0.61 0.59
-14.12 -0.53 0.59
-8.57 -0.33 1.12
-13.40 -0.43 0.66
-13.61 -0.40 0.64
-13.70 -0.29 0.63
-13.90 -0.25 0.61
-5.77 -0.09 1.39
-14.71 0.01 0.67
-14.81 0.05 0.66
-9.32 0.10 1.22
-8.88 0.12 1.26
-8.86 0.14 1.26
-8.62 0.15 1.29
-8.41 0.17 1.31
-8.39 0.19 1.31
-8.41 0.21 1.31
-8.43 0.23 1.31
-8.28 0.25 1.32
-8.60 0.28 1.29
-8.42 0.29 1.31
-8.42 0.31 1.31
-8.41 0.33 1.31
-8.38 0.35 1.31
-8.45 0.37 1.30
-13.80 0.71 0.75
-8.82 0.48 1.27
-14.00 0.82 0.73
-6.28 0.39 1.53
-5.94 0.41 1.56
-6.23 0.46 1.53
-6.20 0.47 1.53
-6.12 0.48 1.54
-5.65 0.46 1.59
-5.85 0.49 1.57
-5.83 0.50 1.57
-6.19 0.55 1.53
-5.95 0.54 1.56
-6.21 0.58 1.53
-10.64 1.01 1.07
-9.42 0.92 1.20
-6.18 0.62 1.53
-6.49 0.67 1.50
-5.04 0.54 1.65
-6.74 0.73 1.47
-9.90 1.09 1.15
-6.43 0.73 1.51
-5.21 0.61 1.63
-5.45 0.65 1.61
-6.21 0.75 1.53
-5.43 0.67 1.61
-5.64 0.71 1.58
-5.53 0.71 1.60
-5.50 0.72 1.60
-5.66 0.76 1.58
-5.79 0.79 1.57
-5.28 0.73 1.62
-9.41 1.31 1.19
-9.47 1.34 1.19
-9.25 1.33 1.21
-9.31 1.37 1.20
-9.27 1.38 1.21
-9.21 1.40 1.21
-5.28 0.83 1.62
-10.66 1.67 1.06
-5.40 0.87 1.61
-9.21 1.49 1.21
-9.38 1.66 1.19
-5.09 0.98 1.63
-5.27 1.10 1.61
-5.25 1.10 1.62
-4.82 1.04 1.66
-4.97 1.09 1.64
-4.84 1.12 1.65
-4.41 1.57 1.68
-1.84 -1.47 1.72
-2.95 -1.27 1.62
-5.45 -0.94 1.36
-5.50 -0.76 1.36
-8.82 -1.04 1.02
-5.28 -0.70 1.38
-8.59 -0.97 1.04
-8.90 -0.97 1.01
-8.80 -0.93 1.02
-8.84 -0.91 1.02
-8.59 -0.86 1.04
-8.61 -0.83 1.04
-5.27 -0.57 1.38
-14.90 -1.22 0.40
-5.24 -0.53 1.39
-15.13 -1.16 0.38
-14.59 -1.08 0.43
-6.70 -0.56 1.24
-3.16 -0.33 1.60
-6.84 -0.52 1.22
-6.72 -0.50 1.23
-8.92 -0.58 1.01
-8.95 -0.56 1.01
-3.02 -0.26 1.61
-9.05 -0.51 1.00
-8.88 -0.48 1.01
-8.79 -0.44 1.02
-13.73 -0.60 0.52
-9.63 -0.34 1.19
-9.55 -0.31 1.20
-14.72 -0.45 0.67
-14.74 -0.41 0.66
-5.12 -0.09 1.65
-14.48 -0.23 0.69
-4.39 -0.06 1.72
-14.92 -0.17 0.64
-14.82 -0.13 0.66
-14.88 -0.10 0.65
-14.71 -0.06 0.67
-14.86 -0.02 0.65
-13.98 0.26 0.38
-14.85 0.48 0.29
-7.18 0.34 1.12
-7.15 0.36 1.12
-7.39 0.41 1.10
-7.81 0.48 1.05
-13.55 0.72 0.69
-11.74 1.08 0.88
-4.13 0.52 1.72
-11.83 1.49 0.87
-12.17 1.56 0.83
-9.13 1.22 1.16
-12.13 1.65 0.83
-9.47 1.31 1.13
-9.24 1.30 1.15
-9.14 1.31 1.16
-9.33 1.36 1.14
-9.52 1.42 1.12
-9.42 1.42 1.13
-9.65 1.48 1.10
-9.35 1.46 1.14
-9.34 1.48 1.14
-9.48 1.53 1.12
-9.25 1.51 1.14
-9.31 1.55 1.14
-9.41 1.66 1.12
-3.91 0.82 1.73
-3.96 1.02 1.72
-3.51 1.01 1.77
-3.47 1.04 1.77
-0.26 -1.59 1.86
-0.90 -1.33 1.80
-8.58 -0.99 0.98
-8.71 -0.90 0.96
-8.62 -0.86 0.97
-8.80 -0.85 0.95
-14.91 -1.18 0.29
-6.74 -0.56 1.18
-14.30 -0.98 0.35
-14.18 -0.94 0.37
-14.05 -0.85 0.38
-14.41 -0.83 0.34
-8.88 -0.53 0.94
-8.91 -0.51 0.94
-13.89 -0.68 0.40
-14.08 -0.65 0.38
-8.74 -0.42 0.96
-13.48 -0.55 0.44
-13.56 -0.51 0.43
-8.48 -0.33 0.98
-13.18 -0.43 0.47
-13.08 -0.39 0.48
-13.64 -0.36 0.42
-13.03 -0.13 0.49
-14.19 0.01 0.53
-14.41 0.05 0.50
-8.87 0.05 1.14
-14.38 0.11 0.51
-8.84 0.09 1.15
-8.82 0.11 1.15
-9.31 0.14 1.09
-15.55 0.27 0.37
-8.55 0.17 1.18
-8.34 0.19 1.20
-8.12 0.20 1.23
-8.27 0.23 1.21
-8.34 0.25 1.20
-8.62 0.28 1.17
-8.50 0.29 1.18
-8.47 0.31 1.19
-8.99 0.36 1.13
-8.59 0.36 1.17
-8.88 0.39 1.14
-8.47 0.40 1.19
-8.60 0.42 1.17
-8.36 0.43 1.20
-8.82 0.48 1.15
-9.03 0.51 1.12
-8.66 0.51 1.16
-8.67 0.53 1.16
-14.58 0.92 0.48
-8.41 0.56 1.19
-8.77 0.60 1.15
-8.44 0.60 1.19
-8.62 0.63 1.17
-8.39 0.64 1.19
-5.31 0.42 1.55
-8.59 0.69 1.17
-8.92 0.74 1.13
-11.55 0.98 0.83
-8.51 0.75 1.18
-5.96 0.54 1.47
-6.86 0.64 1.37
-11.59 1.13 0.82
-11.44 1.14 0.84
-11.43 1.17 0.84
-6.48 0.69 1.41
-6.43 0.70 1.42
-11.27 1.24 0.85
-10.96 1.23 0.89
-6.57 0.76 1.40
-5.80 0.69 1.49
-4.76 0.58 1.61
-5.74 0.71 1.50
-11.61 1.44 0.81
-5.83 0.75 1.48
-4.47 0.59 1.64
-9.18 1.21 1.09
-4.57 0.63 1.63
-4.93 0.69 1.59
-8.95 1.25 1.12
-5.07 0.73 1.57
-9.12 1.32 1.10
-9.16 1.35 1.09
-4.73 0.72 1.61
-4.61 0.71 1.62
-9.43 1.46 1.06
-4.50 0.72 1.64
-5.00 0.81 1.58
-9.20 1.49 1.08
-9.25 1.52 1.08
-4.41 0.75 1.65
-9.41 1.59 1.06
-9.61 1.67 1.03
-4.53 0.86 1.63
-4.34 0.85 1.65
-4.38 0.87 1.65
-4.57 0.92 1.62
-4.62 0.94 1.62
-4.38 0.91 1.64
-4.49 1.03 1.63
-4.24 1.06 1.65
-3.83 1.05 1.70
-3.79 1.09 1.70
-2.16 -1.01 1.63
-3.91 -0.84 1.43
-8.70 -1.33 0.88
-8.74 -1.25 0.87
-8.68 -1.22 0.88
-8.88 -1.21 0.86
-8.62 -1.16 0.89
-9.05 -1.15 0.84
-9.02 -1.12 0.84
-8.78 -1.07 0.87
-8.81 -1.04 0.87
-5.39 -0.71 1.26
-5.48 -0.70 1.25
-5.29 -0.66 1.28
-5.36 -0.65 1.27
-5.21 -0.62 1.28
-5.14 -0.59 1.29
-5.28 -0.59 1.28
-5.13 -0.56 1.29
-8.35 -0.76 0.92
-5.17 -0.52 1.29
-5.23 -0.51 1.28
-5.10 -0.48 1.30
-5.23 -0.47 1.28
-6.61 -0.53 1.12
-6.81 -0.52 1.10
-14.70 -0.80 0.47
-9.63 -0.50 1.06
-9.65 -0.48 1.06
-9.64 -0.45 1.06
-9.60 -0.43 1.06
-9.49 -0.40 1.07
-9.73 -0.39 1.05
-9.42 -0.35 1.08
-9.40 -0.33 1.08
-9.48 -0.31 1.08
-9.65 -0.29 1.06
-9.54 -0.27 1.07
-9.23 -0.23 1.10
-4.96 -0.12 1.60
-14.38 -0.30 0.51
-14.11 -0.26 0.54
-14.38 -0.23 0.51
-14.28 -0.19 0.52
-14.33 -0.16 0.51
-14.44 -0.13 0.50
-14.76 -0.09 0.46
-14.09 -0.06 0.54
-13.24 0.02 0.25
-13.13 0.06 0.26
-12.55 0.07 0.64
-9.20 0.10 1.04
-14.90 0.19 0.35
-9.11 0.14 1.06
-8.73 0.15 1.10
-14.66 0.33 0.37
-8.38 0.21 1.15
-8.31 0.25 1.15
-8.50 0.29 1.13
-8.63 0.32 1.11
-8.70 0.34 1.10
-8.53 0.36 1.12
-8.41 0.37 1.14
-8.57 0.42 1.12
-8.58 0.44 1.12
-4.42 0.24 1.63
-8.48 0.48 1.13
-8.61 0.50 1.11
-8.86 0.54 1.08
-4.79 0.31 1.58
-8.50 0.56 1.13
-8.57 0.61 1.12
-8.30 0.61 1.15
-8.66 0.65 1.10
-8.45 0.66 1.13
-8.53 0.69 1.12
-8.62 0.71 1.11
-6.69 0.59 1.34
-8.67 0.78 1.10
-8.46 0.78 1.13
-8.88 0.84 1.07
-8.93 0.87 1.07
-4.84 0.49 1.57
-5.33 0.55 1.51
-4.93 0.52 1.56
-6.36 0.70 1.38
-4.80 0.55 1.58
-4.45 0.52 1.62
-11.34 1.32 0.77
-4.93 0.60 1.56
-4.84 0.60 1.57
-11.93 1.48 0.69
-4.92 0.65 1.56
-4.72 0.63 1.58
-9.10 1.22 1.04
-4.89 0.69 1.56
-9.06 1.28 1.04
-4.70 0.69 1.58
-9.29 1.38 1.01
-4.56 0.70 1.60
-4.75 0.74 1.58
-9.44 1.48 0.99
-4.47 0.72 1.61
-9.38 1.51 1.00
-4.35 0.73 1.62
-9.56 1.61 0.98
-4.93 0.87 1.55
-4.57 0.82 1.60
-4.25 0.79 1.63
-4.50 0.84 1.60
-4.24 0.82 1.63
-4.76 0.94 1.57
-4.66 0.93 1.58
-4.50 0.95 1.60
-4.05 0.87 1.66
-4.11 0.89 1.65
-4.20 0.93 1.63
-4.46 1.00 1.60
-3.87 1.01 1.67
-3.94 1.08 1.66
-3.92 1.26 1.65
-3.71 1.47 1.67
-1.75 -0.77 1.66
-8.66 -1.35 0.81
-8.54 -1.31 0.83
-8.81 -1.31 0.79
-8.81 -1.29 0.79
-8.99 -1.28 0.77
-8.86 -1.24 0.79
-8.85 -1.21 0.79
-8.77 -1.17 0.80
-8.84 -1.15 0.79
-5.33 -0.78 1.22
-5.25 -0.75 1.23
-8.52 -1.04 0.83
-5.39 -0.73 1.21
-5.33 -0.70 1.22
-5.52 -0.70 1.20
-5.36 -0.67 1.22
-5.32 -0.64 1.22
-5.42 -0.63 1.21
-5.48 -0.62 1.20
-5.42 -0.60 1.21
-5.36 -0.57 1.22
-6.02 -0.60 1.14
-6.51 -0.61 1.08
-4.93 -0.49 1.27
-6.68 -0.58 1.05
-6.67 -0.56 1.06
-6.77 -0.54 1.04
-6.81 -0.52 1.04
-6.74 -0.50 1.05
-6.68 -0.47 1.05
-8.67 -0.55 0.81
-8.34 -0.50 0.85
-8.75 -0.50 0.80
-8.56 -0.46 0.82
-5.72 -0.32 1.17
-3.24 -0.21 1.47
-2.91 -0.19 1.52
-3.18 -0.18 1.48
-8.52 -0.33 0.83
-2.77 -0.12 1.53
-10.97 -0.24 0.53
-8.23 -0.17 0.86
-3.13 -0.07 1.49
-2.85 -0.06 1.52
-3.01 -0.03 1.50
-12.88 -0.05 0.30
-3.00 -0.01 1.50
-8.79 0.01 1.03
-13.44 0.04 0.43
-8.81 0.05 1.03
-9.09 0.07 0.99
-8.65 0.09 1.05
-8.17 0.10 1.11
-13.69 0.21 0.40
-8.74 0.15 1.04
-8.11 0.16 1.12
-13.85 0.31 0.37
-8.43 0.23 1.08
-8.33 0.25 1.09
-8.54 0.27 1.06
-8.42 0.29 1.08
-8.56 0.32 1.06
-8.44 0.33 1.07
-8.39 0.35 1.08
-8.48 0.37 1.07
-8.27 0.39 1.09
-6.19 0.30 1.37
-5.46 0.28 1.46
-5.49 0.30 1.46
-8.34 0.47 1.08
-8.55 0.50 1.06
-8.52 0.52 1.06
-8.23 0.52 1.10
-8.57 0.56 1.05
-11.71 0.80 0.64
-8.59 0.61 1.05
-8.50 0.62 1.06
-6.89 0.52 1.27
-8.47 0.66 1.06
-6.73 0.55 1.29
-6.75 0.56 1.29
-6.53 0.56 1.32
-8.38 0.74 1.08
-8.38 0.76 1.08
-9.05 0.84 0.99
-4.87 0.47 1.53
-6.64 0.65 1.30
-8.90 0.89 1.01
-6.61 0.68 1.30
-4.84 0.52 1.53
-6.14 0.67 1.36
-5.02 0.56 1.51
-6.50 0.74 1.32
-6.60 0.76 1.30
-6.62 0.78 1.30
-6.29 0.76 1.34
-4.93 0.61 1.52
-4.97 0.63 1.51
-5.90 0.76 1.39
-5.97 0.78 1.38
-5.42 0.72 1.46
-5.05 0.69 1.50
-4.98 0.69 1.51
-4.85 0.69 1.53
-9.13 1.29 0.97
-5.00 0.73 1.51
-5.08 0.76 1.50
-4.74 0.72 1.54
-5.00 0.77 1.51
-4.93 0.77 1.52
-9.20 1.44 0.95
-4.87 0.79 1.52
-5.56 0.91 1.43
-5.61 0.93 1.43
-9.42 1.57 0.92
-5.34 0.91 1.46
-9.64 1.65 0.89
-4.81 0.85 1.53
-4.86 0.87 1.52
-4.87 0.89 1.52
-5.02 0.94 1.50
-4.84 0.92 1.52
-5.21 1.00 1.47
-5.24 1.02 1.47
-4.64 0.93 1.55
-4.94 1.04 1.51
-5.30 1.24 1.45
-4.61 1.09 1.54
-5.30 1.26 1.45
-4.98 1.20 1.50
-4.68 1.15 1.53
-4.84 1.27 1.51
-4.38 1.17 1.57
-0.52 -1.62 1.76
-1.79 -0.76 1.62
-3.63 -0.91 1.38
-8.85 -1.35 0.71
-9.01 -1.34 0.69
-8.79 -1.28 0.71
-8.78 -1.26 0.72
-8.80 -1.23 0.71
-8.80 -1.20 0.71
-4.70 -0.75 1.24
-5.32 -0.79 1.16
-5.20 -0.76 1.18
-5.30 -0.76 1.17
-5.21 -0.73 1.18
-5.31 -0.72 1.16
-5.27 -0.70 1.17
-8.22 -0.93 0.79
-5.15 -0.65 1.19
-5.23 -0.64 1.17
-5.34 -0.63 1.16
-5.29 -0.60 1.17
-5.47 -0.60 1.14
-5.33 -0.57 1.16
-6.72 -0.65 0.98
-6.41 -0.61 1.02
-6.54 -0.59 1.01
-6.48 -0.57 1.01
-6.52 -0.55 1.01
-6.59 -0.53 1.00
-6.61 -0.51 1.00
-6.63 -0.49 0.99
-5.86 -0.43 1.09
-6.43 -0.44 1.02
-5.13 -0.36 1.19
-3.28 -0.26 1.43
-3.01 -0.23 1.46
-5.18 -0.30 1.18
-8.66 -0.41 0.73
-2.93 -0.19 1.47
-3.49 -0.19 1.40
-8.36 -0.32 0.77
-8.45 -0.30 0.76
-8.23 -0.27 0.79
-2.87 -0.12 1.48
-3.02 -0.11 1.46
-3.00 -0.10 1.46
-5.66 -0.13 1.12
-9.09 -0.12 0.99
-13.80 -0.15 0.38
-13.90 -0.12 0.37
-13.62 -0.09 0.41
-9.05 -0.04 1.00
-9.04 -0.01 1.00
-2.83 0.01 1.45
-3.05 0.02 1.42
-3.57 0.04 1.34
-3.12 0.05 1.41
-3.90 0.07 1.30
-3.04 0.07 1.42
-6.29 0.14 0.97
-6.38 0.16 0.96
-5.37 0.16 1.10
-5.71 0.19 1.05
-6.34 0.22 0.96
-13.30 0.39 0.35
-12.71 0.41 0.43
-13.71 0.47 0.29
-4.67 0.17 1.53
-4.38 0.17 1.57
-7.82 0.33 1.10
-4.53 0.20 1.55
-8.06 0.38 1.06
-4.26 0.21 1.58
-8.11 0.42 1.06
-8.13 0.44 1.05
-5.95 0.34 1.35
-4.47 0.27 1.56
-4.78 0.29 1.51
-8.42 0.53 1.01
-11.23 0.74 0.63
-4.58 0.32 1.54
-8.84 0.62 0.96
-4.48 0.33 1.55
-4.96 0.38 1.49
-8.48 0.66 1.00
-8.39 0.67 1.01
-11.55 0.95 0.58
-8.22 0.70 1.04
-6.59 0.58 1.26
-8.44 0.76 1.01
-4.93 0.46 1.49
-4.60 0.44 1.53
-4.58 0.45 1.54
-4.60 0.46 1.53
-4.77 0.49 1.51
-4.91 0.52 1.49
-4.84 0.52 1.50
-4.88 0.54 1.49
-4.73 0.54 1.51
-4.66 0.54 1.52
-4.78 0.57 1.51
-4.83 0.58 1.50
-5.04 0.62 1.47
-4.82 0.61 1.50
-5.01 0.64 1.47
-4.74 0.62 1.51
-4.79 0.64 1.50
-5.03 0.68 1.47
-9.37 1.28 0.87
-4.57 0.65 1.53
-4.34 0.63 1.56
-8.95 1.29 0.93
-4.72 0.70 1.51
-4.65 0.70 1.52
-4.71 0.72 1.51
-9.09 1.40 0.90
-4.51 0.72 1.54
-4.79 0.77 1.50
-4.74 0.78 1.51
-9.23 1.51 0.88
-4.66 0.79 1.52
-4.91 0.84 1.48
-9.35 1.60 0.86
-4.98 0.88 1.47
-4.42 0.82 1.55
-4.91 0.92 1.48
-4.37 0.86 1.55
-4.30 0.86 1.56
-4.41 0.90 1.55
-4.24 0.88 1.57
-4.21 0.91 1.57
-4.17 0.91 1.58
-4.05 0.93 1.59
-4.30 1.01 1.56
-4.28 1.05 1.56
-4.22 1.04 1.56
-3.46 0.89 1.67
-4.00 1.18 1.59
-3.63 1.56 1.61
-3.23 -0.96 1.39
-8.99 -1.67 0.60
-9.23 -1.67 0.57
-9.37 -1.66 0.55
-9.19 -1.61 0.58
-9.09 -1.54 0.59
-8.66 -1.46 0.65
-8.91 -1.43 0.62
-8.76 -1.39 0.64
-8.76 -1.36 0.64
-4.73 -0.86 1.19
-8.83 -1.32 0.63
-4.96 -0.85 1.16
-5.09 -0.85 1.14
-8.80 -1.23 0.63
-8.68 -1.19 0.65
-5.30 -0.81 1.11
-5.09 -0.77 1.14
-5.31 -0.78 1.11
-5.59 -0.78 1.07
-5.31 -0.74 1.11
-5.22 -0.71 1.12
-5.22 -0.69 1.12
-5.07 -0.66 1.14
-5.27 -0.66 1.12
-5.29 -0.64 1.11
-5.38 -0.63 1.10
-6.78 -0.72 0.91
-6.18 -0.66 0.99
-6.53 -0.66 0.94
-6.48 -0.64 0.95
-6.45 -0.61 0.96
-6.37 -0.58 0.97
-6.25 -0.55 0.98
-6.54 -0.55 0.94
-6.62 -0.53 0.93
-5.33 -0.44 1.11
-6.48 -0.48 0.95
-2.93 -0.28 1.44
-6.30 -0.43 0.97
-5.09 -0.35 1.14
-2.86 -0.24 1.44
-3.15 -0.24 1.41
-3.00 -0.22 1.43
-8.54 -0.41 0.67
-8.44 -0.38 0.68
-8.53 -0.35 0.67
-8.67 -0.33 0.65
-2.91 -0.15 1.44
-2.90 -0.14 1.44
-8.12 -0.24 0.72
-2.75 -0.08 1.46
-2.66 -0.06 1.47
-2.83 -0.03 1.45
-2.67 -0.02 1.47
-2.98 -0.01 1.43
-7.85 0.01 1.03
-7.94 0.03 1.02
-7.56 0.04 1.08
-7.75 0.06 1.05
-7.60 0.08 1.07
-7.94 0.10 1.02
-8.36 0.13 0.96
-8.31 0.15 0.97
-7.83 0.16 1.04
-8.00 0.18 1.01
-8.06 0.20 1.00
-7.82 0.21 1.04
-8.00 0.24 1.01
-7.64 0.25 1.06
-7.76 0.27 1.04
-7.87 0.29 1.03
-7.83 0.31 1.03
-4.61 0.20 1.50
-7.79 0.34 1.04
-7.82 0.37 1.03
-8.16 0.40 0.98
-8.08 0.42 1.00
-7.97 0.43 1.01
-5.16 0.29 1.42
-7.98 0.47 1.01
-4.82 0.30 1.47
-4.75 0.31 1.48
-8.26 0.55 0.97
-4.89 0.34 1.46
-8.10 0.58 0.99
-8.03 0.59 1.00
-8.44 0.64 0.94
-8.50 0.67 0.93
-8.24 0.67 0.97
-8.19 0.68 0.98
-8.20 0.70 0.98
-4.66 0.42 1.49
-5.07 0.46 1.43
-8.39 0.78 0.95
-4.53 0.44 1.51
-6.48 0.64 1.22
-6.68 0.67 1.19
-9.24 0.95 0.82
-6.59 0.70 1.21
-6.54 0.71 1.21
-5.03 0.56 1.43
-4.56 0.52 1.50
-4.97 0.58 1.44
-4.78 0.57 1.47
-4.80 0.58 1.46
-4.84 0.60 1.46
-5.31 0.67 1.39
-5.11 0.66 1.42
-5.18 0.68 1.41
-5.18 0.69 1.41
-5.11 0.70 1.42
-4.76 0.66 1.47
-4.74 0.67 1.47
-5.91 0.85 1.30
-4.90 0.72 1.45
-6.26 0.93 1.25
-4.81 0.73 1.46
-5.07 0.78 1.42
-5.03 0.79 1.42
-5.13 0.82 1.41
-4.98 0.80 1.43
-6.48 1.06 1.21
-4.89 0.82 1.44
-5.66 0.95 1.33
-6.15 1.05 1.26
-4.91 0.86 1.44
-5.16 0.91 1.40
-5.09 0.91 1.41
-5.08 0.92 1.41
-5.25 0.97 1.39
-4.93 0.92 1.43
-5.47 1.05 1.35
-4.74 0.93 1.46
-4.63 0.93 1.47
-4.86 1.03 1.44
-4.67 1.00 1.47
-4.99 1.08 1.42
-4.69 1.03 1.46
-4.54 1.01 1.48
-4.48 1.02 1.49
-4.68 1.11 1.46
-4.59 1.12 1.47
-4.47 1.22 1.48
-4.53 1.51 1.46
-2.09 -1.05 1.51
-2.51 -1.04 1.45
-8.76 -1.42 0.55
-6.98 -1.17 0.80
-8.52 -1.25 0.58
-8.45 -1.22 0.59
-5.41 -0.86 1.03
-5.34 -0.82 1.04
-5.36 -0.80 1.04
-5.17 -0.76 1.07
-5.17 -0.74 1.07
-5.58 -0.76 1.01
-5.30 -0.72 1.05
-5.23 -0.69 1.06
-5.07 -0.66 1.08
-5.21 -0.66 1.06
-5.22 -0.64 1.06
-7.76 -0.82 0.69
-7.63 -0.79 0.71
-7.84 -0.78 0.68
-7.93 -0.76 0.67
-7.25 -0.69 0.77
-6.97 -0.65 0.81
-6.87 -0.62 0.82
-7.09 -0.61 0.79
-6.89 -0.57 0.82
-6.75 -0.54 0.84
-6.91 -0.53 0.82
-3.27 -0.31 1.34
-3.10 -0.29 1.37
-6.62 -0.45 0.86
-2.84 -0.25 1.40
-3.11 -0.25 1.36
-3.20 -0.24 1.35
-2.80 -0.21 1.41
-2.80 -0.20 1.41
-8.95 -0.29 0.88
-8.98 -0.27 0.87
-8.86 -0.25 0.89
-8.98 -0.23 0.87
-9.18 -0.21 0.84
-9.05 -0.19 0.86
-9.25 -0.17 0.83
-9.14 -0.15 0.85
-4.45 -0.06 1.53
-8.95 -0.10 0.88
-9.02 -0.08 0.87
-8.73 -0.06 0.91
-9.23 -0.04 0.83
-8.98 -0.01 0.87
-9.91 0.04 0.29
-2.72 0.21 1.38
-3.99 0.25 1.56
-3.99 0.26 1.56
-4.11 0.27 1.54
-4.35 0.30 1.50
-4.38 0.31 1.50
-4.27 0.32 1.52
-4.27 0.33 1.52
-3.66 0.29 1.61
-3.98 0.32 1.56
-3.91 0.33 1.57
-3.99 0.35 1.56
-3.95 0.35 1.56
-4.08 0.37 1.54
-4.09 0.39 1.54
-4.19 0.41 1.53
-3.93 0.40 1.56
-11.90 1.21 0.34
-9.56 1.00 0.70
-9.54 1.02 0.70
-9.25 1.01 0.75
-4.21 0.48 1.52
-9.10 1.04 0.77
-9.17 1.07 0.76
-9.41 1.12 0.72
-4.40 0.54 1.49
-11.18 1.41 0.45
-4.14 0.54 1.53
-4.11 0.55 1.53
-9.66 1.29 0.68
-9.02 1.25 0.78
-4.48 0.64 1.47
-4.06 0.59 1.54
-9.32 1.36 0.73
-4.40 0.67 1.49
-4.29 0.66 1.50
-4.36 0.68 1.49
-9.28 1.45 0.73
-9.36 1.48 0.72
-4.25 0.70 1.51
-9.28 1.52 0.73
-9.41 1.56 0.71
-9.27 1.56 0.73
-9.43 1.61 0.70
-9.19 1.60 0.74
-3.26 0.90 1.64
-0.95 -1.28 1.64
-9.03 -1.53 0.42
-8.94 -1.46 0.44
-8.40 -1.26 0.52
-8.15 -1.16 0.56
-8.31 -1.15 0.53
-8.44 -1.14 0.51
-8.62 -1.13 0.49
-8.35 -1.08 0.53
-8.55 -1.07 0.50
-8.77 -1.06 0.47
-8.46 -1.01 0.51
-8.27 -0.94 0.54
-7.82 -0.88 0.61
-7.74 -0.85 0.62
-8.66 -0.89 0.48
-7.57 -0.78 0.65
-7.44 -0.75 0.67
-7.46 -0.73 0.66
-7.01 -0.65 0.73
-6.80 -0.61 0.77
-6.99 -0.60 0.74
-7.45 -0.61 0.67
-8.91 -0.64 0.45
-8.97 -0.59 0.44
-8.52 -0.54 0.51
-8.84 -0.53 0.46
-8.57 -0.49 0.50
-5.24 -0.14 1.00
-5.61 -0.13 0.94
-5.73 -0.03 0.93
-9.03 0.01 0.72
-8.87 0.03 0.75
-4.09 0.02 1.51
-3.81 0.03 1.55
-3.97 0.04 1.53
-3.79 0.05 1.56
-3.98 0.06 1.53
-4.13 0.08 1.50
-7.59 0.15 0.95
-7.69 0.17 0.93
-7.68 0.19 0.94
-7.62 0.21 0.95
-7.80 0.23 0.92
-7.71 0.25 0.93
-4.57 0.16 1.43
-7.84 0.29 0.91
-5.55 0.22 1.28
-7.65 0.32 0.94
-5.18 0.23 1.33
-7.52 0.35 0.96
-4.86 0.24 1.38
-4.55 0.24 1.43
-4.30 0.24 1.47
-4.38 0.25 1.46
-4.55 0.27 1.43
-4.82 0.30 1.39
-4.92 0.32 1.37
-4.65 0.31 1.42
-4.93 0.34 1.37
-4.66 0.34 1.41
-4.71 0.35 1.41
-4.50 0.35 1.44
-4.46 0.36 1.45
-4.47 0.37 1.44
-4.23 0.36 1.48
-4.29 0.37 1.47
-4.87 0.43 1.38
-4.26 0.39 1.48
-4.24 0.40 1.48
-4.21 0.41 1.48
-4.49 0.45 1.44
-4.16 0.43 1.49
-4.72 0.49 1.40
-4.02 0.43 1.51
-9.59 1.03 0.62
-9.44 1.04 0.64
-9.86 1.11 0.57
-4.42 0.52 1.45
-4.43 0.53 1.45
-4.44 0.54 1.44
-9.11 1.11 0.69
-9.02 1.12 0.70
-4.32 0.56 1.46
-4.84 0.64 1.38
-4.12 0.56 1.49
-9.25 1.24 0.66
-9.16 1.26 0.68
-4.48 0.64 1.43
-4.72 0.68 1.39
-4.54 0.67 1.42
-4.60 0.69 1.41
-4.51 0.69 1.43
-4.55 0.71 1.42
-4.95 0.78 1.35
-4.52 0.72 1.42
-4.65 0.75 1.40
-4.55 0.75 1.42
-4.63 0.78 1.41
-4.84 0.82 1.37
-4.75 0.82 1.38
-4.56 0.80 1.41
-9.20 1.60 0.66
-4.73 0.85 1.39
-4.34 0.79 1.45
-4.54 0.85 1.42
-4.35 0.90 1.44
-4.01 0.84 1.50
-4.47 0.95 1.42
-4.41 0.94 1.43
-4.58 1.08 1.40
-4.04 0.99 1.49
-4.02 -1.08 1.13
-8.68 -1.59 0.38
-7.26 -1.30 0.61
-8.78 -1.45 0.36
-7.55 -1.24 0.56
-8.77 -1.36 0.37
-7.75 -1.22 0.53
-8.38 -1.26 0.43
-7.97 -1.19 0.50
-7.95 -1.16 0.50
-7.80 -1.12 0.52
-5.72 -0.88 0.86
-8.46 -1.14 0.42
-7.57 -1.03 0.56
-7.53 -1.00 0.57
-8.11 -1.03 0.47
-7.52 -0.95 0.57
-8.25 -0.99 0.45
-7.81 -0.93 0.52
-7.86 -0.91 0.52
-7.57 -0.86 0.56
-7.77 -0.85 0.53
-7.73 -0.82 0.54
-7.51 -0.78 0.57
-7.79 -0.78 0.53
-7.29 -0.71 0.61
-7.20 -0.68 0.62
-7.11 -0.66 0.64
-7.07 -0.63 0.64
-7.01 -0.60 0.65
-6.96 -0.58 0.66
-6.89 -0.55 0.67
-7.33 -0.55 0.60
-6.81 -0.35 1.08
-9.73 -0.48 0.61
-6.97 -0.33 1.05
-6.89 -0.31 1.07
-9.96 -0.42 0.57
-10.04 -0.40 0.56
-6.66 -0.25 1.10
-9.80 -0.34 0.60
-9.12 -0.30 0.71
-9.01 -0.27 0.73
-3.70 -0.10 1.58
-8.98 -0.23 0.73
-8.64 -0.20 0.79
-3.91 -0.08 1.54
-8.89 -0.16 0.75
-9.03 -0.14 0.72
-3.95 -0.05 1.54
-3.85 -0.04 1.55
-9.02 -0.08 0.72
-11.54 -0.07 0.32
-8.17 -0.03 0.86
-4.11 -0.01 1.51
-3.98 0.03 1.50
-3.92 0.04 1.51
-3.91 0.05 1.51
-3.93 0.06 1.51
-4.02 0.07 1.49
-7.71 0.15 0.87
-7.72 0.17 0.87
-4.26 0.11 1.45
-7.72 0.21 0.87
-7.74 0.23 0.87
-7.78 0.25 0.86
-5.54 0.19 1.24
-4.89 0.18 1.34
-5.13 0.20 1.30
-5.18 0.22 1.29
-4.98 0.22 1.33
-5.27 0.25 1.28
-7.42 0.36 0.92
-4.97 0.26 1.33
-4.63 0.25 1.38
-4.79 0.27 1.36
-4.79 0.28 1.36
-4.48 0.28 1.41
-4.61 0.30 1.39
-4.81 0.32 1.35
-4.93 0.34 1.33
-4.86 0.35 1.35
-4.83 0.36 1.35
-4.65 0.36 1.38
-4.79 0.38 1.36
-4.88 0.40 1.34
-4.57 0.38 1.39
-4.44 0.38 1.41
-4.64 0.41 1.38
-4.50 0.41 1.40
-4.47 0.42 1.41
-4.31 0.42 1.43
-4.35 0.43 1.43
-4.74 0.48 1.36
-4.96 0.51 1.32
-4.92 0.52 1.33
-4.93 0.54 1.33
-5.13 0.57 1.29
-5.32 0.60 1.26
-4.92 0.57 1.33
-4.44 0.53 1.41
-4.54 0.55 1.39
-4.78 0.59 1.35
-4.36 0.55 1.42
-4.44 0.57 1.41
-4.82 0.63 1.34
-4.82 0.64 1.34
-4.79 0.65 1.35
-4.86 0.67 1.33
-4.64 0.66 1.37
-4.45 0.64 1.40
-4.68 0.68 1.37
-4.52 0.67 1.39
-4.57 0.69 1.38
-4.71 0.72 1.36
-4.41 0.69 1.41
-4.48 0.71 1.40
-3.86 0.63 1.50
-4.54 0.75 1.38
-4.68 0.78 1.36
-4.37 0.74 1.41
-4.64 0.80 1.37
-4.44 0.77 1.40
-4.45 0.79 1.40
-4.54 0.82 1.38
-4.66 0.85 1.36
-9.27 1.68 0.57
-4.09 0.81 1.46
-4.21 0.87 1.43
-4.51 0.94 1.38
-4.30 0.91 1.42
-4.21 0.93 1.43
-4.56 1.02 1.37
-4.36 0.99 1.40
-4.11 0.94 1.45
-4.30 1.00 1.41
-4.23 1.00 1.42
-3.93 0.99 1.47
-4.05 1.03 1.45
-4.04 1.12 1.45
-3.61 1.06 1.52
-3.90 1.15 1.47
-3.61 1.12 1.52
-3.62 1.19 1.51
-3.66 1.22 1.50
-3.30 1.27 1.55
-3.70 1.68 1.46
-2.53 -1.34 1.32
-1.32 -0.98 1.53
-1.49 -0.97 1.50
-1.46 -0.93 1.51
-3.97 -1.09 1.09
-5.03 -1.09 0.91
-3.55 -0.82 1.16
-6.95 -1.23 0.59
-8.45 -1.35 0.33
-7.95 -1.24 0.42
-7.79 -1.20 0.45
-8.57 -1.26 0.31
-7.73 -1.14 0.46
-7.71 -1.11 0.46
-7.56 -1.07 0.49
-7.43 -1.04 0.51
-1.94 -0.45 1.43
-7.59 -1.00 0.48
-7.69 -0.99 0.47
-7.75 -0.97 0.45
-7.47 -0.92 0.50
-5.52 -0.72 0.83
-7.28 -0.86 0.53
-7.18 -0.83 0.55
-7.34 -0.81 0.52
-6.95 -0.75 0.59
-7.34 -0.76 0.52
-7.27 -0.74 0.53
-6.92 -0.69 0.59
-7.00 -0.67 0.58
-6.91 -0.64 0.59
-6.99 -0.62 0.58
-7.02 -0.60 0.58
-6.82 -0.57 0.61
-2.23 -0.28 1.38
-6.69 -0.52 0.63
-7.08 -0.52 0.57
-2.23 -0.25 1.38
-2.27 -0.24 1.38
-2.35 -0.23 1.36
-2.36 -0.22 1.36
-6.72 -0.39 0.63
-2.29 -0.19 1.37
-5.15 -0.16 0.89
-3.96 0.00 1.47
-9.41 0.03 0.51
-9.27 0.05 0.53
-7.68 0.06 0.81
-9.20 0.10 0.54
-7.60 0.10 0.83
-7.67 0.12 0.81
-7.82 0.14 0.79
-7.69 0.15 0.81
-7.59 0.17 0.83
-7.62 0.19 0.82
-7.55 0.21 0.83
-7.37 0.22 0.87
-7.48 0.24 0.85
-7.43 0.26 0.85
-7.52 0.28 0.84
-7.42 0.29 0.86
-7.35 0.31 0.87
-7.47 0.33 0.85
-7.29 0.34 0.88
-7.26 0.36 0.88
-7.19 0.37 0.89
-7.09 0.38 0.91
-7.00 0.40 0.93
-7.25 0.43 0.88
-7.94 0.49 0.76
-7.32 0.47 0.87
-7.38 0.49 0.86
-7.11 0.49 0.91
-7.04 0.50 0.92
-6.81 0.50 0.96
-6.96 0.53 0.93
-6.78 0.53 0.96
-6.69 0.54 0.98
-8.28 0.69 0.70
-8.15 0.70 0.72
-4.65 0.42 1.34
-8.68 0.78 0.62
-8.65 0.80 0.63
-4.65 0.45 1.34
-4.80 0.48 1.31
-6.24 0.63 1.05
-5.48 0.57 1.19
-6.64 0.70 0.98
-8.26 0.89 0.69
-6.75 0.75 0.96
-6.62 0.75 0.99
-6.68 0.77 0.97
-6.48 0.76 1.01
-9.62 1.15 0.45
-8.76 1.07 0.60
-4.86 0.61 1.29
-5.22 0.67 1.23
-4.94 0.65 1.28
-5.00 0.67 1.27
-5.07 0.69 1.26
-5.17 0.72 1.24
-4.84 0.68 1.30
-4.77 0.69 1.31
-5.04 0.74 1.26
-4.83 0.72 1.30
-4.95 0.75 1.28
-4.83 0.74 1.29
-5.07 0.79 1.25
-4.64 0.74 1.33
-4.56 0.74 1.34
-9.23 1.49 0.51
-9.11 1.49 0.53
-9.09 1.51 0.53
-9.10 1.54 0.53
-9.29 1.59 0.49
-9.21 1.60 0.51
-4.67 0.84 1.32
-4.76 0.87 1.30
-4.61 0.93 1.32
-4.80 0.99 1.29
-4.76 1.04 1.29
-4.36 1.05 1.36
-4.25 1.07 1.38
-4.64 1.51 1.29
-4.65 1.53 1.28
-3.99 -1.35 1.02
-4.12 -1.22 1.00
-3.98 -1.18 1.03
-3.91 -1.13 1.04
-7.16 -1.33 0.47
-8.02 -1.38 0.32
-7.96 -1.32 0.33
-7.62 -1.20 0.39
-7.68 -1.16 0.38
-7.66 -1.13 0.38
-7.55 -1.10 0.40
-7.71 -1.09 0.37
-7.50 -1.04 0.41
-4.69 -0.71 0.91
-7.42 -0.94 0.42
-7.52 -0.92 0.41
-7.38 -0.86 0.43
-7.20 -0.82 0.46
-7.25 -0.78 0.46
-7.14 -0.75 0.47
-6.92 -0.71 0.51
-6.99 -0.69 0.50
-6.64 -0.64 0.56
-6.60 -0.62 0.57
-6.48 -0.59 0.59
-6.54 -0.55 0.58
-6.39 -0.50 0.61
-6.43 -0.48 0.60
-6.47 -0.44 0.59
-2.52 -0.24 1.29
-2.67 -0.22 1.26
-6.39 -0.35 0.61
-6.20 -0.32 0.64
-5.59 -0.28 0.75
-6.17 -0.26 0.65
-2.59 -0.14 1.28
-6.67 -0.21 0.56
-2.87 -0.11 1.23
-2.79 -0.10 1.24
-8.98 -0.12 0.59
-6.81 -0.08 0.97
-7.09 -0.06 0.92
-7.02 -0.04 0.93
-3.96 -0.01 1.47
-8.97 -0.01 0.59
-5.59 0.07 0.67
-4.80 0.14 1.28
-4.41 0.14 1.35
-4.93 0.17 1.25
-5.05 0.19 1.23
-5.21 0.21 1.20
-5.14 0.22 1.21
-5.12 0.23 1.22
-5.16 0.24 1.21
-5.05 0.25 1.23
-5.12 0.27 1.21
-5.18 0.28 1.20
-5.12 0.29 1.21
-4.90 0.29 1.25
-5.04 0.31 1.23
-4.95 0.32 1.25
-4.98 0.33 1.24
-4.90 0.34 1.25
-5.20 0.37 1.20
-4.79 0.35 1.27
-5.84 0.44 1.08
-5.85 0.46 1.08
-5.01 0.41 1.23
-4.52 0.38 1.32
-4.46 0.39 1.33
-4.52 0.40 1.32
-4.07 0.37 1.41
-4.09 0.38 1.40
-4.39 0.42 1.34
-4.23 0.42 1.37
-4.46 0.45 1.33
-4.25 0.44 1.37
-4.34 0.46 1.35
-4.11 0.45 1.39
-4.31 0.48 1.36
-4.21 0.48 1.38
-4.22 0.49 1.37
-4.20 0.50 1.38
-4.41 0.53 1.34
-4.58 0.57 1.31
-4.28 0.54 1.36
-4.32 0.56 1.35
-4.44 0.58 1.33
-4.75 0.64 1.27
-4.70 0.64 1.28
-4.71 0.65 1.28
-4.69 0.66 1.28
-4.80 0.69 1.26
-4.64 0.68 1.29
-4.55 0.68 1.31
-4.40 0.67 1.33
-4.41 0.68 1.33
-9.77 1.50 0.33
-4.17 0.67 1.38
-3.86 0.63 1.43
-9.12 1.47 0.45
-3.84 0.64 1.44
-3.93 0.67 1.42
-3.98 0.69 1.41
-3.86 0.68 1.43
-9.53 1.66 0.36
-4.60 0.85 1.29
-4.61 0.86 1.29
-4.37 0.83 1.33
-4.38 0.84 1.33
-4.39 0.86 1.33
-4.82 0.95 1.25
-4.85 1.00 1.24
-4.29 0.95 1.34
-3.95 0.89 1.40
-4.06 0.96 1.38
-4.09 0.98 1.37
-4.34 1.05 1.33
-3.95 0.97 1.40
-3.87 0.96 1.41
-4.16 1.04 1.36
-4.08 1.06 1.37
-4.06 1.07 1.37
-3.89 1.08 1.40
-3.62 1.31 1.43
-3.78 1.48 1.39
-2.55 1.12 1.63
-0.67 -1.69 1.55
-1.59 -0.90 1.42
-1.50 -0.81 1.43
-3.54 -1.14 1.05
-3.65 -1.13 1.03
-3.82 -1.15 1.00
-5.99 -1.15 0.60
-7.40 -1.13 0.34
-7.38 -0.96 0.35
-7.35 -0.86 0.35
-7.44 -0.85 0.34
-7.28 -0.81 0.37
-7.09 -0.77 0.40
-7.14 -0.75 0.39
-7.06 -0.72 0.41
-6.93 -0.69 0.43
-6.79 -0.66 0.46
-6.89 -0.64 0.44
-6.95 -0.62 0.43
-6.96 -0.60 0.43
-6.98 -0.58 0.42
-6.84 -0.55 0.45
-2.15 -0.26 1.31
-7.04 -0.51 0.41
-2.29 -0.25 1.29
-7.21 -0.48 0.38
-2.05 -0.21 1.33
-2.41 -0.22 1.27
-6.93 -0.40 0.43
-2.17 -0.19 1.31
-2.60 -0.19 1.23
-3.06 -0.19 1.15
-2.68 -0.17 1.22
-6.71 -0.17 0.47
-6.59 -0.12 0.49
-5.45 -0.09 0.70
-7.13 0.02 0.78
-7.49 0.06 0.71
-7.16 0.09 0.78
-7.72 0.14 0.67
-8.50 0.19 0.52
-8.02 0.22 0.61
-5.59 0.18 1.08
-4.97 0.19 1.20
-5.40 0.23 1.11
-8.19 0.38 0.57
-8.30 0.43 0.55
-5.24 0.30 1.14
-5.52 0.33 1.09
-6.68 0.41 0.86
-8.36 0.55 0.54
-5.04 0.36 1.18
-4.96 0.38 1.19
-6.18 0.50 0.96
-6.93 0.60 0.81
-8.15 0.74 0.57
-6.34 0.61 0.92
-6.62 0.65 0.87
-6.72 0.71 0.85
-4.84 0.54 1.21
-4.74 0.55 1.23
-4.61 0.58 1.26
-4.78 0.63 1.22
-5.11 0.70 1.16
-5.20 0.74 1.14
-5.05 0.74 1.16
-9.16 1.37 0.36
-9.09 1.45 0.37
-9.01 1.48 0.38
-8.89 1.50 0.40
-8.91 1.55 0.40
-9.16 1.62 0.35
-9.26 1.66 0.33
-5.05 0.94 1.16
-5.19 1.00 1.13
-1.80 -1.10 1.33
-3.89 -1.37 0.92
-3.91 -1.36 0.92
-3.67 -1.24 0.97
-3.54 -1.20 1.00
-3.53 -1.16 1.00
-3.78 -1.19 0.95
-3.82 -1.18 0.94
-3.76 -1.15 0.95
-3.62 -1.10 0.98
-4.39 -1.19 0.83
-3.87 -1.07 0.94
-3.96 -1.07 0.92
-4.24 -1.00 0.86
-5.27 -0.77 0.67
-6.88 -0.91 0.35
-6.68 -0.71 0.39
-6.77 -0.68 0.38
-7.03 -0.63 0.33
-2.28 -0.31 1.25
-6.92 -0.58 0.35
-6.98 -0.56 0.34
-7.01 -0.54 0.33
-6.97 -0.51 0.34
-6.98 -0.49 0.34
-6.97 -0.44 0.34
-7.09 -0.43 0.31
-6.68 -0.39 0.39
-6.78 -0.37 0.38
-6.27 -0.33 0.47
-6.82 -0.24 0.85
-6.75 -0.21 0.86
-7.38 -0.19 0.74
-7.40 -0.15 0.73
-7.04 -0.11 0.80
-7.12 -0.08 0.79
-7.21 -0.05 0.77
-7.51 -0.01 0.71
-4.64 0.14 0.73
-6.21 0.24 0.41
-6.40 0.27 0.37
-6.38 0.29 0.37
-6.02 0.29 0.45
-4.27 0.21 1.30
-4.54 0.24 1.25
-4.63 0.25 1.23
-4.29 0.24 1.30
-4.29 0.25 1.29
-4.79 0.29 1.19
-4.63 0.30 1.23
-4.44 0.30 1.26
-4.62 0.32 1.23
-4.75 0.34 1.20
-4.45 0.33 1.26
-4.44 0.34 1.26
-4.64 0.37 1.22
-4.34 0.35 1.28
-4.31 0.36 1.29
-4.20 0.36 1.31
-4.51 0.40 1.25
-4.38 0.40 1.27
-4.36 0.41 1.28
-4.35 0.42 1.28
-4.39 0.43 1.27
-4.28 0.43 1.29
-4.38 0.45 1.27
-4.50 0.48 1.25
-4.34 0.47 1.28
-4.20 0.47 1.31
-4.27 0.49 1.29
-4.13 0.48 1.32
-4.24 0.50 1.29
-4.52 0.55 1.24
-4.21 0.52 1.30
-4.23 0.53 1.30
-4.10 0.53 1.32
-3.85 0.51 1.37
-3.82 0.51 1.38
-3.68 0.50 1.41
-3.76 0.52 1.39
-3.90 0.55 1.36
-3.96 0.57 1.35
-7.46 1.09 0.63
-3.62 0.55 1.42
-3.53 0.57 1.43
-3.67 0.60 1.40
-3.82 0.64 1.37
-3.78 0.64 1.38
-3.94 0.68 1.35
-4.79 0.87 1.17
-8.15 1.58 0.47
-3.68 0.90 1.38
-1.85 -1.24 1.28
-1.71 -1.19 1.31
-1.75 -1.13 1.31
-1.69 -1.08 1.32
-1.78 -1.03 1.30
-1.78 -0.88 1.31
-1.21 -0.73 1.43
-1.70 -0.21 1.33
-2.23 -0.21 1.22
-2.39 -0.21 1.19
-2.01 -0.18 1.26
-6.96 0.01 0.69
-6.94 0.02 0.69
-6.91 0.04 0.70
-7.23 0.06 0.63
-7.09 0.07 0.66
-8.17 0.10 0.43
-7.82 0.14 0.50
-7.49 0.15 0.57
-8.27 0.19 0.41
-7.82 0.19 0.50
-7.48 0.21 0.57
-5.23 0.16 1.05
-5.19 0.17 1.06
-8.09 0.30 0.44
-8.34 0.33 0.39
-8.36 0.35 0.38
-8.20 0.36 0.42
-7.98 0.37 0.47
-7.74 0.38 0.52
-7.82 0.41 0.50
-5.45 0.30 1.00
-7.68 0.43 0.53
-7.68 0.45 0.53
-7.93 0.49 0.47
-8.11 0.52 0.44
-5.23 0.35 1.04
-5.49 0.38 0.99
-7.79 0.55 0.50
-5.85 0.43 0.91
-8.25 0.63 0.40
-4.93 0.39 1.11
-4.82 0.39 1.13
-4.80 0.41 1.13
-4.86 0.42 1.12
-6.12 0.54 0.85
-4.92 0.45 1.11
-5.27 0.50 1.03
-5.36 0.52 1.01
-5.20 0.51 1.05
-5.31 0.54 1.02
-5.60 0.58 0.96
-5.77 0.61 0.92
-8.04 0.87 0.44
-7.64 0.84 0.52
-8.05 0.91 0.44
-8.15 0.94 0.42
-7.50 0.88 0.55
-6.61 0.80 0.74
-7.48 0.92 0.55
-7.17 0.90 0.62
-6.97 0.89 0.66
-7.51 0.98 0.55
-3.87 0.53 1.32
-7.91 1.11 0.46
-4.21 0.61 1.25
-4.02 0.61 1.29
-7.49 1.12 0.54
-7.54 1.15 0.53
-8.15 1.26 0.40
-6.84 1.08 0.68
-6.94 1.11 0.66
-7.47 1.21 0.54
-7.77 1.28 0.48
-6.79 1.14 0.69
-6.82 1.16 0.68
-6.66 1.15 0.72
-4.39 0.79 1.20
-4.52 0.83 1.17
-6.62 1.21 0.72
-4.80 0.94 1.11
-4.91 1.02 1.08
-4.11 0.96 1.25
-1.91 -1.17 1.22
-2.06 -1.19 1.19
-1.82 -1.12 1.24
-1.83 -1.11 1.24
-1.90 -1.12 1.23
-1.84 -1.09 1.24
-1.97 -1.11 1.21
-2.07 -1.12 1.19
-1.82 -1.04 1.25
-2.02 -1.08 1.20
-1.94 -1.05 1.22
-2.21 -1.10 1.16
-1.91 -1.02 1.23
-2.12 -1.06 1.18
-2.45 -1.12 1.11
-2.02 -1.01 1.21
-2.15 -1.03 1.18
-1.97 -0.98 1.22
-1.75 -0.92 1.26
-1.86 -0.93 1.24
-3.66 -1.17 0.86
-3.54 -1.13 0.88
-3.37 -1.08 0.92
-3.58 -1.11 0.88
-3.38 -1.06 0.92
-3.68 -1.10 0.86
-3.71 -1.07 0.85
-3.54 -1.03 0.89
-3.72 -1.04 0.85
-3.50 -0.99 0.89
-3.83 -1.03 0.83
-3.69 -0.99 0.86
-3.72 -0.98 0.85
-3.34 -0.91 0.93
-3.69 -0.95 0.86
-3.76 -0.94 0.84
-4.03 -0.97 0.78
-3.50 -0.87 0.90
-3.63 -0.88 0.87
-3.82 -0.89 0.83
-3.85 -0.88 0.82
-3.64 -0.83 0.87
-4.38 -0.92 0.71
-4.09 -0.86 0.77
-5.08 -0.97 0.56
-4.30 -0.86 0.73
-4.17 -0.83 0.75
-4.02 -0.79 0.79
-5.03 -0.90 0.57
-4.44 -0.81 0.70
-4.14 -0.76 0.76
-3.75 -0.70 0.84
-5.23 -0.64 0.53
-2.57 -0.39 1.10
-5.69 -0.58 0.44
-3.21 -0.32 0.96
-7.93 -0.43 0.48
-7.80 -0.41 0.51
-7.37 -0.37 0.60
-7.33 -0.35 0.61
-7.38 -0.33 0.60
-7.37 -0.31 0.60
-7.09 -0.28 0.66
-7.15 -0.27 0.65
-7.28 -0.26 0.62
-7.16 -0.23 0.65
-6.87 -0.21 0.71
-6.68 -0.19 0.75
-7.03 -0.18 0.68
-6.87 -0.16 0.71
-7.09 -0.15 0.66
-7.00 -0.13 0.68
-7.12 -0.11 0.65
-6.55 -0.09 0.77
-7.23 -0.08 0.63
-7.22 -0.06 0.63
-6.90 -0.04 0.70
-7.18 -0.03 0.64
-6.89 -0.01 0.70
-4.46 0.02 0.63
-4.63 0.04 0.59
-3.61 0.03 1.36
-6.86 0.07 0.65
-3.92 0.05 1.30
-7.23 0.11 0.56
-4.28 0.10 1.21
-7.07 0.18 0.60
-7.50 0.20 0.50
-4.11 0.12 1.25
-4.16 0.14 1.24
-4.15 0.15 1.24
-4.43 0.17 1.18
-4.21 0.17 1.23
-3.65 0.16 1.35
-7.69 0.34 0.46
-5.48 0.26 0.94
-5.01 0.25 1.05
-5.65 0.29 0.91
-5.61 0.30 0.92
-4.95 0.28 1.06
-4.86 0.29 1.08
-4.86 0.30 1.08
-4.86 0.31 1.08
-4.67 0.31 1.12
-4.61 0.32 1.14
-4.80 0.34 1.09
-4.52 0.33 1.16
-4.66 0.36 1.12
-4.79 0.38 1.09
-4.55 0.37 1.15
-4.58 0.38 1.14
-4.71 0.41 1.11
-4.91 0.43 1.07
-4.92 0.45 1.06
-4.99 0.47 1.05
-4.96 0.48 1.05
-5.15 0.51 1.01
-5.09 0.51 1.02
-5.01 0.52 1.04
-6.16 0.65 0.78
-5.69 0.62 0.89
-6.30 0.70 0.75
-6.78 0.76 0.64
-7.48 0.86 0.49
-7.58 0.89 0.46
-3.66 0.45 1.34
-7.07 0.87 0.58
-4.09 0.52 1.24
-3.63 0.47 1.34
-3.58 0.48 1.35
-3.74 0.50 1.32
-3.66 0.50 1.34
-3.74 0.52 1.32
-3.62 0.52 1.34
-4.03 0.58 1.25
-3.96 0.58 1.26
-3.89 0.58 1.28
-3.98 0.61 1.26
-3.84 0.59 1.29
-3.91 0.62 1.27
-6.78 1.07 0.63
-4.03 0.66 1.25
-3.96 0.65 1.26
-3.98 0.67 1.26
-3.94 0.67 1.26
-3.61 0.63 1.34
-3.72 0.65 1.31
-6.67 1.17 0.65
-6.57 1.17 0.67
-4.09 0.75 1.23
-6.72 1.23 0.64
-4.43 0.83 1.15
-3.63 0.69 1.33
-4.24 0.83 1.19
-4.02 0.80 1.24
-3.94 0.81 1.26
-1.73 -0.90 1.23
-1.72 -0.87 1.23
-1.66 -0.85 1.25
-3.35 -1.15 0.87
-1.61 -0.80 1.26
-1.74 -0.81 1.23
-3.90 -1.09 0.75
-3.93 -1.07 0.74
-3.77 -1.03 0.78
-3.71 -1.01 0.79
-3.50 -0.96 0.84
-3.79 -0.99 0.78
-3.63 -0.95 0.81
-3.77 -0.96 0.78
-3.38 -0.88 0.87
-3.44 -0.88 0.86
-3.62 -0.88 0.82
-3.68 -0.87 0.80
-4.03 -0.90 0.73
-4.09 -0.89 0.71
-4.44 -0.92 0.64
-4.15 -0.87 0.70
-4.16 -0.86 0.70
-4.14 -0.84 0.70
-4.30 -0.84 0.67
-4.16 -0.81 0.70
-4.25 -0.80 0.68
-4.20 -0.78 0.69
-4.33 -0.78 0.66
-4.54 -0.79 0.61
-4.46 -0.76 0.63
-5.01 -0.80 0.51
-5.57 -0.82 0.39
-4.66 -0.70 0.59
-5.36 -0.75 0.43
-5.41 -0.73 0.42
-5.33 -0.71 0.44
-5.54 -0.71 0.39
-5.41 -0.67 0.42
-2.55 -0.37 1.06
-2.53 -0.34 1.06
-2.39 -0.32 1.09
-3.06 -0.31 0.94
-3.11 -0.30 0.93
-3.04 -0.29 0.95
-3.15 -0.28 0.92
-3.13 -0.26 0.93
-3.39 -0.26 0.87
-3.24 -0.23 0.90
-5.46 -0.26 0.41
-4.87 -0.22 0.54
-4.84 -0.20 0.55
-5.14 -0.19 0.48
-4.88 -0.17 0.54
-5.04 -0.15 0.50
-4.70 -0.13 0.58
-5.00 -0.12 0.51
-4.97 -0.10 0.52
-5.36 -0.01 0.43
-6.93 0.06 0.56
-7.00 0.07 0.54
-7.19 0.09 0.50
-7.34 0.11 0.46
-7.23 0.13 0.49
-7.36 0.15 0.46
-7.26 0.16 0.48
-7.64 0.28 0.39
-7.42 0.29 0.44
-7.34 0.31 0.46
-6.97 0.68 0.53
-6.80 0.68 0.57
-6.50 0.67 0.64
-6.32 0.67 0.68
-6.91 0.75 0.54
-6.90 0.76 0.55
-7.01 0.79 0.52
-7.07 0.81 0.51
-6.82 0.80 0.56
-7.30 0.88 0.45
-7.09 0.87 0.50
-6.91 0.87 0.54
-6.84 0.87 0.56
-6.69 0.87 0.59
-6.92 0.92 0.53
-7.03 0.95 0.51
-6.91 0.95 0.54
-6.92 1.00 0.53
-3.97 0.59 1.22
-6.98 1.05 0.52
-6.67 1.02 0.59
-6.48 1.01 0.63
-6.51 1.03 0.62
-6.50 1.04 0.62
-6.52 1.08 0.62
-6.55 1.10 0.61
-6.25 1.07 0.68
-6.43 1.11 0.64
-6.67 1.17 0.58
-6.47 1.15 0.62
-6.54 1.18 0.61
-6.43 1.18 0.63
-6.60 1.22 0.59
-6.50 1.22 0.61
-6.45 1.23 0.62
-6.61 1.28 0.59
-4.14 -1.16 0.63
-3.96 -1.11 0.67
-3.98 -1.08 0.67
-4.46 -1.10 0.56
-4.21 -1.04 0.61
-4.09 -1.01 0.64
-4.43 -1.04 0.56
-4.39 -1.02 0.57
-4.14 -0.97 0.63
-3.71 -0.89 0.73
-4.30 -0.96 0.59
-4.33 -0.94 0.59
-4.31 -0.93 0.59
-4.48 -0.93 0.55
-4.55 -0.92 0.54
-4.39 -0.89 0.58
-4.38 -0.87 0.58
-4.54 -0.87 0.54
-4.61 -0.86 0.53
-4.62 -0.85 0.52
-4.54 -0.82 0.54
-4.46 -0.80 0.56
-4.52 -0.79 0.55
-4.43 -0.76 0.57
-4.67 -0.77 0.51
-4.77 -0.76 0.49
-4.82 -0.73 0.47
-4.77 -0.71 0.49
-5.04 -0.71 0.42
-5.07 -0.70 0.42
-5.28 -0.16 0.37
-5.20 -0.14 0.39
-6.59 -0.09 0.64
-6.75 -0.08 0.60
-6.84 -0.06 0.58
-1.18 -0.87 0.57
-3.64 0.25 0.67
-4.56 0.13 0.61
-3.32 0.69 0.44
-2.24 1.22 0.45
-2.02 1.18 0.46
-3.29 0.47 0.42
-3.49 0.51 0.29
-2.93 0.78 0.30
-2.89 0.81 0.30
-2.82 0.84 0.31
-3.90 0.45 0.20
-3.80 0.55 0.21
-3.25 0.57 0.26
-3.31 0.69 0.25
-3.48 0.59 0.21
-3.33 0.69 0.22
-2.88 0.51 0.24
-2.62 0.66 0.26
-2.84 0.56 0.22
-2.43 0.86 0.26
-2.08 0.83 0.24
-2.11 0.95 0.23
-1.82 0.93 0.27
-1.94 0.92 0.24
-2.02 0.81 0.22
-1.03 -0.81 0.31
-1.93 0.83 0.20
-1.03 -0.81 0.29
-1.02 -0.86 0.27
-0.92 -0.45 0.21
-15.24 0.27 1.42
-13.93 -1.04 1.07
-11.90 1.47 1.29
-15.45 0.72 0.95
-13.70 0.70 1.09
-9.42 0.78 1.42
-9.90 1.02 1.38
-9.73 1.02 1.40
-9.62 1.08 1.41
-12.20 1.51 1.20
-11.92 1.51 1.22
-11.92 1.54 1.22
-9.57 1.26 1.41
-9.31 1.30 1.43
-9.45 1.34 1.42
-9.83 1.44 1.38
-9.50 1.42 1.41
-9.52 1.45 1.41
-9.39 1.45 1.42
-9.65 1.51 1.40
-14.60 -1.28 0.83
-14.30 -1.10 0.85
-14.28 -0.94 0.86
-15.91 1.27 0.83
-9.34 0.80 1.38
-9.48 0.83 1.37
-9.34 0.86 1.38
-11.97 1.25 1.16
-9.74 1.09 1.35
-9.70 1.11 1.35
-9.58 1.33 1.36
-15.23 0.48 0.79
-15.03 0.62 0.81
-13.40 0.78 0.96
-13.55 0.82 0.94
-15.91 1.19 0.73
-12.80 1.24 1.01
-9.41 0.96 1.31
-9.72 1.11 1.28
-11.85 1.47 1.09
-11.80 1.58 1.09
-12.34 1.68 1.04
-9.53 1.33 1.30
-10.23 1.47 1.23
-9.69 1.59 1.28
-9.87 1.69 1.26
-14.59 -1.36 0.64
-14.77 -1.29 0.62
-14.52 -1.24 0.64
-14.60 -1.20 0.63
-14.36 -1.14 0.66
-14.35 -1.06 0.66
-14.09 -0.81 0.68
-14.14 -0.77 0.68
-14.13 -0.73 0.68
-14.59 -0.71 0.64
-13.82 0.33 0.61
-14.12 0.38 0.58
-14.04 0.42 0.59
-14.99 0.41 0.73
-15.13 0.45 0.72
-15.18 0.48 0.71
-15.71 0.61 0.66
-12.13 0.91 1.00
-14.19 1.13 0.80
-11.76 1.00 1.04
-10.21 1.17 1.18
-9.11 1.11 1.29
-11.81 1.46 1.03
-11.74 1.54 1.03
-12.50 1.67 0.96
-10.91 1.49 1.11
-14.97 -1.44 0.51
-15.08 -1.41 0.50
-14.88 -1.31 0.52
-15.28 -1.30 0.48
-14.80 -1.22 0.52
-14.52 -0.99 0.55
-14.22 -0.93 0.58
-14.19 -0.89 0.58
-13.88 -0.84 0.61
-13.89 -0.80 0.61
-14.09 -0.77 0.59
-14.11 -0.73 0.59
-14.15 -0.69 0.58
-13.71 -0.48 0.63
-14.74 0.19 0.66
-14.81 0.22 0.65
-14.75 0.29 0.66
-14.66 0.33 0.67
-15.08 0.37 0.63
-14.91 0.40 0.64
-15.10 0.44 0.62
-15.30 0.49 0.60
-15.71 0.54 0.56
-15.41 0.57 0.59
-15.69 0.65 0.56
-8.81 0.60 1.27
-11.62 0.88 0.98
-9.17 0.72 1.23
-11.66 0.94 0.97
-11.25 0.93 1.01
-11.81 1.01 0.95
-11.38 1.13 1.00
-10.06 1.13 1.13
-9.61 1.10 1.18
-11.36 1.33 1.00
-11.84 1.41 0.95
-10.95 1.33 1.04
-12.14 1.51 0.91
-9.14 1.16 1.22
-9.03 1.17 1.23
-8.95 1.18 1.24
-9.02 1.21 1.23
-9.28 1.27 1.21
-11.48 1.59 0.98
-9.15 1.41 1.22
-10.59 1.68 1.07
-15.30 -1.68 0.36
-15.06 -1.61 0.38
-8.58 -0.99 1.04
-14.98 -1.52 0.39
-14.92 -1.47 0.40
-14.92 -1.43 0.40
-15.38 -1.43 0.35
-15.06 -1.36 0.38
-14.99 -1.31 0.39
-8.56 -0.81 1.05
-14.74 -1.17 0.41
-8.76 -0.68 1.03
-6.75 -0.54 1.23
-8.78 -0.63 1.02
-8.98 -0.62 1.00
-14.23 -0.86 0.47
-13.94 -0.80 0.50
-8.99 -0.54 1.00
-14.04 -0.69 0.49
-13.74 -0.64 0.52
-14.41 -0.50 0.70
-14.48 -0.47 0.69
-14.73 0.60 0.30
-11.00 1.36 0.96
-12.14 1.62 0.83
-11.92 1.65 0.86
-11.70 1.65 0.88
-11.63 1.67 0.89
-15.22 -1.33 0.25
-14.51 -1.04 0.33
-14.12 -0.78 0.37
-13.81 -0.60 0.40
-13.47 -0.47 0.44
-14.38 0.08 0.51
-14.61 0.15 0.48
-15.45 0.20 0.38
-14.37 0.29 0.51
-15.48 0.38 0.38
-15.55 0.42 0.37
-15.84 0.46 0.34
-15.25 0.67 0.40
-15.69 0.73 0.35
-14.88 0.73 0.44
-14.64 0.75 0.47
-14.45 0.81 0.49
-14.80 0.86 0.45
-14.47 0.88 0.49
-14.50 0.95 0.49
-14.87 1.01 0.44
-14.59 1.03 0.47
-13.78 1.04 0.57
-8.61 0.67 1.17
-14.68 1.18 0.46
-11.45 1.03 0.83
-11.50 1.06 0.83
-11.33 1.19 0.85
-11.52 1.23 0.82
-11.16 1.28 0.86
-11.23 1.31 0.86
-11.49 1.37 0.83
-11.91 1.45 0.78
-12.00 1.52 0.76
-12.30 1.59 0.73
-12.20 1.60 0.74
-8.89 1.20 1.13
-8.95 1.23 1.12
-12.11 1.68 0.75
-9.07 1.29 1.10
-9.22 1.38 1.08
-9.36 1.42 1.07
-9.34 1.47 1.07
-9.34 1.49 1.07
-9.69 1.62 1.03
-8.67 -1.00 0.88
-8.70 -0.98 0.88
-9.04 -0.98 0.84
-8.88 -0.94 0.86
-8.66 -0.89 0.89
-8.84 -0.88 0.87
-8.57 -0.83 0.90
-8.90 -0.83 0.86
-8.62 -0.76 0.89
-8.70 -0.74 0.88
-14.09 -0.93 0.26
-14.64 -0.76 0.48
-14.81 -0.73 0.46
-14.48 -0.68 0.50
-14.29 -0.64 0.52
-14.76 -0.62 0.46
-14.45 -0.58 0.50
-14.37 -0.54 0.51
-14.61 -0.51 0.48
-14.44 -0.47 0.50
-14.60 -0.44 0.48
-14.34 -0.40 0.51
-14.34 -0.37 0.51
-14.11 -0.33 0.54
-14.47 0.25 0.40
-14.16 0.35 0.44
-15.49 0.68 0.27
-14.96 0.73 0.33
-14.97 0.76 0.33
-8.59 0.46 1.12
-14.06 0.78 0.44
-14.70 0.86 0.37
-15.03 0.91 0.32
-8.57 0.54 1.12
-14.03 0.92 0.45
-13.08 0.95 0.56
-14.34 1.11 0.41
-9.14 0.91 1.04
-11.16 1.14 0.79
-11.65 1.22 0.73
-11.61 1.27 0.74
-11.47 1.28 0.75
-6.62 0.76 1.35
-11.88 1.44 0.70
-12.21 1.57 0.66
-11.83 1.55 0.70
-12.04 1.61 0.68
-9.08 1.26 1.04
-11.77 1.66 0.71
-9.11 1.31 1.04
-9.17 1.39 1.03
-9.38 1.44 1.00
-9.39 1.49 1.00
-9.59 1.57 0.97
-8.56 -1.07 0.83
-8.59 -1.02 0.82
-8.41 -0.98 0.85
-8.44 -0.96 0.84
-8.50 -0.93 0.83
-8.50 -0.90 0.83
-8.44 -0.87 0.84
-8.38 -0.84 0.85
-8.49 -0.83 0.83
-8.61 -0.81 0.82
-8.44 -0.77 0.84
-8.71 -0.63 0.81
-8.70 -0.60 0.81
-8.80 -0.58 0.80
-8.70 -0.44 0.81
-8.70 -0.41 0.81
-8.34 -0.38 0.85
-8.52 -0.35 0.83
-11.13 -0.41 0.51
-13.38 -0.28 0.24
-11.42 -0.22 0.48
-5.92 -0.11 1.15
-8.20 -0.11 0.87
-8.42 -0.07 0.84
-6.23 -0.01 1.11
-13.22 0.01 0.46
-13.60 0.08 0.41
-13.61 0.14 0.40
-12.27 0.16 0.58
-13.41 0.23 0.43
-13.80 0.27 0.38
-14.11 0.48 0.34
-14.06 0.52 0.34
-8.61 0.42 1.05
-8.40 0.43 1.08
-8.38 0.45 1.08
-14.72 0.82 0.26
-14.62 0.85 0.27
-14.37 0.97 0.30
-14.55 1.02 0.28
-11.47 0.83 0.68
-11.53 0.87 0.67
-11.95 0.93 0.61
-10.19 0.84 0.84
-8.52 0.73 1.06
-6.64 0.63 1.30
-8.83 0.86 1.02
-10.95 1.09 0.74
-9.20 0.94 0.97
-11.12 1.16 0.72
-11.45 1.22 0.67
-6.85 0.76 1.27
-11.54 1.29 0.66
-11.45 1.31 0.67
-12.52 1.46 0.53
-9.94 1.19 0.87
-11.80 1.43 0.62
-11.64 1.44 0.64
-9.27 1.17 0.95
-9.45 1.22 0.93
-9.26 1.22 0.95
-9.16 1.23 0.97
-9.09 1.24 0.97
-9.27 1.29 0.95
-9.15 1.32 0.96
-9.23 1.35 0.95
-9.09 1.36 0.97
-9.09 1.38 0.97
-9.19 1.42 0.96
-9.22 1.47 0.95
-9.13 1.48 0.96
-9.24 1.52 0.95
-9.55 1.61 0.91
-8.84 -1.18 0.71
-8.78 -1.14 0.71
-8.86 -1.12 0.70
-8.45 -1.06 0.76
-8.48 -1.04 0.75
-8.77 -1.04 0.72
-8.42 -0.98 0.76
-8.34 -0.92 0.77
-8.25 -0.89 0.78
-8.45 -0.88 0.76
-8.27 -0.83 0.78
-8.55 -0.54 0.75
-8.94 -0.53 0.69
-5.07 -0.33 1.20
-5.10 -0.32 1.19
-8.59 -0.44 0.74
-8.62 -0.38 0.74
-8.66 -0.36 0.73
-10.95 -0.40 0.44
-11.16 -0.37 0.41
-10.58 -0.33 0.48
-8.25 -0.24 0.78
-8.20 -0.22 0.79
-6.04 -0.15 1.07
-11.15 -0.21 0.41
-13.52 -0.18 0.42
-13.88 -0.06 0.37
-13.62 -0.02 0.41
-7.06 0.01 0.87
-6.56 0.03 0.94
-6.92 0.06 0.89
-6.96 0.08 0.88
-6.11 0.11 1.00
-7.73 0.29 1.11
-7.82 0.31 1.10
-7.98 0.35 1.08
-8.38 0.41 1.02
-8.20 0.46 1.04
-8.14 0.48 1.05
-8.18 0.50 1.05
-11.45 0.78 0.60
-11.38 0.80 0.61
-8.95 0.65 0.94
-8.74 0.66 0.97
-11.82 0.92 0.54
-11.92 0.95 0.53
-11.73 1.02 0.55
-8.99 0.83 0.93
-8.98 0.85 0.93
-9.18 0.89 0.90
-10.20 1.02 0.76
-11.04 1.12 0.65
-10.54 1.10 0.71
-10.90 1.16 0.67
-11.24 1.23 0.62
-11.36 1.27 0.60
-11.70 1.33 0.55
-8.93 1.04 0.93
-9.64 1.15 0.84
-9.44 1.15 0.86
-9.59 1.19 0.84
-9.23 1.17 0.89
-9.20 1.19 0.90
-9.49 1.25 0.85
-9.41 1.26 0.87
-11.58 1.58 0.56
-9.30 1.29 0.88
-9.08 1.28 0.91
-9.05 1.32 0.91
-8.86 1.32 0.94
-9.17 1.39 0.89
-8.98 1.40 0.92
-9.19 1.46 0.89
-9.29 1.50 0.88
-9.09 1.51 0.90
-9.31 1.57 0.87
-9.35 1.62 0.86
-8.65 -1.32 0.65
-8.69 -1.27 0.65
-8.65 -1.24 0.65
-8.68 -1.16 0.65
-8.70 -1.14 0.65
-8.71 -1.11 0.65
-8.34 -1.05 0.70
-8.45 -1.04 0.68
-8.32 -1.00 0.70
-8.29 -0.97 0.70
-8.18 -0.93 0.72
-8.14 -0.90 0.72
-8.20 -0.88 0.72
-7.84 -0.83 0.76
-9.25 -0.63 0.57
-6.39 -0.46 0.96
-9.23 -0.57 0.57
-6.66 -0.40 0.92
-8.87 -0.47 0.62
-6.12 -0.34 1.00
-10.74 -0.39 0.37
-8.33 -0.30 0.70
-7.74 -0.26 0.78
-11.02 -0.31 0.33
-8.25 -0.22 0.71
-5.82 -0.15 1.04
-5.89 -0.13 1.03
-6.01 -0.11 1.01
-5.97 -0.09 1.02
-5.80 -0.07 1.04
-6.69 -0.05 0.92
-7.03 -0.03 0.87
-7.03 -0.01 0.87
-12.37 0.04 0.38
-12.66 0.07 0.34
-12.49 0.10 0.36
-11.99 0.12 0.44
-12.87 0.16 0.31
-12.31 0.22 0.39
-12.33 0.25 0.39
-11.75 0.32 0.47
-7.75 0.33 1.04
-8.23 0.46 0.97
-8.20 0.50 0.98
-8.20 0.52 0.98
-8.25 0.57 0.97
-11.48 0.84 0.50
-11.46 0.95 0.50
-8.10 0.71 0.99
-7.79 0.71 1.03
-11.38 1.05 0.51
-6.66 0.64 1.20
-9.34 0.91 0.81
-9.32 0.93 0.81
-9.47 0.99 0.79
-9.51 1.02 0.78
-9.50 1.04 0.78
-11.16 1.25 0.54
-9.74 1.12 0.74
-6.67 0.79 1.19
-9.40 1.12 0.79
-9.51 1.16 0.78
-9.34 1.16 0.80
-9.20 1.17 0.82
-9.27 1.20 0.81
-9.20 1.21 0.82
-9.27 1.24 0.81
-9.22 1.26 0.82
-9.15 1.28 0.83
-9.09 1.29 0.83
-9.20 1.33 0.82
-9.08 1.33 0.83
-9.18 1.37 0.82
-8.93 1.36 0.85
-8.97 1.38 0.85
-8.91 1.40 0.86
-9.13 1.45 0.82
-8.99 1.45 0.84
-9.23 1.52 0.81
-9.16 1.53 0.82
-9.34 1.58 0.79
-8.99 1.54 0.84
-9.12 1.59 0.82
-6.86 1.64 1.14
-8.91 -1.40 0.52
-8.44 -1.19 0.59
-8.20 -1.11 0.63
-8.29 -1.10 0.62
-8.55 -1.10 0.58
-8.41 -1.06 0.60
-8.59 -1.05 0.57
-8.44 -1.01 0.59
-9.31 -1.06 0.47
-8.69 -0.98 0.56
-8.05 -0.90 0.65
-7.94 -0.86 0.67
-6.75 -0.50 0.84
-6.83 -0.48 0.83
-6.42 -0.42 0.89
-6.29 -0.39 0.91
-6.18 -0.36 0.92
-5.46 -0.31 1.02
-5.27 -0.29 1.05
-11.90 -0.39 0.45
-11.53 -0.29 0.50
-11.67 -0.27 0.48
-11.58 -0.24 0.50
-11.47 -0.21 0.51
-8.95 -0.12 0.88
-11.71 -0.05 0.48
-12.82 -0.02 0.32
-8.09 0.55 0.93
-11.70 0.91 0.38
-8.33 0.67 0.90
-9.70 0.92 0.68
-11.56 1.15 0.40
-11.55 1.20 0.40
-11.37 1.21 0.42
-11.98 1.30 0.33
-9.33 1.04 0.74
-11.97 1.45 0.33
-9.35 1.20 0.73
-11.76 1.62 0.35
-9.09 1.35 0.76
-9.30 1.50 0.73
-7.58 -0.18 0.64
-11.39 0.04 0.34
-9.06 0.05 0.72
-8.45 0.07 0.81
-8.57 0.09 0.79
-7.91 0.10 0.90
-7.90 0.12 0.90
-7.64 0.13 0.94
-11.28 0.22 0.36
-11.50 0.26 0.32
-7.95 0.27 0.89
-7.66 0.30 0.94
-7.69 0.34 0.93
-7.68 0.38 0.93
-7.54 0.39 0.96
-7.55 0.41 0.95
-7.80 0.44 0.91
-8.06 0.48 0.87
-7.91 0.49 0.89
-8.01 0.51 0.88
-8.15 0.54 0.86
-8.27 0.57 0.83
-8.81 0.63 0.75
-8.08 0.60 0.87
-8.23 0.63 0.84
-8.41 0.66 0.81
-8.31 0.67 0.83
-8.44 0.70 0.81
-8.28 0.71 0.83
-8.52 0.75 0.79
-11.47 1.03 0.32
-8.34 0.77 0.82
-8.73 0.83 0.76
-9.20 0.90 0.68
-9.11 0.91 0.70
-9.11 0.93 0.69
-9.45 0.99 0.64
-9.25 1.06 0.67
-9.05 1.06 0.70
-8.88 1.06 0.73
-9.00 1.14 0.71
-8.98 1.16 0.71
-8.79 1.16 0.74
-11.34 1.55 0.33
-9.53 1.33 0.62
-9.29 1.32 0.66
-9.26 1.34 0.66
-9.06 1.33 0.69
-9.36 1.40 0.64
-6.61 1.01 1.09
-9.32 1.44 0.65
-9.43 1.48 0.63
-9.26 1.47 0.66
-9.25 1.50 0.66
-9.53 1.56 0.61
-9.34 1.56 0.64
-9.37 1.59 0.64
-9.41 1.62 0.63
-9.55 1.69 0.60
-7.64 -1.08 0.55
-9.77 -0.51 0.60
-9.84 -0.46 0.59
-9.97 -0.45 0.57
-9.92 -0.37 0.58
-9.10 -0.25 0.71
-9.10 -0.19 0.71
-9.35 -0.13 0.67
-9.34 -0.10 0.67
-11.48 -0.10 0.33
-8.99 -0.01 0.73
-6.43 0.01 0.67
-6.10 0.03 0.73
-5.82 0.05 0.78
-8.09 0.06 0.81
-7.77 0.08 0.86
-7.77 0.10 0.86
-7.75 0.12 0.87
-7.91 0.14 0.84
-7.68 0.19 0.88
-7.53 0.26 0.90
-7.53 0.28 0.90
-7.49 0.29 0.91
-7.49 0.31 0.91
-7.47 0.33 0.91
-7.59 0.35 0.89
-7.52 0.39 0.90
-7.32 0.39 0.93
-7.33 0.41 0.93
-7.46 0.44 0.91
-7.80 0.48 0.85
-8.28 0.53 0.77
-8.27 0.54 0.77
-7.88 0.54 0.84
-8.49 0.60 0.73
-8.39 0.61 0.75
-8.54 0.64 0.73
-8.30 0.65 0.76
-8.47 0.68 0.74
-8.20 0.68 0.78
-8.34 0.71 0.76
-8.55 0.75 0.72
-8.34 0.75 0.75
-8.50 0.79 0.73
-8.52 0.81 0.72
-8.89 0.87 0.66
-8.88 0.89 0.66
-8.53 0.87 0.72
-8.87 0.93 0.66
-9.34 1.00 0.58
-8.62 0.95 0.70
-8.95 1.00 0.65
-8.86 1.02 0.66
-6.50 0.76 1.06
-6.64 0.80 1.04
-9.51 1.16 0.55
-6.88 0.86 1.00
-6.35 0.81 1.08
-6.77 0.88 1.01
-9.88 1.30 0.49
-9.20 1.23 0.60
-9.38 1.28 0.57
-9.33 1.30 0.58
-9.49 1.34 0.55
-9.19 1.32 0.60
-9.22 1.35 0.59
-9.12 1.36 0.61
-9.23 1.40 0.59
-9.20 1.42 0.59
-9.32 1.46 0.57
-9.35 1.49 0.57
-9.27 1.50 0.58
-9.27 1.52 0.58
-9.37 1.56 0.56
-9.19 1.55 0.59
-9.30 1.59 0.57
-9.21 1.60 0.59
-9.09 1.60 0.61
-9.34 1.67 0.56
-7.60 -1.03 0.48
-7.11 -0.56 0.56
-6.80 -0.48 0.61
-7.04 -0.47 0.57
-6.84 -0.44 0.61
-7.12 -0.42 0.56
-6.82 -0.37 0.61
-6.91 -0.35 0.59
-6.52 -0.31 0.66
-5.34 -0.25 0.86
-5.93 -0.25 0.76
-6.84 -0.26 0.61
-5.15 -0.19 0.89
-5.04 -0.17 0.91
-7.70 -0.21 0.46
-5.14 -0.14 0.89
-5.10 -0.12 0.90
-5.27 -0.10 0.87
-5.09 -0.08 0.90
-5.40 -0.07 0.85
-5.44 -0.05 0.84
-5.32 -0.03 0.86
-6.09 -0.01 0.73
-9.30 0.01 0.53
-9.43 0.12 0.50
-8.51 0.75 0.65
-8.62 0.82 0.63
-8.45 0.83 0.66
-8.75 0.88 0.61
-8.55 0.88 0.64
-8.42 0.88 0.67
-9.80 1.10 0.42
-9.86 1.13 0.41
-9.44 1.11 0.48
-9.43 1.17 0.48
-8.89 1.13 0.58
-9.56 1.24 0.46
-9.48 1.25 0.47
-6.91 0.93 0.93
-9.43 1.29 0.48
-9.29 1.29 0.50
-9.01 1.28 0.55
-8.81 1.27 0.59
-8.94 1.31 0.56
-9.38 1.40 0.48
-9.27 1.41 0.50
-9.33 1.44 0.49
-9.30 1.45 0.50
-9.38 1.49 0.48
-9.44 1.67 0.47
-9.32 1.67 0.48
-7.39 -0.98 0.43
-6.59 -0.42 0.57
-6.47 -0.38 0.59
-6.53 -0.25 0.58
-6.25 -0.18 0.63
-6.26 -0.16 0.63
-8.98 -0.10 0.58
-7.03 -0.03 0.93
-5.88 0.01 0.62
-5.24 0.03 0.74
-5.79 0.05 0.64
-5.39 0.08 0.71
-5.62 0.11 0.67
-5.98 0.13 0.60
-6.08 0.15 0.58
-5.98 0.17 0.60
-6.30 0.20 0.54
-6.36 0.22 0.53
-7.49 0.22 0.78
-7.32 0.24 0.81
-7.34 0.25 0.81
-7.37 0.27 0.80
-7.45 0.29 0.79
-7.22 0.30 0.83
-7.23 0.32 0.83
-7.32 0.34 0.81
-6.93 0.34 0.88
-7.11 0.37 0.85
-7.48 0.40 0.78
-6.84 0.40 0.90
-8.52 0.58 0.58
-8.88 0.63 0.51
-8.43 0.66 0.60
-8.27 0.66 0.63
-8.38 0.69 0.60
-8.52 0.75 0.58
-6.34 0.57 0.98
-8.34 0.77 0.61
-8.93 0.85 0.50
-8.55 0.87 0.57
-8.88 0.93 0.51
-8.88 0.97 0.51
-8.51 0.95 0.57
-8.38 0.96 0.60
