# .PCD v0.7 - Point Cloud Data file format
VERSION 0.7
FIELDS x y z
SIZE 4 4 4
TYPE F F F
COUNT 1 1 1
WIDTH 2878
HEIGHT 1
VIEWPOINT 0 0 0 1 0 0 0
POINTS 2878
DATA ASCII
-8.84 0.84 1.57
-8.95 0.88 1.56
-13.38 1.33 1.26
-13.36 1.36 1.26
-8.54 0.90 1.59
-13.44 1.44 1.26
-8.72 0.98 1.58
-13.19 1.51 1.27
-8.95 1.05 1.56
-13.15 1.57 1.28
-13.22 1.61 1.27
-13.26 1.64 1.27
-13.11 1.66 1.28
-11.56 1.64 1.38
-11.37 1.64 1.39
-9.64 -1.38 1.35
-10.55 -1.45 1.29
-9.91 -1.35 1.34
-3.63 -0.64 1.76
-10.19 -1.29 1.32
-3.69 -0.62 1.76
-3.96 -0.63 1.74
-10.70 -1.25 1.28
-3.27 -0.54 1.79
-3.59 -0.54 1.77
-3.54 -0.52 1.77
-3.48 -0.50 1.77
-8.49 -0.88 1.43
-3.60 -0.48 1.77
-8.46 -0.83 1.44
-3.91 -0.43 1.75
-3.81 -0.41 1.75
-3.66 -0.38 1.76
-3.79 -0.37 1.75
-3.79 -0.36 1.75
-3.79 -0.34 1.75
-8.46 -0.57 1.44
-7.58 -0.47 1.50
-8.09 -0.47 1.46
-8.04 -0.45 1.46
-7.85 -0.41 1.48
-7.56 -0.38 1.50
-9.16 -0.30 1.56
-8.70 -0.26 1.59
-10.30 -0.29 1.48
-8.41 -0.21 1.61
-13.52 -0.21 1.26
-13.14 -0.08 1.29
-11.51 0.01 1.15
-11.34 0.04 1.17
-11.71 0.11 1.14
-13.14 0.64 1.21
-13.29 0.68 1.20
-13.68 0.73 1.17
-13.30 0.75 1.20
-13.02 0.76 1.22
-13.05 0.79 1.22
-13.23 0.84 1.21
-12.76 0.84 1.24
-13.23 0.90 1.21
-13.45 1.08 1.19
-13.54 1.12 1.18
-8.91 0.76 1.52
-13.49 1.18 1.18
-8.92 0.80 1.52
-13.77 1.27 1.16
-13.52 1.28 1.18
-13.70 1.33 1.17
-13.50 1.34 1.18
-13.40 1.37 1.19
-8.57 0.90 1.54
-13.41 1.43 1.19
-13.37 1.46 1.19
-13.12 1.46 1.21
-13.03 1.48 1.21
-13.09 1.52 1.21
-13.34 1.58 1.19
-13.95 1.69 1.15
-10.44 -1.44 1.23
-10.50 -1.35 1.23
-9.80 -1.25 1.28
-11.38 -1.38 1.16
-10.36 -1.25 1.24
-13.98 -1.16 0.97
-7.99 -0.72 1.41
-11.00 -0.89 1.19
-7.92 -0.61 1.42
-7.89 -0.59 1.42
-8.12 -0.55 1.40
-13.25 -0.70 1.03
-7.88 -0.44 1.42
-13.53 -0.64 1.00
-13.38 -0.59 1.02
-7.07 -0.24 1.48
-7.23 -0.18 1.47
-7.34 -0.16 1.46
-7.08 -0.08 1.48
-11.80 -0.06 1.13
-11.45 -0.02 1.16
-12.95 0.04 1.16
-12.60 0.07 1.18
-12.84 0.10 1.17
-12.70 0.13 1.18
-12.73 0.17 1.17
-12.68 0.20 1.18
-12.55 0.22 1.19
-12.91 0.26 1.16
-12.90 0.29 1.16
-12.89 0.32 1.16
-12.90 0.35 1.16
-13.20 0.46 1.14
-8.37 0.31 1.52
-8.25 0.33 1.52
-8.32 0.35 1.52
-8.25 0.37 1.52
-8.20 0.38 1.53
-8.08 0.40 1.54
-8.46 0.44 1.51
-13.07 0.70 1.14
-13.23 0.74 1.13
-13.39 0.79 1.12
-13.38 0.82 1.12
-13.30 0.84 1.12
-13.02 0.86 1.15
-8.31 0.57 1.52
-6.02 0.43 1.70
-8.66 0.64 1.49
-8.95 0.68 1.47
-8.59 0.67 1.49
-5.89 0.48 1.71
-8.57 0.71 1.50
-8.52 0.73 1.50
-8.59 0.76 1.49
-8.56 0.78 1.50
-8.62 0.80 1.49
-9.02 0.86 1.46
-8.58 0.84 1.49
-8.55 0.86 1.50
-8.53 0.88 1.50
-8.41 0.89 1.51
-8.51 0.92 1.50
-8.10 0.89 1.53
-13.61 1.52 1.09
-13.53 1.54 1.10
-13.48 1.57 1.10
-14.06 1.67 1.06
-12.11 1.56 1.21
-4.63 0.71 1.80
-9.98 -1.39 1.19
-9.85 -1.35 1.20
-3.01 -0.59 1.74
-3.81 -0.66 1.68
-3.91 -0.64 1.67
-5.52 -0.78 1.55
-5.67 -0.74 1.53
-3.92 -0.57 1.67
-7.59 -0.81 1.38
-3.74 -0.49 1.69
-3.60 -0.46 1.70
-3.42 -0.44 1.71
-3.35 -0.42 1.72
-3.74 -0.43 1.69
-3.48 -0.40 1.71
-3.59 -0.38 1.70
-3.66 -0.37 1.69
-8.04 -0.60 1.35
-3.59 -0.33 1.70
-8.33 -0.43 1.52
-8.27 -0.41 1.53
-8.17 -0.38 1.53
-8.44 -0.38 1.51
-8.57 -0.36 1.50
-8.45 -0.34 1.51
-9.02 -0.34 1.47
-8.77 -0.22 1.49
-12.98 -0.08 1.16
-12.89 -0.05 1.16
-12.69 -0.02 1.18
-6.57 0.01 1.42
-11.60 0.04 0.99
-6.70 0.05 1.41
-12.62 0.13 1.12
-12.54 0.16 1.13
-12.50 0.19 1.13
-12.63 0.22 1.12
-12.77 0.26 1.11
-12.61 0.28 1.12
-13.11 0.45 1.08
-8.41 0.33 1.47
-12.97 0.54 1.09
-8.24 0.37 1.48
-8.33 0.39 1.48
-8.21 0.40 1.49
-8.24 0.43 1.48
-8.48 0.46 1.46
-13.16 0.74 1.07
-13.35 0.78 1.05
-13.66 0.83 1.03
-13.78 0.87 1.02
-5.81 0.39 1.69
-13.26 0.90 1.06
-13.94 0.98 1.00
-8.58 0.63 1.45
-8.69 0.66 1.44
-8.61 0.67 1.45
-8.52 0.69 1.46
-8.66 0.72 1.45
-8.55 0.73 1.45
-8.50 0.75 1.46
-8.53 0.77 1.46
-8.52 0.79 1.46
-8.59 0.82 1.45
-8.46 0.83 1.46
-13.64 1.36 1.02
-8.45 0.87 1.46
-8.51 0.89 1.46
-8.30 0.89 1.47
-8.42 0.93 1.46
-14.53 1.62 0.95
-14.42 1.64 0.96
-14.11 1.64 0.98
-11.88 1.47 1.17
-12.27 1.55 1.14
-5.84 -1.13 1.48
-5.54 -1.07 1.50
-10.17 -1.56 1.11
-10.21 -1.54 1.11
-10.19 -1.50 1.11
-10.06 -1.46 1.12
-2.12 -0.53 1.79
-10.00 -1.39 1.13
-9.95 -1.36 1.13
-9.72 -1.27 1.15
-3.01 -0.46 1.72
-3.52 -0.49 1.68
-3.40 -0.46 1.69
-7.51 -0.73 1.34
-7.62 -0.72 1.33
-3.76 -0.43 1.66
-3.54 -0.40 1.67
-3.70 -0.40 1.66
-7.48 -0.61 1.34
-3.61 -0.36 1.67
-7.64 -0.57 1.33
-3.72 -0.34 1.66
-4.00 -0.34 1.63
-3.71 -0.31 1.66
-3.84 -0.30 1.65
-7.04 -0.43 1.38
-6.61 -0.39 1.42
-7.09 -0.38 1.38
-6.98 -0.35 1.38
-7.07 -0.34 1.38
-7.21 -0.32 1.37
-6.90 -0.29 1.39
-6.91 -0.26 1.39
-6.92 -0.24 1.39
-6.82 -0.22 1.40
-6.77 -0.19 1.40
-6.76 -0.17 1.40
-6.86 -0.15 1.39
-6.91 -0.13 1.39
-6.83 -0.11 1.40
-6.85 -0.08 1.39
-6.85 -0.06 1.39
-7.30 -0.04 1.36
-6.84 -0.02 1.39
-12.22 0.01 1.08
-12.27 0.04 1.07
-12.49 0.07 1.05
-12.35 0.10 1.06
-12.52 0.13 1.05
-12.50 0.16 1.05
-12.67 0.19 1.03
-12.45 0.22 1.05
-12.41 0.25 1.06
-12.38 0.28 1.06
-12.34 0.31 1.06
-13.10 0.42 0.99
-13.25 0.46 0.98
-12.73 0.47 1.03
-8.27 0.33 1.43
-12.99 0.54 1.00
-13.31 0.59 0.97
-8.34 0.39 1.42
-8.18 0.40 1.44
-6.03 0.31 1.63
-8.20 0.44 1.43
-13.02 0.73 1.00
-13.25 0.77 0.98
-5.95 0.37 1.64
-8.52 0.54 1.40
-8.45 0.56 1.41
-8.59 0.59 1.40
-8.52 0.60 1.40
-8.57 0.63 1.40
-8.34 0.63 1.42
-8.27 0.65 1.42
-8.41 0.68 1.41
-8.42 0.70 1.41
-6.24 0.54 1.61
-8.55 0.75 1.40
-8.27 0.75 1.42
-8.54 0.79 1.40
-8.23 0.79 1.43
-8.31 0.81 1.42
-8.35 0.84 1.42
-8.20 0.84 1.43
-8.17 0.86 1.43
-8.12 0.87 1.44
-8.08 0.89 1.44
-8.10 0.91 1.44
-14.56 1.66 0.85
-12.14 1.42 1.07
-12.17 1.57 1.06
-3.76 1.23 1.81
-4.66 -0.96 1.53
-5.31 -1.02 1.47
-4.07 -0.85 1.58
-10.39 -1.62 1.01
-3.74 -0.77 1.62
-10.33 -1.55 1.02
-10.17 -1.50 1.03
-3.96 -0.75 1.60
-10.23 -1.45 1.03
-10.08 -1.40 1.04
-10.06 -1.37 1.04
-3.80 -0.67 1.61
-9.89 -1.29 1.06
-10.02 -1.16 1.05
-9.34 -1.06 1.11
-3.61 -0.52 1.63
-3.57 -0.50 1.63
-3.65 -0.50 1.62
-4.02 -0.51 1.59
-3.61 -0.46 1.63
-3.86 -0.47 1.60
-3.80 -0.45 1.61
-3.79 -0.43 1.61
-3.57 -0.40 1.63
-3.59 -0.39 1.63
-3.89 -0.39 1.60
-3.79 -0.37 1.61
-3.59 -0.35 1.63
-3.75 -0.34 1.61
-3.49 -0.31 1.64
-3.64 -0.31 1.62
-3.43 -0.28 1.64
-3.61 -0.27 1.63
-3.43 -0.25 1.64
-3.37 -0.24 1.65
-6.68 -0.34 1.35
-4.26 -0.24 1.57
-3.45 -0.20 1.64
-3.44 -0.18 1.64
-3.57 -0.17 1.63
-6.54 -0.23 1.36
-6.61 -0.21 1.36
-6.59 -0.19 1.36
-6.85 -0.17 1.33
-6.88 -0.15 1.33
-8.09 -0.11 1.45
-8.10 -0.09 1.45
-8.03 -0.07 1.45
-12.70 -0.08 1.03
-12.64 -0.05 1.04
-12.41 -0.02 1.06
-6.72 0.01 1.29
-6.84 0.05 1.28
-6.48 0.07 1.32
-11.45 0.14 0.84
-6.65 0.14 1.30
-10.83 0.23 0.90
-12.49 0.30 0.74
-12.27 0.34 1.00
-8.42 0.25 1.37
-8.30 0.27 1.38
-8.32 0.29 1.38
-8.38 0.31 1.37
-8.23 0.33 1.39
-8.26 0.35 1.38
-13.33 0.62 0.90
-13.29 0.65 0.90
-13.13 0.67 0.92
-8.10 0.44 1.40
-8.30 0.47 1.38
-8.24 0.49 1.38
-8.34 0.51 1.37
-8.75 0.56 1.33
-13.72 0.90 0.86
-8.53 0.58 1.36
-8.35 0.59 1.37
-8.52 0.62 1.36
-8.41 0.64 1.37
-8.34 0.65 1.37
-8.32 0.67 1.37
-8.09 0.67 1.40
-8.24 0.70 1.38
-13.62 1.19 0.86
-8.28 0.75 1.38
-8.23 0.76 1.38
-8.33 0.79 1.37
-8.36 0.82 1.37
-8.37 0.84 1.37
-8.41 0.86 1.36
-8.14 0.85 1.39
-8.03 0.86 1.40
-8.06 0.89 1.40
-8.51 0.95 1.35
-8.34 0.96 1.37
-7.59 1.02 1.44
-3.78 1.22 1.79
-3.76 1.23 1.79
-3.53 1.29 1.80
-10.17 -1.62 0.96
-10.68 -1.59 0.91
-10.30 -1.52 0.95
-10.09 -1.46 0.97
-10.22 -1.45 0.96
-9.97 -1.39 0.98
-10.16 -1.38 0.96
-9.86 -1.32 0.99
-10.17 -1.32 0.96
-5.67 -0.83 1.40
-10.18 -1.26 0.96
-9.70 -1.18 1.01
-9.80 -1.16 1.00
-9.30 -1.09 1.05
-9.20 -1.05 1.06
-7.46 -0.85 1.22
-7.96 -0.87 1.18
-7.46 -0.80 1.22
-8.20 -0.83 1.15
-7.39 -0.75 1.23
-7.40 -0.72 1.23
-3.77 -0.45 1.58
-7.41 -0.68 1.23
-3.60 -0.40 1.60
-3.50 -0.38 1.61
-3.35 -0.36 1.62
-3.42 -0.35 1.61
-3.46 -0.34 1.61
-3.40 -0.32 1.62
-3.38 -0.31 1.62
-3.46 -0.30 1.61
-3.31 -0.28 1.62
-3.43 -0.27 1.61
-3.33 -0.25 1.62
-3.30 -0.23 1.62
-3.58 -0.23 1.60
-3.44 -0.21 1.61
-3.61 -0.20 1.59
-3.61 -0.19 1.59
-3.33 -0.16 1.62
-7.04 -0.24 1.26
-6.56 -0.21 1.31
-3.74 -0.13 1.58
-6.77 -0.17 1.29
-6.67 -0.15 1.30
-6.72 -0.13 1.29
-6.57 -0.10 1.31
-6.72 -0.08 1.29
-6.87 -0.06 1.28
-7.50 -0.04 1.22
-6.52 -0.02 1.31
-12.52 0.01 0.90
-10.14 0.03 1.14
-7.62 0.04 1.40
-12.54 0.10 0.89
-12.23 0.13 0.93
-11.79 0.15 0.97
-12.47 0.19 0.90
-12.15 0.22 0.93
-8.63 0.18 1.29
-8.12 0.19 1.34
-12.05 0.30 0.94
-8.17 0.23 1.34
-8.55 0.26 1.30
-8.34 0.27 1.32
-8.08 0.28 1.35
-8.42 0.31 1.31
-8.14 0.32 1.34
-8.12 0.34 1.34
-8.08 0.36 1.35
-8.10 0.38 1.34
-8.41 0.41 1.31
-8.30 0.43 1.32
-6.12 0.33 1.54
-6.02 0.34 1.56
-6.20 0.37 1.54
-5.91 0.37 1.57
-8.24 0.53 1.33
-6.07 0.40 1.55
-6.38 0.44 1.52
-6.59 0.47 1.50
-6.32 0.47 1.52
-8.51 0.65 1.30
-5.89 0.47 1.57
-7.95 0.64 1.36
-6.43 0.54 1.51
-7.91 0.68 1.36
-8.11 0.72 1.34
-8.16 0.74 1.33
-7.17 0.67 1.44
-7.56 0.72 1.39
-8.30 0.81 1.32
-8.13 0.82 1.33
-7.64 0.79 1.38
-7.81 0.82 1.37
-7.44 0.80 1.41
-7.83 0.86 1.37
-7.90 0.89 1.36
-8.08 0.93 1.34
-8.20 0.96 1.33
-8.36 1.00 1.31
-8.52 1.04 1.29
-11.52 1.43 0.98
-4.82 0.65 1.67
-12.10 1.62 0.92
-7.90 1.11 1.35
-5.02 1.07 1.64
-4.45 1.44 1.68
-3.98 1.45 1.73
-4.11 -0.99 1.50
-3.83 -0.94 1.53
-3.88 -0.93 1.52
-4.08 -0.94 1.50
-4.30 -0.96 1.48
-4.14 -0.92 1.50
-4.78 -0.99 1.43
-4.71 -0.96 1.44
-4.56 -0.93 1.46
-5.05 -0.97 1.41
-5.18 -0.97 1.39
-5.33 -0.97 1.38
-9.96 -1.51 0.90
-5.39 -0.94 1.37
-5.42 -0.92 1.37
-9.73 -1.39 0.93
-5.79 -0.93 1.33
-5.68 -0.90 1.34
-5.68 -0.88 1.34
-9.86 -1.29 0.91
-3.84 -0.65 1.53
-3.90 -0.64 1.52
-3.74 -0.61 1.54
-4.21 -0.64 1.49
-3.86 -0.59 1.53
-4.00 -0.57 1.51
-3.61 -0.52 1.55
-3.64 -0.51 1.55
-4.00 -0.53 1.51
-3.78 -0.49 1.54
-3.58 -0.46 1.56
-3.74 -0.46 1.54
-3.64 -0.44 1.55
-3.85 -0.44 1.53
-3.70 -0.41 1.54
-3.63 -0.39 1.55
-3.58 -0.38 1.56
-3.53 -0.36 1.56
-3.36 -0.33 1.58
-3.48 -0.33 1.57
-3.43 -0.30 1.57
-3.50 -0.28 1.56
-3.50 -0.27 1.56
-3.28 -0.25 1.59
-3.55 -0.24 1.56
-3.62 -0.23 1.55
-4.80 -0.17 1.68
-8.65 -0.28 1.29
-9.53 -0.29 1.20
-9.95 -0.27 1.16
-8.11 -0.20 1.35
-9.22 -0.21 1.23
-8.16 -0.17 1.34
-8.41 -0.15 1.32
-8.23 -0.13 1.33
-8.33 -0.11 1.32
-12.44 -0.14 0.91
-12.25 -0.11 0.92
-10.11 -0.06 1.14
-10.16 -0.04 1.14
-12.51 -0.02 0.90
-7.48 0.01 1.09
-11.04 0.04 0.70
-10.76 0.07 0.73
-10.77 0.10 0.73
-7.14 0.10 1.13
-7.13 0.12 1.13
-11.19 0.21 0.69
-7.05 0.17 1.14
-7.10 0.19 1.13
-7.34 0.22 1.11
-7.20 0.28 1.12
-7.79 0.33 1.06
-9.12 0.42 0.91
-7.86 0.40 1.05
-8.23 0.46 1.28
-8.27 0.49 1.27
-13.62 0.83 0.69
-13.54 0.85 0.70
-10.02 0.68 1.08
-13.64 0.96 0.69
-13.55 0.99 0.70
-13.37 1.01 0.72
-13.41 1.04 0.71
-13.43 1.08 0.71
-13.34 1.10 0.72
-13.82 1.17 0.66
-13.80 1.20 0.67
-13.97 1.25 0.65
-13.91 1.28 0.65
-14.05 1.33 0.64
-13.97 1.35 0.65
-14.07 1.40 0.63
-7.47 0.77 1.35
-9.49 1.16 1.13
-3.89 1.53 1.71
-9.97 -1.54 0.82
-10.17 -1.53 0.80
-10.12 -1.46 0.80
-10.25 -1.39 0.79
-10.01 -1.30 0.82
-9.89 -1.26 0.83
-9.77 -1.22 0.84
-9.50 -1.16 0.87
-8.62 -0.84 0.97
-8.41 -0.80 0.99
-8.63 -0.76 0.97
-7.73 -0.68 1.07
-7.36 -0.63 1.11
-7.76 -0.63 1.06
-11.20 -0.81 0.69
-7.29 -0.44 1.11
-14.13 -0.70 0.37
-7.36 -0.39 1.11
-7.25 -0.37 1.12
-6.84 -0.33 1.16
-7.21 -0.32 1.12
-7.17 -0.27 1.13
-8.20 -0.27 1.02
-7.22 -0.23 1.12
-6.75 -0.19 1.17
-6.99 -0.17 1.15
-6.92 -0.08 1.15
-7.34 -0.06 1.11
-11.16 -0.02 0.69
-9.60 0.03 1.06
-9.91 0.06 1.03
-12.14 0.10 0.77
-12.57 0.13 0.72
-7.91 0.10 1.26
-11.62 0.18 0.83
-8.55 0.15 1.18
-8.24 0.17 1.22
-9.57 0.22 1.07
-8.35 0.21 1.21
-5.94 0.17 1.48
-8.05 0.24 1.24
-8.29 0.27 1.21
-8.11 0.28 1.23
-8.15 0.30 1.23
-6.15 0.25 1.46
-6.15 0.26 1.46
-8.23 0.37 1.22
-8.36 0.39 1.20
-8.17 0.40 1.22
-5.79 0.30 1.50
-8.16 0.44 1.23
-5.85 0.33 1.49
-8.38 0.49 1.20
-8.12 0.50 1.23
-8.15 0.52 1.23
-8.31 0.55 1.21
-8.16 0.56 1.22
-7.70 0.55 1.28
-8.48 0.62 1.19
-7.66 0.58 1.28
-7.79 0.61 1.27
-6.96 0.57 1.36
-8.23 0.69 1.21
-6.80 0.59 1.38
-8.25 0.73 1.21
-7.12 0.65 1.34
-7.23 0.67 1.33
-6.96 0.67 1.36
-7.14 0.70 1.34
-7.19 0.72 1.33
-7.28 0.75 1.32
-7.45 0.79 1.30
-7.36 0.79 1.31
-6.98 0.77 1.36
-7.29 0.82 1.32
-7.25 0.84 1.32
-12.70 1.61 0.69
-12.67 1.63 0.69
-5.76 0.77 1.50
-12.10 1.62 0.76
-11.98 1.63 0.77
-8.02 1.24 1.23
-3.98 1.13 1.68
-3.87 -1.21 1.44
-3.68 -0.98 1.46
-3.59 -0.93 1.47
-3.85 -0.96 1.44
-4.29 -1.01 1.39
-4.37 -1.00 1.38
-10.66 -1.69 0.65
-10.30 -1.61 0.69
-10.44 -1.60 0.68
-10.28 -1.55 0.69
-10.38 -1.53 0.68
-10.25 -1.48 0.70
-9.89 -1.41 0.74
-9.97 -1.39 0.73
-10.22 -1.39 0.70
-5.30 -0.84 1.27
-9.71 -1.28 0.76
-9.70 -1.25 0.77
-9.58 -1.20 0.78
-5.70 -0.80 1.23
-9.81 -1.17 0.75
-9.20 -1.08 0.82
-5.48 -0.72 1.25
-9.20 -1.03 0.82
-5.33 -0.67 1.27
-9.16 -0.97 0.83
-8.70 -0.90 0.88
-10.90 -1.01 0.63
-7.86 -0.76 0.98
-7.69 -0.72 1.00
-9.49 -0.82 0.79
-7.38 -0.66 1.03
-7.36 -0.63 1.04
-3.91 -0.40 1.44
-7.34 -0.58 1.04
-3.91 -0.37 1.44
-7.86 -0.42 1.27
-4.59 -0.24 1.64
-8.19 -0.40 1.23
-4.83 -0.23 1.62
-9.52 -0.42 1.08
-7.96 -0.34 1.26
-8.05 -0.32 1.25
-7.71 -0.29 1.28
-9.47 -0.33 1.08
-7.71 -0.25 1.28
-9.40 -0.28 1.09
-8.09 -0.22 1.24
-8.14 -0.21 1.23
-8.63 -0.20 1.18
-8.24 -0.17 1.22
-8.20 -0.15 1.23
-8.38 -0.13 1.21
-8.50 -0.11 1.19
-8.55 -0.09 1.19
-8.52 -0.07 1.19
-8.36 -0.05 1.21
-9.18 -0.03 1.11
-15.48 -0.02 0.39
-7.07 0.00 1.01
-7.10 0.03 1.00
-7.10 0.05 1.00
-8.95 0.07 1.08
-8.83 0.09 1.10
-8.46 0.13 1.14
-8.48 0.15 1.14
-8.15 0.17 1.18
-8.13 0.21 1.18
-8.18 0.23 1.17
-5.70 0.19 1.48
-8.54 0.30 1.13
-6.17 0.23 1.42
-8.09 0.32 1.18
-7.93 0.33 1.20
-7.99 0.35 1.20
-8.03 0.38 1.19
-8.31 0.41 1.15
-8.25 0.45 1.16
-8.21 0.46 1.17
-6.12 0.36 1.42
-5.74 0.35 1.47
-5.82 0.37 1.46
-9.48 0.63 1.01
-8.56 0.61 1.12
-8.42 0.62 1.14
-7.93 0.60 1.20
-8.18 0.64 1.17
-7.20 0.58 1.29
-7.53 0.63 1.25
-7.18 0.62 1.29
-7.00 0.62 1.31
-7.17 0.67 1.29
-7.02 0.67 1.31
-7.16 0.70 1.29
-7.33 0.74 1.27
-7.41 0.76 1.26
-7.48 0.79 1.25
-7.30 0.80 1.27
-7.34 0.83 1.27
-7.51 0.86 1.24
-7.34 0.86 1.27
-7.35 0.90 1.26
-12.14 1.56 0.67
-12.49 1.64 0.63
-11.51 1.60 0.75
-3.31 1.57 1.71
-1.21 -0.77 1.72
-4.00 -0.99 1.38
-3.83 -0.95 1.40
-4.06 -0.97 1.38
-3.95 -0.94 1.39
-1.89 -0.55 1.64
-10.24 -1.57 0.62
-10.51 -1.57 0.58
-10.32 -1.52 0.61
-10.25 -1.48 0.61
-10.19 -1.44 0.62
-5.18 -0.86 1.24
-9.83 -1.34 0.67
-5.17 -0.82 1.24
-9.99 -1.30 0.65
-5.46 -0.81 1.20
-5.70 -0.82 1.17
-9.81 -1.20 0.67
-5.72 -0.78 1.17
-5.71 -0.76 1.17
-9.48 -1.08 0.71
-5.60 -0.71 1.19
-9.09 -0.99 0.76
-6.16 -0.72 1.12
-9.38 -0.95 0.72
-9.55 -0.94 0.70
-9.18 -0.86 0.75
-6.73 -0.65 1.05
-7.80 -0.71 0.92
-9.37 -0.78 0.73
-7.61 -0.64 0.94
-5.08 -0.47 1.25
-5.06 -0.45 1.25
-7.43 -0.56 0.96
-10.18 -0.69 0.63
-7.21 -0.50 0.99
-7.61 -0.50 0.94
-3.77 -0.30 1.41
-4.31 -0.31 1.34
-3.76 -0.27 1.41
-4.01 -0.26 1.38
-3.57 -0.23 1.44
-3.51 -0.21 1.44
-3.37 -0.19 1.46
-3.45 -0.18 1.45
-3.22 -0.16 1.48
-3.54 -0.16 1.44
-3.38 -0.14 1.46
-3.33 -0.12 1.46
-3.38 -0.11 1.46
-3.31 -0.09 1.47
-3.35 -0.08 1.46
-3.41 -0.07 1.45
-3.40 -0.05 1.46
-3.45 -0.04 1.45
-3.50 -0.03 1.44
-6.68 -0.02 1.05
-5.80 0.01 1.42
-8.41 0.03 1.08
-8.85 0.05 1.03
-5.87 0.05 1.41
-6.07 0.07 1.39
-6.00 0.08 1.39
-5.83 0.09 1.42
-5.77 0.10 1.42
-8.38 0.17 1.09
-8.39 0.19 1.08
-8.13 0.20 1.12
-6.09 0.17 1.38
-8.11 0.24 1.12
-8.00 0.26 1.14
-7.93 0.28 1.14
-8.02 0.30 1.13
-7.80 0.31 1.16
-7.47 0.31 1.20
-8.09 0.36 1.12
-5.93 0.28 1.40
-9.51 0.47 0.94
-8.19 0.42 1.11
-8.26 0.45 1.10
-8.91 0.50 1.02
-9.02 0.53 1.00
-8.88 0.54 1.02
-9.41 0.60 0.95
-9.28 0.61 0.97
-8.61 0.59 1.05
-7.90 0.56 1.14
-7.73 0.57 1.17
-7.31 0.56 1.22
-6.71 0.53 1.30
-7.63 0.62 1.18
-6.61 0.55 1.31
-7.05 0.61 1.25
-7.06 0.62 1.25
-6.82 0.62 1.28
-6.88 0.64 1.27
-7.00 0.67 1.26
-7.09 0.70 1.24
-7.00 0.71 1.26
-7.11 0.73 1.24
-7.98 0.84 1.13
-7.29 0.79 1.22
-7.59 0.84 1.18
-7.66 0.86 1.17
-7.54 0.87 1.18
-7.37 0.87 1.21
-7.30 0.88 1.21
-7.38 0.90 1.20
-7.30 0.91 1.21
-7.14 0.91 1.23
-7.39 0.96 1.20
-7.29 0.97 1.21
-6.49 0.88 1.32
-12.05 1.67 0.59
-8.92 1.29 1.00
-8.97 1.34 0.99
-4.16 -1.34 1.31
-4.04 -1.24 1.33
-4.24 -1.26 1.30
-3.92 -1.17 1.34
-4.12 -1.19 1.32
-3.98 -1.15 1.33
-3.84 -1.07 1.35
-3.97 -1.08 1.33
-4.02 -1.08 1.33
-3.81 -1.03 1.36
-3.88 -1.02 1.35
-3.98 -1.02 1.33
-3.79 -0.98 1.36
-3.85 -0.97 1.35
-3.85 -0.95 1.35
-3.92 -0.95 1.34
-3.90 -0.93 1.35
-3.85 -0.91 1.35
-4.26 -0.95 1.30
-4.47 -0.96 1.27
-3.67 -0.84 1.38
-3.75 -0.83 1.37
-3.55 -0.79 1.39
-3.59 -0.78 1.39
-10.43 -1.63 0.50
-10.54 -1.58 0.48
-4.98 -0.89 1.21
-4.98 -0.87 1.21
-4.89 -0.84 1.22
-4.94 -0.83 1.21
-4.84 -0.80 1.23
-5.33 -0.84 1.16
-5.23 -0.81 1.17
-5.43 -0.81 1.15
-5.62 -0.81 1.12
-5.32 -0.76 1.16
-5.39 -0.75 1.16
-5.31 -0.72 1.17
-5.45 -0.72 1.15
-5.27 -0.68 1.17
-5.73 -0.70 1.11
-9.18 -0.97 0.66
-6.39 -0.72 1.03
-9.41 -0.93 0.63
-9.43 -0.90 0.63
-9.45 -0.88 0.63
-9.32 -0.84 0.65
-6.41 -0.61 1.02
-4.30 -0.45 1.30
-9.77 -0.78 0.59
-6.05 -0.53 1.07
-5.93 -0.50 1.08
-4.50 -0.40 1.27
-4.33 -0.37 1.29
-4.21 -0.35 1.31
-3.90 -0.32 1.35
-4.11 -0.31 1.32
-6.38 -0.40 1.03
-3.99 -0.28 1.34
-6.22 -0.35 1.05
-6.41 -0.33 1.02
-6.66 -0.32 0.99
-3.33 -0.19 1.42
-3.36 -0.18 1.42
-3.36 -0.17 1.42
-3.54 -0.16 1.39
-3.29 -0.14 1.43
-3.44 -0.12 1.41
-3.35 -0.11 1.42
-3.34 -0.10 1.42
-8.45 -0.11 1.08
-9.09 -0.10 1.00
-8.32 -0.07 1.10
-6.33 -0.04 1.35
-8.38 -0.03 1.09
-8.41 -0.01 1.09
-4.64 0.00 1.20
-7.54 0.03 0.80
-7.62 0.05 0.79
-5.25 0.06 1.12
-7.20 0.10 0.85
-4.83 0.09 1.17
-5.01 0.11 1.15
-4.97 0.13 1.15
-4.77 0.14 1.18
-4.86 0.16 1.17
-4.84 0.18 1.17
-4.91 0.20 1.16
-8.00 0.24 1.08
-8.30 0.27 1.04
-8.14 0.28 1.06
-7.88 0.29 1.09
-8.23 0.32 1.05
-8.30 0.35 1.04
-8.38 0.37 1.02
-8.52 0.40 1.01
-8.66 0.43 0.99
-8.11 0.42 1.06
-8.64 0.47 0.99
-6.36 0.36 1.30
-9.44 0.55 0.88
-9.46 0.58 0.88
-9.73 0.62 0.84
-6.27 0.42 1.31
-8.37 0.57 1.02
-7.39 0.52 1.16
-7.02 0.52 1.21
-7.03 0.53 1.21
-6.75 0.53 1.24
-6.91 0.56 1.22
-6.58 0.55 1.27
-6.80 0.58 1.24
-6.92 0.61 1.22
-6.88 0.62 1.22
-8.55 0.79 1.00
-9.41 0.89 0.88
-6.98 0.68 1.21
-7.03 0.71 1.20
-8.28 0.85 1.03
-7.90 0.83 1.08
-8.01 0.86 1.07
-8.52 0.94 1.00
-8.74 0.98 0.97
-7.17 0.82 1.18
-7.33 0.86 1.16
-7.47 0.89 1.14
-7.50 0.92 1.13
-8.73 1.09 0.96
-8.69 1.10 0.97
-8.63 1.12 0.98
-8.85 1.17 0.95
-8.90 1.19 0.94
-12.01 1.63 0.51
-12.10 1.68 0.50
-8.88 1.26 0.94
-8.97 1.29 0.93
-8.83 1.29 0.95
-9.14 1.38 0.90
-9.10 1.40 0.91
-9.10 1.45 0.91
-9.31 1.50 0.88
-9.59 1.69 0.83
-3.96 -1.27 1.29
-3.81 -1.11 1.31
-4.11 -1.13 1.27
-4.08 -1.11 1.28
-4.00 -1.08 1.29
-3.88 -1.05 1.30
-4.06 -1.06 1.28
-3.81 -1.01 1.31
-3.98 -1.02 1.29
-4.01 -1.01 1.29
-4.22 -1.02 1.26
-4.18 -1.00 1.26
-4.00 -0.96 1.29
-3.96 -0.94 1.29
-3.73 -0.89 1.33
-4.93 -0.93 1.16
-5.30 -0.96 1.11
-5.21 -0.93 1.12
-5.11 -0.90 1.14
-5.14 -0.89 1.13
-4.88 -0.84 1.17
-5.07 -0.84 1.14
-5.13 -0.83 1.13
-5.16 -0.82 1.13
-5.41 -0.83 1.10
-5.36 -0.80 1.10
-5.41 -0.79 1.10
-5.41 -0.77 1.10
-9.88 -1.17 0.48
-5.51 -0.74 1.08
-5.11 -0.68 1.14
-8.16 -0.93 0.72
-5.73 -0.70 1.05
-9.40 -0.98 0.55
-9.23 -0.94 0.57
-8.70 -0.87 0.65
-9.38 -0.90 0.55
-9.33 -0.87 0.56
-6.41 -0.63 0.96
-6.28 -0.60 0.98
-5.42 -0.52 1.10
-7.29 -0.62 0.84
-9.95 -0.76 0.47
-6.68 -0.54 0.92
-6.34 -0.50 0.97
-6.74 -0.50 0.92
-6.31 -0.46 0.97
-6.39 -0.44 0.96
-6.38 -0.42 0.96
-6.26 -0.39 0.98
-6.19 -0.37 0.99
-6.35 -0.35 0.97
-6.20 -0.33 0.99
-6.52 -0.32 0.94
-6.82 -0.31 0.90
-3.69 -0.19 1.33
-3.11 -0.16 1.41
-3.94 -0.17 1.30
-3.37 -0.14 1.38
-6.68 -0.19 0.92
-3.66 -0.12 1.33
-4.36 -0.11 1.24
-4.20 -0.09 1.26
-3.45 -0.07 1.36
-3.80 -0.06 1.32
-3.85 -0.04 1.31
-3.71 -0.03 1.33
-4.00 -0.01 1.29
-8.00 0.01 1.02
-7.48 0.03 1.09
-7.76 0.05 1.05
-8.05 0.07 1.01
-8.70 0.09 0.92
-8.23 0.11 0.98
-8.08 0.12 1.00
-8.55 0.15 0.94
-8.79 0.18 0.90
-8.52 0.19 0.94
-8.22 0.21 0.98
-8.22 0.23 0.98
-8.02 0.24 1.01
-7.91 0.26 1.03
-8.26 0.29 0.98
-8.51 0.32 0.94
-8.51 0.34 0.94
-8.17 0.34 0.99
-8.08 0.36 1.00
-8.30 0.39 0.97
-8.38 0.41 0.96
-8.38 0.43 0.96
-8.35 0.45 0.96
-9.64 0.54 0.77
-9.88 0.58 0.74
-7.07 0.44 1.14
-8.71 0.55 0.91
-7.23 0.48 1.12
-7.26 0.50 1.12
-7.04 0.50 1.15
-7.04 0.52 1.15
-6.77 0.52 1.19
-6.96 0.55 1.16
-6.79 0.55 1.18
-6.52 0.54 1.22
-6.23 0.54 1.26
-6.18 0.55 1.27
-6.19 0.56 1.27
-5.95 0.56 1.30
-6.14 0.59 1.27
-6.12 0.60 1.28
-6.73 0.68 1.19
-6.59 0.68 1.21
-7.08 0.75 1.14
-6.83 0.74 1.17
-6.78 0.75 1.18
-6.99 0.79 1.15
-7.15 0.83 1.12
-7.32 0.86 1.10
-8.63 1.03 0.91
-8.46 1.04 0.93
-8.75 1.09 0.89
-8.59 1.09 0.91
-8.75 1.13 0.89
-6.81 0.90 1.17
-8.70 1.17 0.90
-8.95 1.23 0.86
-8.91 1.24 0.87
-8.69 1.23 0.90
-8.99 1.30 0.85
-8.88 1.30 0.87
-8.96 1.34 0.85
-9.12 1.38 0.83
-9.11 1.41 0.83
-8.97 1.41 0.85
-9.35 1.49 0.79
-9.98 1.61 0.70
-9.48 1.55 0.78
-9.13 1.52 0.83
-9.27 1.57 0.81
-9.51 1.63 0.77
-9.36 1.63 0.79
-9.25 1.63 0.80
-9.09 1.63 0.83
-3.76 1.25 1.58
-4.23 -1.32 1.20
-4.13 -1.29 1.21
-4.17 -1.28 1.21
-4.08 -1.24 1.22
-4.04 -1.22 1.23
-4.07 -1.21 1.22
-4.07 -1.20 1.22
-4.19 -1.20 1.20
-4.07 -1.16 1.22
-4.02 -1.14 1.23
-4.59 -1.22 1.15
-3.78 -1.07 1.27
-4.06 -1.10 1.23
-4.04 -1.08 1.23
-4.04 -1.06 1.23
-4.34 -1.09 1.18
-4.42 -1.09 1.17
-4.27 -1.05 1.20
-4.34 -1.04 1.19
-4.14 -1.00 1.21
-3.85 -0.94 1.26
-4.29 -0.99 1.19
-3.93 -0.92 1.25
-3.97 -0.91 1.24
-4.00 -0.90 1.23
-3.73 -0.85 1.27
-4.97 -1.00 1.10
-4.85 -0.96 1.11
-4.97 -0.96 1.10
-5.04 -0.95 1.08
-5.17 -0.95 1.07
-5.23 -0.94 1.06
-5.14 -0.91 1.07
-5.25 -0.90 1.06
-5.32 -0.89 1.05
-5.26 -0.87 1.05
-5.23 -0.85 1.06
-5.31 -0.84 1.05
-5.66 -0.85 1.00
-5.62 -0.83 1.00
-5.50 -0.80 1.02
-3.09 -0.55 1.37
-5.18 -0.73 1.07
-5.86 -0.78 0.97
-5.26 -0.70 1.05
-4.93 -0.65 1.10
-8.13 -0.91 0.64
-7.90 -0.86 0.67
-5.19 -0.62 1.07
-9.56 -0.94 0.43
-4.77 -0.55 1.13
-4.44 -0.51 1.17
-4.30 -0.49 1.20
-9.59 -0.83 0.43
-6.90 -0.62 0.82
-6.87 -0.60 0.82
-6.51 -0.55 0.87
-6.12 -0.51 0.93
-3.90 -0.36 1.25
-6.25 -0.48 0.91
-6.08 -0.45 0.94
-6.18 -0.43 0.92
-6.22 -0.41 0.92
-6.61 -0.41 0.86
-6.45 -0.38 0.88
-6.27 -0.35 0.91
-6.26 -0.33 0.91
-3.76 -0.22 1.27
-10.11 -0.33 0.71
-9.44 -0.28 0.81
-8.20 -0.23 0.99
-7.77 -0.20 1.05
-8.04 -0.18 1.01
-5.84 -0.12 1.33
-8.37 -0.15 0.96
-8.60 -0.14 0.93
-8.58 -0.11 0.93
-8.27 -0.09 0.98
-8.27 -0.07 0.98
-7.96 -0.05 1.02
-8.30 -0.03 0.97
-8.11 -0.01 1.00
-9.89 0.01 0.29
-9.94 0.04 0.29
-9.95 0.10 0.28
-8.66 0.11 0.48
-6.98 0.21 0.73
-6.07 0.21 0.87
-6.22 0.23 0.85
-4.65 0.21 1.09
-4.63 0.22 1.09
-4.74 0.25 1.07
-4.91 0.27 1.05
-4.70 0.28 1.08
-7.03 0.42 0.72
-10.15 0.52 0.63
-9.95 0.56 0.66
-6.51 0.45 1.18
-5.95 0.45 1.26
-9.95 0.78 0.65
-10.30 0.83 0.60
-10.06 0.83 0.63
-5.68 0.50 1.30
-5.61 0.51 1.31
-5.76 0.54 1.29
-5.72 0.55 1.29
-9.79 0.95 0.67
-9.55 0.95 0.71
-5.39 0.57 1.34
-5.51 0.60 1.33
-5.61 0.65 1.31
-5.41 0.64 1.34
-8.72 1.04 0.83
-9.05 1.10 0.78
-8.96 1.14 0.79
-9.32 1.20 0.74
-9.05 1.19 0.78
-9.02 1.21 0.78
-8.88 1.21 0.80
-8.80 1.22 0.81
-8.58 1.21 0.85
-8.89 1.28 0.80
-9.03 1.32 0.78
-8.81 1.31 0.81
-8.65 1.31 0.83
-9.70 1.54 0.67
-4.03 1.26 1.51
-2.28 1.46 1.74
-9.07 -1.21 0.42
-2.84 -0.53 1.37
-10.00 -1.18 0.28
-7.59 -0.88 0.64
-7.70 -0.87 0.63
-9.82 -0.99 0.30
-9.61 -0.94 0.34
-9.68 -0.92 0.33
-9.55 -0.88 0.35
-8.89 -0.78 0.45
-9.59 -0.80 0.34
-9.50 -0.76 0.35
-9.55 -0.74 0.35
-9.46 -0.70 0.36
-8.44 -0.57 0.52
-9.53 -0.48 0.35
-6.46 -0.34 0.82
-7.09 -0.22 0.72
-6.88 -0.20 0.75
-7.13 -0.18 0.71
-7.09 -0.16 0.72
-7.57 -0.14 0.65
-7.31 -0.11 0.69
-10.07 -0.08 0.27
-9.62 -0.02 0.33
-8.04 0.01 0.88
-7.74 0.03 0.93
-8.00 0.05 0.89
-7.91 0.07 0.90
-9.27 0.10 0.69
-5.69 0.08 1.26
-8.95 0.14 0.74
-9.57 0.17 0.64
-9.48 0.19 0.65
-9.56 0.22 0.64
-9.52 0.24 0.65
-8.94 0.25 0.74
-8.16 0.24 0.86
-8.00 0.26 0.89
-8.04 0.28 0.88
-8.15 0.30 0.86
-7.88 0.31 0.90
-7.34 0.31 0.99
-7.62 0.34 0.95
-7.10 0.33 1.03
-8.09 0.40 0.87
-7.72 0.40 0.93
-7.60 0.41 0.95
-8.44 0.48 0.81
-8.26 0.49 0.84
-7.16 0.44 1.02
-8.38 0.54 0.82
-8.55 0.57 0.79
-8.43 0.58 0.81
-8.97 0.64 0.73
-7.38 0.54 0.98
-7.32 0.56 0.99
-7.25 0.57 1.00
-7.52 0.61 0.96
-8.28 0.69 0.83
-6.17 0.53 1.17
-5.88 0.52 1.22
-6.31 0.58 1.15
-6.16 0.58 1.17
-5.71 0.55 1.24
-5.86 0.58 1.22
-6.24 0.63 1.16
-6.17 0.64 1.17
-6.23 0.66 1.16
-6.23 0.68 1.16
-6.23 0.69 1.16
-6.14 0.70 1.17
-6.52 0.75 1.11
-6.49 0.77 1.12
-6.34 0.77 1.14
-8.61 1.05 0.77
-8.66 1.08 0.77
-8.34 1.06 0.82
-8.52 1.11 0.79
-8.84 1.17 0.73
-8.43 1.14 0.80
-8.87 1.21 0.73
-8.59 1.20 0.77
-8.53 1.21 0.78
-8.57 1.24 0.78
-8.52 1.25 0.78
-5.95 0.90 1.20
-8.35 1.27 0.81
-5.81 0.91 1.22
-8.67 1.36 0.76
-8.34 1.33 0.81
-8.85 1.43 0.73
-8.43 1.39 0.79
-8.43 1.41 0.79
-8.22 1.40 0.83
-8.80 1.51 0.73
-7.98 1.40 0.86
-7.78 1.38 0.89
-7.85 1.41 0.88
-9.20 1.67 0.66
-7.50 1.39 0.94
-7.73 1.45 0.90
-7.69 1.46 0.91
-7.95 1.53 0.86
-8.66 1.69 0.75
-8.05 1.59 0.84
-8.03 1.67 0.84
-3.66 1.35 1.52
-5.20 -1.59 0.93
-5.40 -1.57 0.90
-4.04 -1.24 1.12
-4.79 -1.24 1.00
-4.45 -1.16 1.06
-4.36 -1.13 1.07
-4.40 -1.12 1.07
-4.56 -1.13 1.04
-4.18 -1.05 1.10
-4.22 -1.04 1.10
-3.89 -0.98 1.15
-4.18 -1.01 1.10
-5.88 -0.98 0.83
-7.17 -1.11 0.62
-7.41 -1.11 0.59
-5.89 -0.92 0.83
-5.22 -0.81 0.94
-6.37 -0.91 0.75
-5.45 -0.80 0.90
-3.04 -0.54 1.29
-4.75 -0.69 1.01
-5.25 -0.72 0.93
-7.37 -0.89 0.60
-7.91 -0.91 0.51
-5.34 -0.67 0.92
-8.75 -0.93 0.37
-8.66 -0.90 0.39
-8.80 -0.88 0.37
-9.06 -0.88 0.32
-9.20 -0.83 0.30
-9.00 -0.79 0.33
-5.23 -0.51 0.94
-9.07 -0.74 0.32
-8.83 -0.70 0.36
-7.05 -0.57 0.65
-8.03 -0.60 0.49
-6.92 -0.51 0.67
-7.66 -0.40 0.95
-7.95 -0.39 0.90
-7.90 -0.37 0.91
-10.98 -0.49 0.42
-7.96 -0.34 0.90
-8.02 -0.32 0.89
-7.75 -0.29 0.93
-8.39 -0.29 0.83
-8.68 -0.28 0.78
-8.29 -0.25 0.85
-8.39 -0.23 0.83
-7.78 -0.20 0.93
-8.41 -0.19 0.83
-8.34 -0.17 0.84
-8.49 -0.16 0.81
-7.99 -0.13 0.89
-8.02 -0.11 0.89
-7.70 -0.08 0.94
-7.99 -0.07 0.89
-7.59 -0.05 0.96
-8.69 -0.03 0.78
-7.73 -0.01 0.93
-5.90 0.00 0.76
-5.28 0.02 0.87
-4.46 0.04 1.00
-9.57 0.08 0.57
-9.63 0.10 0.55
-9.45 0.12 0.59
-6.78 0.11 1.03
-9.45 0.17 0.58
-9.58 0.19 0.56
-7.29 0.17 0.95
-7.11 0.18 0.98
-7.68 0.21 0.88
-7.04 0.21 0.99
-7.21 0.23 0.96
-6.75 0.24 1.03
-7.33 0.27 0.94
-6.48 0.26 1.08
-6.67 0.28 1.05
-6.53 0.29 1.07
-6.47 0.30 1.08
-6.34 0.31 1.10
-7.82 0.40 0.85
-6.30 0.34 1.11
-6.16 0.35 1.13
-6.45 0.38 1.08
-6.18 0.38 1.13
-8.25 0.52 0.78
-8.10 0.54 0.80
-8.70 0.60 0.70
-8.33 0.59 0.77
-7.36 0.54 0.93
-7.49 0.57 0.90
-7.68 0.60 0.87
-8.49 0.68 0.74
-8.31 0.69 0.77
-5.72 0.49 1.20
-5.71 0.51 1.20
-6.21 0.56 1.12
-5.59 0.52 1.22
-5.82 0.56 1.18
-5.81 0.57 1.18
-6.04 0.61 1.15
-6.00 0.62 1.15
-5.87 0.62 1.17
-5.89 0.64 1.17
-6.47 0.71 1.07
-6.09 0.69 1.13
-8.82 1.01 0.67
-8.68 1.02 0.70
-8.62 1.03 0.71
-8.64 1.05 0.70
-8.64 1.08 0.70
-9.05 1.15 0.63
-4.75 0.62 1.36
-8.84 1.17 0.67
-8.84 1.19 0.66
-8.42 1.15 0.73
-8.30 1.16 0.75
-7.45 1.06 0.90
-8.02 1.16 0.80
-8.08 1.19 0.79
-8.10 1.21 0.79
-8.12 1.23 0.78
-8.10 1.25 0.78
-8.12 1.27 0.78
-8.05 1.28 0.79
-8.01 1.30 0.80
-7.98 1.31 0.80
-8.00 1.33 0.80
-7.95 1.35 0.81
-8.01 1.38 0.80
-7.95 1.39 0.81
-7.91 1.40 0.81
-7.96 1.43 0.80
-7.96 1.45 0.80
-7.89 1.46 0.81
-7.98 1.49 0.80
-7.97 1.51 0.80
-7.95 1.53 0.80
-8.05 1.57 0.78
-4.11 0.83 1.45
-8.09 1.68 0.77
-3.55 1.35 1.51
-3.56 1.59 1.49
-5.17 -1.65 0.87
-5.22 -1.63 0.87
-5.34 -1.63 0.85
-5.16 -1.56 0.88
-4.91 -1.42 0.92
-3.98 -1.22 1.08
-1.02 -0.66 1.59
-3.84 -1.17 1.11
-4.91 -1.34 0.92
-5.16 -1.37 0.88
-4.61 -1.24 0.98
-4.43 -1.19 1.01
-4.32 -1.14 1.03
-3.90 -1.05 1.10
-4.13 -1.08 1.06
-4.65 -1.14 0.97
-4.21 -1.04 1.04
-3.82 -0.95 1.11
-4.84 -1.08 0.94
-3.77 -0.91 1.12
-6.13 -1.13 0.72
-6.49 -1.15 0.66
-6.43 -1.12 0.67
-6.35 -1.07 0.69
-4.93 -0.88 0.93
-5.09 -0.88 0.90
-4.88 -0.82 0.94
-4.81 -0.80 0.95
-4.85 -0.79 0.94
-5.02 -0.77 0.91
-5.20 -0.75 0.88
-5.31 -0.74 0.86
-5.26 -0.72 0.87
-5.26 -0.70 0.87
-3.57 -0.53 1.16
-7.61 -0.84 0.48
-1.71 -0.33 1.47
-1.92 -0.34 1.44
-8.50 -0.81 0.33
-7.38 -0.70 0.52
-1.60 -0.28 1.49
-5.53 -0.51 0.83
-8.39 -0.64 0.35
-7.18 -0.55 0.55
-7.26 -0.53 0.54
-7.46 -0.52 0.50
-6.56 -0.41 0.66
-6.64 -0.37 0.64
-6.37 -0.33 0.69
-3.95 -0.23 1.09
-6.10 -0.28 0.73
-4.19 -0.21 1.05
-3.97 -0.17 1.09
-6.39 -0.19 0.68
-4.07 -0.12 1.07
-6.17 -0.14 0.72
-6.46 -0.12 0.67
-4.55 -0.08 0.99
-5.77 -0.06 0.79
-5.48 -0.02 0.83
-10.52 0.01 0.32
-10.33 0.04 0.35
-10.24 0.06 0.37
-10.42 0.08 0.33
-7.62 0.08 0.83
-6.96 0.09 0.94
-7.80 0.12 0.79
-7.02 0.13 0.93
-6.91 0.14 0.95
-6.72 0.15 0.98
-6.65 0.17 0.99
-6.79 0.19 0.97
-6.58 0.20 1.01
-6.92 0.22 0.95
-7.06 0.25 0.92
-6.98 0.26 0.94
-7.48 0.30 0.85
-7.36 0.31 0.87
-7.73 0.34 0.80
-7.60 0.36 0.83
-7.36 0.36 0.87
-6.66 0.34 0.99
-7.94 0.43 0.77
-5.98 0.34 1.11
-7.91 0.47 0.77
-5.89 0.36 1.12
-8.31 0.53 0.70
-5.94 0.40 1.12
-7.85 0.54 0.78
-7.71 0.55 0.80
-7.83 0.58 0.78
-8.33 0.63 0.69
-7.62 0.60 0.82
-8.28 0.67 0.70
-7.48 0.62 0.84
-7.40 0.63 0.85
-5.95 0.53 1.11
-6.17 0.56 1.07
-5.87 0.55 1.12
-6.02 0.58 1.10
-6.05 0.60 1.09
-8.52 0.85 0.65
-8.62 0.88 0.64
-8.27 0.87 0.70
-8.71 0.94 0.62
-8.95 0.98 0.58
-9.17 1.03 0.54
-8.11 0.93 0.72
-9.12 1.07 0.54
-8.10 0.97 0.72
-8.38 1.02 0.67
-8.34 1.04 0.68
-8.16 1.04 0.71
-8.19 1.06 0.71
-8.44 1.11 0.66
-8.80 1.18 0.60
-8.05 1.10 0.73
-8.13 1.14 0.71
-7.93 1.13 0.75
-7.88 1.14 0.76
-7.81 1.15 0.77
-7.71 1.15 0.79
-7.67 1.17 0.79
-7.70 1.19 0.79
-7.78 1.22 0.77
-7.78 1.24 0.77
-7.75 1.26 0.77
-7.73 1.27 0.78
-7.64 1.28 0.79
-7.76 1.32 0.77
-8.52 1.46 0.63
-7.78 1.36 0.77
-7.80 1.38 0.76
-7.77 1.40 0.77
-7.91 1.44 0.74
-7.87 1.45 0.75
-8.14 1.52 0.70
-8.05 1.53 0.71
-8.11 1.56 0.70
-8.19 1.59 0.69
-8.27 1.63 0.67
-8.09 1.62 0.70
-7.64 1.63 0.78
-5.12 -1.68 0.82
-5.08 -1.66 0.82
-5.14 -1.65 0.81
-5.11 -1.62 0.82
-5.10 -1.60 0.82
-5.11 -1.59 0.82
-5.00 -1.54 0.84
-4.82 -1.45 0.88
-4.65 -1.39 0.91
-3.55 -1.16 1.10
-4.58 -1.34 0.92
-4.39 -1.29 0.95
-3.86 -1.17 1.05
-4.80 -1.33 0.88
-4.01 -1.17 1.02
-4.47 -1.23 0.94
-3.86 -1.11 1.05
-3.94 -1.11 1.03
-4.52 -1.19 0.93
-4.12 -1.11 1.00
-4.44 -1.14 0.95
-4.46 -1.13 0.94
-4.35 -1.10 0.96
-3.96 -1.02 1.03
-4.15 -1.03 1.00
-4.46 -1.06 0.94
-4.24 -1.01 0.98
-4.32 -1.01 0.97
-4.48 -1.01 0.94
-4.46 -1.00 0.95
-4.62 -1.00 0.92
-4.54 -0.97 0.93
-6.45 -1.19 0.59
-4.25 -0.88 0.98
-4.30 -0.88 0.98
-4.30 -0.86 0.98
-4.38 -0.85 0.96
-4.35 -0.83 0.97
-4.60 -0.85 0.92
-4.54 -0.82 0.93
-4.72 -0.82 0.90
-4.79 -0.82 0.89
-4.62 -0.78 0.92
-4.96 -0.80 0.86
-4.93 -0.78 0.86
-5.00 -0.77 0.85
-5.31 -0.78 0.80
-5.18 -0.75 0.82
-5.10 -0.72 0.84
-5.20 -0.71 0.82
-5.13 -0.69 0.83
-5.16 -0.67 0.82
-5.45 -0.68 0.77
-5.31 -0.65 0.80
-5.20 -0.62 0.82
-5.31 -0.61 0.80
-5.30 -0.59 0.80
-4.98 -0.55 0.86
-7.55 -0.71 0.40
-7.62 -0.69 0.39
-7.41 -0.66 0.43
-7.04 -0.61 0.49
-7.26 -0.60 0.46
-6.89 -0.56 0.52
-7.09 -0.54 0.49
-7.09 -0.52 0.49
-7.17 -0.50 0.47
-7.46 -0.49 0.42
-7.72 -0.48 0.37
-7.19 -0.43 0.47
-7.38 -0.42 0.43
-6.52 -0.36 0.59
-6.37 -0.33 0.61
-6.30 -0.31 0.62
-7.68 -0.33 0.38
-4.08 -0.20 1.02
-6.20 -0.25 0.64
-6.07 -0.22 0.66
-6.19 -0.20 0.64
-5.82 -0.17 0.71
-5.95 -0.16 0.69
-6.36 -0.14 0.61
-7.80 -0.10 0.80
-7.83 -0.09 0.79
-7.70 -0.07 0.81
-7.29 -0.04 0.89
-7.77 -0.03 0.80
-7.85 -0.01 0.79
-4.54 0.00 0.87
-4.95 0.02 0.80
-4.99 0.04 0.79
-5.16 0.06 0.76
-4.83 0.07 0.82
-5.11 0.09 0.77
-5.14 0.11 0.76
-5.04 0.13 0.78
-5.18 0.15 0.75
-5.39 0.17 0.71
-4.68 0.17 0.84
-4.62 0.19 0.85
-6.50 0.20 0.96
-6.41 0.21 0.98
-6.04 0.21 1.05
-6.21 0.23 1.02
-6.41 0.25 0.98
-6.45 0.27 0.97
-6.39 0.28 0.98
-6.43 0.30 0.98
-6.25 0.31 1.01
-6.99 0.36 0.87
-6.03 0.33 1.05
-5.55 0.31 1.14
-5.72 0.34 1.11
-5.69 0.35 1.11
-5.74 0.37 1.10
-8.09 0.53 0.67
-5.84 0.40 1.08
-5.93 0.42 1.07
-5.68 0.42 1.11
-5.68 0.43 1.11
-5.56 0.44 1.13
-5.68 0.46 1.11
-5.69 0.48 1.11
-5.93 0.51 1.06
-8.66 0.76 0.56
-5.82 0.53 1.08
-6.36 0.59 0.98
-5.82 0.56 1.08
-9.39 0.91 0.42
-9.38 0.94 0.42
-6.14 0.63 1.02
-7.68 0.81 0.73
-9.25 0.99 0.44
-8.99 0.99 0.49
-10.00 1.12 0.30
-8.98 1.03 0.49
-8.84 1.03 0.52
-8.11 0.97 0.65
-8.41 1.03 0.60
-8.45 1.05 0.59
-8.41 1.07 0.59
-8.48 1.10 0.58
-8.55 1.13 0.57
-8.55 1.15 0.57
-8.38 1.15 0.60
-7.89 1.10 0.69
-7.71 1.09 0.72
-7.89 1.14 0.69
-7.82 1.15 0.70
-7.71 1.15 0.72
-7.64 1.16 0.73
-7.86 1.21 0.69
-7.84 1.23 0.69
-7.87 1.25 0.68
-7.75 1.25 0.71
-7.65 1.26 0.72
-7.64 1.28 0.72
-7.72 1.31 0.71
-3.50 0.62 1.50
-7.80 1.36 0.69
-7.78 1.38 0.70
-8.05 1.44 0.64
-7.99 1.45 0.66
-8.00 1.47 0.65
-7.96 1.49 0.66
-8.12 1.54 0.63
-8.17 1.57 0.62
-8.22 1.60 0.61
-8.03 1.58 0.64
-3.97 0.81 1.41
-8.02 1.68 0.64
-7.79 1.65 0.68
-7.71 1.66 0.70
-0.45 -1.01 1.62
-5.02 -1.69 0.77
-1.06 -0.74 1.52
-0.95 -0.68 1.54
-3.83 -1.15 1.00
-3.86 -1.12 0.99
-4.09 -1.07 0.95
-3.90 -1.02 0.99
-3.77 -0.99 1.01
-4.04 -1.01 0.96
-3.97 -0.99 0.98
-3.83 -0.95 1.00
-3.77 -0.92 1.01
-3.58 -0.88 1.05
-3.85 -0.91 1.00
-3.44 -0.82 1.08
-3.55 -0.82 1.06
-6.67 -1.22 0.47
-4.30 -0.86 0.92
-6.78 -1.15 0.46
-3.67 -0.75 1.03
-4.06 -0.78 0.96
-3.50 -0.70 1.07
-3.37 -0.67 1.09
-3.71 -0.69 1.03
-7.34 -1.07 0.35
-7.18 -1.03 0.38
-7.06 -1.00 0.40
-1.66 -0.43 1.41
-1.70 -0.42 1.40
-2.74 -0.51 1.21
-5.20 -0.73 0.75
-2.65 -0.48 1.23
-5.34 -0.71 0.73
-1.78 -0.38 1.39
-5.42 -0.68 0.71
-1.66 -0.35 1.41
-1.78 -0.35 1.39
-5.65 -0.64 0.67
-2.02 -0.34 1.34
-6.91 -0.69 0.44
-7.10 -0.68 0.40
-6.91 -0.65 0.44
-1.60 -0.27 1.42
-1.80 -0.27 1.38
-2.01 -0.27 1.34
-2.81 -0.28 1.20
-3.08 -0.24 1.14
-6.56 -0.36 0.50
-3.34 -0.22 1.10
-3.92 -0.15 0.99
-4.05 -0.14 0.96
-5.86 -0.16 0.63
-5.36 -0.13 0.72
-4.09 -0.09 0.96
-5.90 -0.10 0.62
-5.20 -0.07 0.75
-5.26 -0.05 0.74
-5.03 -0.03 0.78
-4.67 -0.01 0.85
-7.19 0.01 0.77
-6.85 0.04 0.84
-6.93 0.07 0.82
-7.05 0.11 0.80
-7.22 0.15 0.77
-6.50 0.16 0.90
-6.91 0.21 0.82
-6.23 0.22 0.96
-6.98 0.28 0.81
-8.09 0.36 0.60
-7.45 0.37 0.72
-8.04 0.43 0.60
-7.63 0.45 0.68
-8.67 0.55 0.48
-8.76 0.60 0.46
-6.12 0.45 0.97
-8.97 0.70 0.42
-8.97 0.75 0.42
-8.93 0.79 0.42
-9.14 0.85 0.38
-9.23 0.90 0.36
-7.47 0.77 0.70
-9.39 1.01 0.33
-7.61 0.86 0.67
-7.33 0.86 0.73
-8.87 1.08 0.43
-8.51 1.08 0.50
-7.49 0.99 0.69
-8.05 1.11 0.58
-8.52 1.21 0.49
-7.73 1.14 0.64
-8.07 1.23 0.58
-7.36 1.16 0.71
-7.61 1.24 0.66
-7.70 1.29 0.64
-7.91 1.36 0.60
-7.79 1.38 0.62
-7.96 1.45 0.59
-7.82 1.46 0.61
-8.05 1.55 0.57
-8.02 1.58 0.57
-8.08 1.63 0.56
-8.16 1.69 0.54
-3.34 -1.29 1.03
-2.86 -1.16 1.13
-5.05 -1.61 0.70
-4.99 -1.58 0.71
-2.42 -1.03 1.21
-2.73 -1.08 1.15
-2.59 -1.04 1.18
-2.81 -1.07 1.14
-2.69 -1.03 1.16
-2.70 -1.02 1.16
-3.26 -1.12 1.05
-3.46 -1.14 1.01
-3.55 -1.15 0.99
-3.02 -1.03 1.10
-3.60 -1.12 0.99
-4.22 -1.22 0.86
-3.41 -1.06 1.02
-3.85 -1.12 0.94
-3.37 -1.03 1.03
-3.47 -1.03 1.01
-3.88 -1.08 0.93
-4.20 -1.12 0.87
-4.35 -1.13 0.84
-4.06 -1.07 0.90
-4.01 -1.04 0.91
-4.09 -1.04 0.89
-4.29 -1.05 0.85
-4.05 -1.00 0.90
-4.25 -1.02 0.86
-3.93 -0.95 0.92
-3.84 -0.92 0.94
-3.79 -0.90 0.95
-3.74 -0.88 0.96
-3.74 -0.86 0.96
-3.70 -0.84 0.97
-3.48 -0.80 1.01
-3.67 -0.81 0.98
-3.60 -0.79 0.99
-3.62 -0.77 0.99
-3.34 -0.72 1.04
-3.22 -0.70 1.06
-3.23 -0.68 1.06
-3.44 -0.70 1.02
-3.90 -0.73 0.93
-3.50 -0.67 1.01
-7.11 -1.05 0.31
-3.62 -0.66 0.99
-3.62 -0.64 0.99
-6.87 -0.96 0.36
-6.85 -0.93 0.36
-3.76 -0.61 0.96
-5.00 -0.71 0.72
-5.20 -0.71 0.68
-6.88 -0.85 0.36
-5.28 -0.68 0.67
-6.32 -0.75 0.47
-6.29 -0.73 0.47
-6.64 -0.74 0.40
-6.36 -0.69 0.46
-6.62 -0.69 0.41
-6.21 -0.64 0.49
-5.81 -0.59 0.56
-5.80 -0.57 0.57
-5.82 -0.55 0.56
-5.69 -0.53 0.59
-5.55 -0.50 0.61
-6.59 -0.54 0.41
-6.65 -0.52 0.40
-6.96 -0.51 0.34
-3.62 -0.25 0.99
-3.62 -0.23 0.99
-7.65 -0.25 0.69
-7.55 -0.21 0.71
-7.69 -0.18 0.68
-7.52 -0.14 0.71
-7.30 -0.10 0.75
-7.23 -0.06 0.77
-7.38 -0.03 0.74
-3.93 0.06 0.88
-4.38 0.08 0.78
-4.12 0.11 0.83
-4.27 0.15 0.80
-4.62 0.17 0.73
-4.39 0.18 0.78
-4.51 0.20 0.75
-4.42 0.22 0.77
-4.61 0.24 0.73
-4.30 0.25 0.80
-4.51 0.29 0.75
-4.80 0.32 0.69
-4.45 0.32 0.76
-8.84 0.43 0.38
-8.62 0.44 0.42
-5.28 0.29 1.10
-6.02 0.34 0.95
-5.83 0.34 0.98
-5.82 0.36 0.99
-5.80 0.37 0.99
-5.72 0.38 1.01
-5.87 0.40 0.98
-5.59 0.40 1.03
-5.59 0.41 1.03
-5.58 0.42 1.03
-5.69 0.45 1.01
-5.90 0.48 0.97
-5.49 0.46 1.05
-5.64 0.48 1.02
-6.13 0.54 0.92
-5.45 0.50 1.06
-5.55 0.52 1.04
-5.68 0.54 1.01
-5.44 0.53 1.06
-5.65 0.57 1.01
-6.14 0.63 0.91
-6.14 0.65 0.91
-6.23 0.67 0.89
-6.34 0.70 0.87
-6.09 0.69 0.92
-6.61 0.76 0.82
-7.18 0.86 0.70
-7.32 0.89 0.67
-6.94 0.87 0.75
-7.08 0.90 0.72
-7.56 0.98 0.62
-7.31 0.97 0.67
-7.34 0.99 0.66
-8.88 1.21 0.35
-7.29 1.02 0.67
-7.60 1.08 0.61
-7.55 1.09 0.62
-7.58 1.11 0.61
-7.66 1.14 0.59
-7.62 1.16 0.60
-7.59 1.17 0.61
-7.57 1.19 0.61
-7.67 1.22 0.59
-7.66 1.24 0.59
-7.67 1.26 0.59
-7.71 1.29 0.58
-7.66 1.30 0.59
-7.80 1.34 0.56
-7.85 1.37 0.55
-7.76 1.37 0.56
-7.86 1.41 0.54
-7.88 1.43 0.54
-8.05 1.48 0.50
-8.20 1.53 0.47
-8.04 1.52 0.50
-8.15 1.62 0.47
-3.37 0.70 1.46
-7.98 1.65 0.51
-2.54 -1.05 1.15
-2.74 -1.06 1.11
-2.60 -1.02 1.14
-2.50 -0.95 1.16
-2.84 -0.95 1.09
-2.95 -0.95 1.07
-3.46 -0.92 0.97
-3.60 -0.91 0.94
-3.40 -0.86 0.98
-0.71 -0.46 1.53
-3.18 -0.78 1.03
-1.50 -0.54 1.37
-1.05 -0.45 1.46
-1.78 -0.43 1.31
-1.46 -0.39 1.38
-3.17 -0.54 1.03
-5.61 -0.73 0.54
-6.26 -0.75 0.41
-6.05 -0.71 0.45
-1.70 -0.34 1.33
-6.50 -0.68 0.36
-5.88 -0.61 0.48
-6.00 -0.58 0.46
-6.11 -0.57 0.44
-1.47 -0.25 1.38
-1.89 -0.27 1.29
-1.52 -0.24 1.37
-1.59 -0.23 1.35
-1.69 -0.23 1.33
-5.83 -0.13 0.49
-5.24 -0.11 0.61
-5.23 -0.09 0.61
-4.40 -0.06 0.78
-4.75 -0.05 0.71
-4.50 -0.03 0.76
-4.83 -0.01 0.69
-6.88 0.04 0.71
-7.24 0.08 0.63
-7.27 0.09 0.62
-7.25 0.13 0.63
-7.16 0.15 0.65
-6.96 0.16 0.69
-7.25 0.18 0.63
-7.22 0.20 0.63
-7.34 0.22 0.61
-6.89 0.24 0.70
-6.73 0.27 0.73
-6.46 0.27 0.79
-8.06 0.36 0.45
-8.34 0.45 0.39
-6.28 0.39 0.83
-6.08 0.39 0.87
-6.26 0.42 0.83
-6.07 0.42 0.87
-8.15 0.58 0.43
-7.86 0.58 0.49
-7.68 0.58 0.53
-7.86 0.62 0.49
-7.24 0.59 0.62
-6.98 0.58 0.67
-7.11 0.61 0.64
-7.39 0.65 0.59
-7.10 0.65 0.65
-7.16 0.67 0.63
-7.54 0.72 0.55
-6.99 0.69 0.67
-6.90 0.69 0.69
-7.16 0.76 0.63
-6.99 0.75 0.67
-6.39 0.71 0.79
-7.10 0.80 0.64
-6.89 0.80 0.68
-6.91 0.82 0.68
-6.76 0.82 0.71
-6.86 0.84 0.69
-6.77 0.85 0.71
-7.14 0.91 0.63
-7.12 0.93 0.63
-7.09 0.94 0.64
-7.06 0.96 0.64
-7.17 0.99 0.62
-4.42 0.63 1.21
-4.21 0.61 1.25
-4.34 0.64 1.22
-4.55 0.68 1.18
-4.53 0.69 1.18
-4.45 0.69 1.20
-4.55 0.72 1.18
-4.79 0.76 1.12
-7.68 1.23 0.50
-7.66 1.24 0.51
-8.10 1.33 0.41
-7.53 1.26 0.53
-7.55 1.28 0.53
-7.54 1.30 0.53
-4.73 0.84 1.13
-4.97 0.89 1.08
-4.84 0.89 1.11
-5.11 0.94 1.05
-4.69 0.88 1.14
-4.85 0.92 1.10
-4.76 0.92 1.12
-4.79 0.94 1.11
-7.85 1.53 0.46
-4.68 0.94 1.14
-7.82 1.57 0.46
-7.82 1.59 0.46
-7.91 1.62 0.44
-7.72 1.60 0.48
-7.81 1.64 0.46
-7.45 1.61 0.53
-7.13 1.62 0.60
-6.93 1.61 0.64
-6.64 1.58 0.70
-2.70 1.59 1.47
-3.86 -1.47 0.81
-3.99 -1.45 0.78
-3.92 -1.42 0.80
-3.34 -1.28 0.92
-3.47 -1.29 0.89
-3.68 -1.32 0.85
-3.06 -1.18 0.98
-3.09 -1.17 0.98
-2.83 -1.10 1.03
-3.02 -1.13 0.99
-3.10 -1.13 0.98
-3.01 -1.10 1.00
-3.74 -1.23 0.84
-3.05 -1.08 0.99
-3.06 -1.07 0.99
-3.16 -1.07 0.96
-2.64 -0.96 1.08
-3.38 -1.09 0.92
-3.74 -1.14 0.84
-3.43 -1.07 0.91
-3.34 -1.04 0.93
-3.89 -1.12 0.81
-4.07 -1.13 0.77
-3.75 -1.06 0.84
-3.83 -1.06 0.83
-3.56 -1.00 0.88
-4.21 -1.09 0.74
-3.78 -1.01 0.84
-3.71 -0.98 0.85
-3.55 -0.94 0.89
-3.56 -0.93 0.88
-3.60 -0.92 0.88
-3.59 -0.90 0.88
-3.57 -0.88 0.88
-3.44 -0.85 0.91
-3.55 -0.85 0.89
-3.31 -0.81 0.94
-3.49 -0.82 0.90
-3.55 -0.81 0.89
-3.57 -0.80 0.88
-3.49 -0.77 0.90
-3.52 -0.76 0.89
-3.37 -0.73 0.93
-3.32 -0.71 0.94
-3.09 -0.67 0.99
-3.31 -0.68 0.94
-3.26 -0.66 0.95
-3.29 -0.65 0.94
-3.34 -0.64 0.94
-3.43 -0.64 0.91
-3.62 -0.64 0.88
-3.58 -0.62 0.88
-5.03 -0.75 0.58
-4.23 -0.66 0.75
-3.99 -0.62 0.80
-5.90 -0.64 0.39
-5.88 -0.60 0.40
-3.11 -0.32 0.98
-4.91 -0.27 1.13
-8.28 -0.43 0.41
-4.35 -0.22 1.24
-7.54 -0.10 0.57
-7.57 -0.07 0.56
-7.25 -0.04 0.63
-7.46 -0.03 0.58
-7.49 -0.01 0.58
-4.28 0.02 0.67
-4.12 0.05 0.71
-7.36 0.08 0.54
-7.10 0.09 0.59
-7.13 0.13 0.59
-6.54 0.13 0.72
-6.35 0.14 0.76
-6.63 0.17 0.70
-6.81 0.19 0.66
-6.65 0.20 0.69
-7.05 0.23 0.60
-6.63 0.23 0.69
-6.17 0.25 0.80
-6.22 0.26 0.78
-6.54 0.29 0.71
-6.31 0.31 0.76
-6.19 0.37 0.79
-6.00 0.37 0.83
-6.02 0.38 0.83
-5.81 0.39 0.87
-5.79 0.40 0.88
-5.91 0.42 0.85
-5.89 0.43 0.85
-6.12 0.48 0.80
-6.21 0.50 0.78
-6.69 0.56 0.67
-6.67 0.57 0.68
-7.12 0.63 0.58
-6.84 0.62 0.64
-6.95 0.65 0.61
-6.88 0.66 0.63
-7.16 0.70 0.57
-6.94 0.70 0.61
-7.06 0.73 0.59
-6.86 0.72 0.63
-7.21 0.78 0.55
-7.06 0.78 0.59
-6.96 0.78 0.61
-7.23 0.83 0.55
-6.70 0.79 0.66
-6.88 0.83 0.62
-7.14 0.88 0.56
-7.31 0.91 0.53
-7.15 0.91 0.56
-6.99 0.91 0.59
-7.20 0.95 0.55
-4.33 0.59 1.19
-4.41 0.61 1.17
-4.46 0.63 1.16
-4.38 0.63 1.18
-4.42 0.65 1.17
-4.39 0.65 1.17
-4.42 0.67 1.16
-4.44 0.68 1.16
-4.42 0.69 1.16
-4.67 0.74 1.11
-4.80 0.78 1.08
-4.74 0.78 1.09
-7.69 1.27 0.43
-4.74 0.80 1.09
-4.70 0.81 1.10
-4.77 0.83 1.08
-7.83 1.37 0.39
-4.62 0.83 1.11
-4.79 0.87 1.07
-4.69 0.87 1.09
-4.84 0.90 1.06
-4.70 0.90 1.09
-7.89 1.52 0.37
-4.62 0.91 1.11
-7.89 1.56 0.37
-7.84 1.57 0.38
-7.79 1.59 0.39
-7.70 1.60 0.41
-2.82 -1.13 0.99
-2.82 -1.12 0.99
-2.78 -1.10 1.00
-2.74 -1.06 1.01
-2.63 -1.03 1.03
-2.71 -1.02 1.01
-2.54 -0.98 1.05
-2.84 -1.02 0.99
-2.94 -1.03 0.96
-2.87 -0.99 0.98
-2.98 -1.00 0.96
-4.27 -1.20 0.67
-3.12 -0.98 0.92
-2.79 -0.91 1.00
-2.71 -0.88 1.02
-3.06 -0.92 0.94
-3.56 -0.98 0.83
-3.38 -0.93 0.87
-3.41 -0.92 0.86
-3.50 -0.92 0.84
-3.72 -0.94 0.79
-3.43 -0.86 0.86
-3.10 -0.80 0.93
-3.47 -0.83 0.85
-3.54 -0.82 0.83
-3.17 -0.76 0.92
-3.41 -0.78 0.86
-3.38 -0.74 0.87
-3.50 -0.74 0.85
-3.45 -0.71 0.86
-3.35 -0.68 0.88
-3.52 -0.69 0.84
-3.48 -0.67 0.85
-3.11 -0.60 0.93
-3.52 -0.63 0.84
-3.90 -0.64 0.76
-3.82 -0.62 0.77
-3.71 -0.59 0.80
-5.37 -0.67 0.43
-5.19 -0.62 0.47
-5.27 -0.61 0.45
-5.51 -0.61 0.40
-5.41 -0.58 0.42
-5.60 -0.54 0.38
-3.22 -0.35 0.91
-3.01 -0.30 0.96
-3.00 -0.27 0.96
-3.17 -0.27 0.92
-2.91 -0.23 0.98
-2.96 -0.22 0.97
-2.94 -0.19 0.97
-3.37 -0.18 0.87
-3.42 -0.17 0.86
-3.75 -0.15 0.79
-3.66 -0.13 0.81
-3.52 -0.11 0.84
-3.69 -0.10 0.80
-4.14 -0.08 0.70
-4.34 -0.01 0.66
-6.34 0.08 0.70
-6.47 0.26 0.66
-6.39 0.27 0.68
-6.25 0.29 0.71
-6.54 0.34 0.64
-6.62 0.39 0.62
-6.73 0.41 0.60
-6.62 0.47 0.62
-6.01 0.44 0.76
-6.59 0.50 0.63
-6.58 0.52 0.63
-6.37 0.52 0.68
-6.48 0.54 0.65
-6.66 0.57 0.61
-6.72 0.59 0.60
-6.58 0.60 0.63
-6.81 0.63 0.57
-6.59 0.63 0.62
-6.79 0.67 0.58
-6.75 0.68 0.58
-6.86 0.71 0.56
-6.55 0.69 0.63
-6.73 0.73 0.59
-6.92 0.76 0.54
-7.06 0.80 0.51
-6.97 0.80 0.53
-7.06 0.83 0.51
-7.01 0.84 0.52
-7.05 0.87 0.51
-6.99 0.87 0.52
-7.21 0.92 0.47
-7.41 0.96 0.43
-7.29 0.96 0.45
-7.37 0.99 0.43
-7.38 1.01 0.43
-7.12 1.00 0.49
-7.18 1.02 0.47
-7.18 1.04 0.47
-4.67 0.70 1.06
-4.63 0.70 1.07
-7.46 1.14 0.40
-7.35 1.14 0.43
-7.59 1.19 0.37
-7.51 1.20 0.39
-4.74 0.84 1.04
-4.66 0.84 1.05
-4.38 -1.28 0.57
-4.02 -1.20 0.66
-3.86 -1.16 0.69
-3.81 -1.13 0.71
-4.34 -1.21 0.58
-4.25 -1.18 0.60
-4.45 -1.20 0.56
-3.90 -1.08 0.69
-4.39 -1.15 0.57
-4.31 -1.12 0.59
-4.38 -1.12 0.57
-4.32 -1.09 0.59
-4.47 -1.10 0.55
-5.19 -1.19 0.39
-4.61 -1.09 0.52
-4.55 -1.06 0.54
-4.41 -1.02 0.57
-3.87 -0.93 0.70
-4.00 -0.93 0.66
-3.77 -0.88 0.72
-3.90 -0.89 0.69
-3.95 -0.88 0.68
-4.03 -0.87 0.66
-3.79 -0.82 0.72
-3.19 -0.73 0.85
-3.75 -0.79 0.73
-3.72 -0.77 0.73
-3.83 -0.77 0.71
-3.92 -0.77 0.69
-3.71 -0.73 0.74
-3.20 -0.65 0.85
-3.16 -0.64 0.86
-3.75 -0.69 0.73
-3.74 -0.67 0.73
-3.55 -0.63 0.77
-3.12 -0.58 0.87
-4.07 -0.66 0.65
-3.88 -0.62 0.70
-5.20 -0.62 0.39
-5.37 -0.62 0.35
-5.23 -0.59 0.38
-5.13 -0.56 0.41
-5.07 -0.54 0.42
-5.30 -0.54 0.37
-5.16 -0.51 0.40
-5.30 -0.50 0.37
-5.34 -0.48 0.36
-5.32 -0.43 0.36
-3.16 -0.27 0.86
-3.11 -0.25 0.88
-2.95 -0.23 0.91
-3.15 -0.23 0.87
-3.28 -0.22 0.83
-3.56 -0.22 0.77
-2.95 -0.18 0.91
-3.72 -0.18 0.73
-4.06 -0.17 0.65
-3.76 -0.13 0.72
-3.52 -0.10 0.78
-3.87 0.74 0.79
-3.22 0.76 0.72
-2.06 0.92 0.62
-1.95 0.95 0.61
-2.35 0.79 0.62
-1.95 0.93 0.60
-1.95 0.99 0.59
-2.28 0.90 0.56
-3.12 0.84 0.55
-2.43 0.93 0.52
-2.76 0.91 0.49
-4.36 0.18 0.46
-2.90 0.81 0.46
-2.80 0.87 0.47
-2.53 1.03 0.47
-2.32 1.04 0.47
-2.84 0.85 0.45
-2.40 1.04 0.45
-4.79 0.13 0.39
-3.06 0.72 0.42
-3.01 0.77 0.42
-2.96 0.79 0.42
-2.85 0.85 0.43
-2.73 0.88 0.43
-2.69 0.94 0.43
-2.63 0.97 0.43
-2.39 1.04 0.43
-2.21 1.09 0.44
-2.86 0.86 0.41
-2.80 0.87 0.41
-2.73 0.90 0.41
-2.68 0.91 0.41
-2.60 0.91 0.41
-2.62 0.94 0.41
-2.56 0.95 0.41
-2.38 1.03 0.42
-2.23 0.92 0.42
-2.21 0.89 0.41
-3.16 0.67 0.29
-3.15 0.71 0.29
-3.07 0.73 0.29
-3.05 0.79 0.29
-2.83 0.82 0.31
-2.81 0.90 0.31
-2.72 0.87 0.32
-2.43 0.84 0.34
-3.17 0.67 0.26
-3.08 0.75 0.27
-3.03 0.78 0.27
-2.91 0.84 0.28
-2.88 0.87 0.28
-2.80 0.89 0.29
-3.10 0.76 0.25
-3.02 0.77 0.25
-3.01 0.84 0.25
-2.95 0.88 0.26
-2.81 0.90 0.27
-2.83 0.93 0.26
-3.00 0.84 0.23
-2.95 0.86 0.24
-3.00 0.84 0.21
-2.95 0.88 0.21
-0.69 -0.78 0.22
-12.66 1.29 1.55
-10.73 -1.32 1.53
-10.53 -1.27 1.54
-10.45 -1.20 1.54
-10.50 -1.17 1.54
-10.44 -1.04 1.54
-13.16 1.15 1.41
-12.99 1.36 1.42
-13.25 1.42 1.40
-10.42 -1.32 1.43
-9.17 -1.16 1.50
-10.66 -1.21 1.41
-12.27 -0.27 1.32
-12.65 -0.21 1.30
-13.65 1.13 1.32
-13.41 1.33 1.33
-13.12 1.43 1.35
-13.42 1.50 1.33
-13.84 -1.00 1.15
-12.34 -0.27 1.25
-13.42 0.56 1.27
-13.36 0.59 1.27
-13.49 0.63 1.26
-13.75 1.20 1.24
-13.55 1.25 1.25
-13.33 1.26 1.27
-13.09 1.27 1.28
-13.20 1.38 1.28
-13.02 1.46 1.29
-13.10 1.53 1.28
-10.51 -1.36 1.30
-10.24 -1.27 1.31
-10.23 -1.24 1.31
-9.65 -1.12 1.35
-8.27 -0.84 1.45
-14.47 -1.28 1.03
-8.08 -0.70 1.46
-8.12 -0.68 1.46
-13.86 -0.96 1.07
-8.12 -0.60 1.46
-8.00 -0.57 1.47
-13.37 -0.59 1.10
-13.09 1.11 1.21
-13.39 1.20 1.19
-13.41 1.40 1.19
-13.33 -0.89 1.02
-13.11 -0.80 1.04
-12.68 0.47 1.18
-13.20 0.55 1.13
-12.84 0.57 1.16
-13.20 0.61 1.13
-13.03 0.64 1.15
-13.16 0.68 1.14
-13.52 0.92 1.11
-13.54 0.96 1.11
-13.58 0.99 1.10
-13.62 1.03 1.10
-13.75 1.07 1.09
-14.04 1.13 1.07
-13.92 1.15 1.07
-13.66 1.16 1.09
-13.65 1.19 1.09
-13.52 1.22 1.10
-13.46 1.24 1.11
-13.65 1.29 1.09
-13.54 1.32 1.10
-13.12 1.31 1.13
-13.40 1.37 1.11
-13.58 1.42 1.10
-13.91 1.49 1.07
-13.54 1.48 1.10
-9.52 -1.28 1.23
-10.18 -1.32 1.18
-10.27 -1.27 1.17
-10.42 -1.25 1.16
-14.23 -1.34 0.86
-7.48 -0.78 1.39
-7.73 -0.77 1.37
-13.94 -1.20 0.88
-7.46 -0.71 1.39
-7.47 -0.68 1.39
-7.52 -0.66 1.39
-7.59 -0.62 1.38
-7.53 -0.59 1.39
-7.96 -0.57 1.35
-10.52 -0.54 1.35
-14.23 -0.70 1.06
-14.38 -0.64 1.05
-13.91 -0.55 1.08
-11.77 0.01 0.98
-11.59 0.08 1.00
-12.99 0.57 1.09
-13.22 0.61 1.07
-13.15 0.64 1.07
-13.09 0.67 1.08
-13.14 0.71 1.07
-8.28 0.55 1.48
-13.88 1.01 1.01
-13.40 1.04 1.05
-13.45 1.08 1.04
-13.77 1.14 1.02
-13.80 1.17 1.01
-13.74 1.20 1.02
-13.69 1.23 1.02
-13.73 1.27 1.02
-13.57 1.28 1.03
-13.49 1.31 1.04
-13.61 1.39 1.03
-13.80 1.44 1.01
-13.94 1.49 1.00
-14.29 1.56 0.97
-14.53 -1.41 0.75
-7.70 -0.82 1.32
-7.65 -0.70 1.33
-7.75 -0.68 1.32
-7.63 -0.65 1.33
-7.56 -0.59 1.33
-7.95 -0.57 1.30
-7.88 -0.54 1.31
-7.35 -0.49 1.35
-7.02 -0.45 1.38
-13.32 -0.70 0.85
-13.31 -0.67 0.85
-13.19 -0.51 0.86
-11.34 -0.22 1.02
-11.71 -0.16 0.99
-11.46 -0.12 1.01
-11.71 -0.09 0.99
-11.73 -0.06 0.98
-11.87 -0.02 0.97
-12.94 0.51 1.01
-13.13 0.61 0.99
-13.28 0.65 0.98
-8.12 0.42 1.44
-10.82 0.58 1.20
-8.38 0.51 1.42
-13.45 0.85 0.96
-13.60 0.89 0.94
-13.75 0.94 0.93
-13.48 0.95 0.95
-13.67 1.00 0.94
-13.84 1.04 0.92
-13.78 1.07 0.93
-13.53 1.08 0.95
-13.98 1.15 0.91
-8.45 0.72 1.41
-13.79 1.21 0.92
-13.56 1.22 0.94
-13.81 1.27 0.92
-13.98 1.32 0.91
-13.58 1.32 0.94
-13.99 1.39 0.90
-14.22 1.45 0.88
-13.97 1.46 0.91
-14.47 1.54 0.86
-14.29 1.56 0.88
-14.27 1.59 0.88
-10.55 -1.61 1.00
-10.36 -1.50 1.01
-9.79 -1.31 1.07
-7.75 -0.82 1.25
-7.90 -0.81 1.24
-7.89 -0.79 1.24
-7.53 -0.74 1.27
-7.47 -0.71 1.28
-7.59 -0.69 1.27
-7.48 -0.66 1.28
-7.31 -0.63 1.29
-7.27 -0.60 1.30
-7.16 -0.57 1.31
-7.88 -0.59 1.24
-7.01 -0.52 1.32
-6.94 -0.49 1.33
-7.00 -0.47 1.32
-6.89 -0.44 1.33
-6.84 -0.42 1.33
-6.62 -0.39 1.36
-6.83 -0.37 1.34
-6.79 -0.33 1.34
-6.66 -0.30 1.35
-6.59 -0.28 1.36
-6.70 -0.26 1.35
-11.72 -0.23 0.89
-10.25 -0.09 1.25
-11.39 0.01 0.85
-9.77 0.07 1.00
-11.15 0.11 0.87
-15.20 0.18 0.48
-8.51 0.16 1.12
-14.82 0.58 0.76
-10.74 0.58 1.14
-13.30 0.75 0.90
-13.38 0.78 0.89
-13.66 0.83 0.86
-13.89 0.88 0.84
-13.30 0.90 0.90
-13.72 0.97 0.86
-13.88 1.01 0.84
-13.62 1.02 0.87
-13.67 1.06 0.86
-13.71 1.10 0.86
-13.82 1.14 0.85
-13.77 1.17 0.85
-13.59 1.22 0.87
-13.37 1.23 0.89
-13.61 1.29 0.86
-13.70 1.33 0.85
-13.51 1.34 0.87
-13.75 1.40 0.85
-14.34 1.49 0.79
-14.16 1.51 0.81
-14.30 1.56 0.79
-14.11 1.57 0.81
-14.42 1.64 0.78
-9.81 -1.25 1.00
-11.34 -1.24 0.85
-13.98 -1.40 0.60
-14.44 -1.36 0.55
-7.46 -0.71 1.23
-14.62 -1.17 0.54
-7.09 -0.63 1.26
-7.12 -0.61 1.26
-7.13 -0.59 1.26
-7.42 -0.58 1.23
-7.14 -0.55 1.26
-7.05 -0.52 1.26
-6.95 -0.49 1.27
-6.91 -0.46 1.28
-6.62 -0.43 1.31
-6.74 -0.41 1.29
-7.14 -0.41 1.26
-6.76 -0.37 1.29
-6.71 -0.34 1.30
-6.94 -0.33 1.28
-6.64 -0.30 1.30
-6.56 -0.28 1.31
-6.73 -0.26 1.29
-11.18 -0.32 0.87
