# .PCD v0.7 - Point Cloud Data file format
VERSION 0.7
FIELDS x y z
SIZE 4 4 4
TYPE F F F
COUNT 1 1 1
WIDTH 251
HEIGHT 1
VIEWPOINT 0 0 0 1 0 0 0
POINTS 251
DATA ASCII
-13.20 0.97 1.02
-13.34 0.04 0.30
-13.16 0.07 0.32
-13.44 0.14 0.28
-7.34 -0.58 0.66
-5.89 0.52 0.98
-5.83 0.53 0.99
-5.91 0.70 0.97
-6.23 0.80 0.91
-6.42 0.91 0.87
-6.18 0.95 0.91
-6.04 0.95 0.94
-5.98 0.95 0.95
-5.58 0.93 1.02
-6.49 1.11 0.85
-5.91 1.04 0.96
-6.21 1.12 0.90
-7.14 -0.78 0.54
-7.48 -0.70 0.48
-7.15 -0.52 0.54
-7.05 -0.50 0.56
-7.16 -0.48 0.54
-6.98 -0.45 0.57
-6.80 -0.27 0.60
-3.62 0.13 1.12
-6.96 0.06 0.66
-7.23 0.15 0.60
-6.11 0.20 0.82
-5.33 0.54 0.97
-5.02 0.54 1.03
-4.77 0.53 1.08
-5.53 0.63 0.93
-5.60 0.68 0.91
-5.58 0.70 0.91
-5.53 0.71 0.92
-5.72 0.74 0.88
-6.44 0.86 0.74
-5.70 0.83 0.89
-6.04 0.90 0.82
-6.02 1.09 0.81
-6.12 1.16 0.79
-6.24 1.25 0.76
-7.17 -0.44 0.37
-7.07 -0.33 0.39
-6.30 1.24 0.69
-4.49 0.38 1.04
-4.52 0.39 1.04
-5.61 0.52 0.80
-5.80 0.61 0.75
-6.84 0.76 0.53
-4.92 0.58 0.94
-7.35 0.85 0.41
-5.05 0.64 0.91
-6.80 0.85 0.53
-5.43 0.71 0.83
-4.91 0.68 0.94
-5.55 0.77 0.80
-5.70 0.80 0.77
-6.79 0.98 0.53
-6.42 0.95 0.61
-5.58 0.85 0.79
-5.66 0.89 0.77
-6.52 1.03 0.58
-6.25 1.01 0.64
-6.51 1.08 0.58
-6.10 1.04 0.67
-5.89 1.09 0.72
-6.04 1.14 0.68
-5.79 1.12 0.74
-6.20 1.21 0.64
-6.01 1.21 0.68
-6.06 1.28 0.67
-6.22 1.33 0.64
-5.75 -0.57 0.52
-6.37 -0.48 0.38
-7.40 -0.45 0.43
-7.29 -0.42 0.45
-7.64 -0.42 0.38
-7.43 -0.39 0.42
-7.11 -0.36 0.49
-7.64 -0.36 0.38
-7.85 -0.35 0.33
-7.81 -0.25 0.34
-4.33 0.29 1.03
-6.73 0.50 0.49
-4.95 0.61 0.88
-4.74 0.62 0.93
-4.69 0.62 0.94
-4.90 0.66 0.89
-5.14 0.65 0.78
-6.10 1.10 0.54
-6.43 1.23 0.46
-2.64 0.77 0.68
-3.32 0.80 0.72
-1.16 -0.97 0.60
-2.62 0.62 0.60
-1.84 0.73 0.55
-2.72 0.74 0.59
-2.74 0.66 0.56
-2.58 0.67 0.55
-1.96 1.02 0.54
-2.69 0.72 0.54
-1.08 -0.87 0.53
-2.79 -0.03 0.54
-2.94 0.75 0.52
-2.29 0.79 0.50
-1.69 0.87 0.50
-2.48 0.62 0.49
-2.02 0.92 0.49
-3.77 0.39 0.47
-3.38 0.62 0.47
-2.62 0.55 0.46
-2.65 0.70 0.46
-2.48 0.70 0.47
-1.98 0.88 0.47
-3.71 0.27 0.43
-3.19 0.76 0.43
-1.92 0.97 0.45
-1.83 0.94 0.45
-2.97 0.51 0.41
-2.82 0.62 0.42
-2.78 0.77 0.41
-2.46 0.68 0.42
-1.81 0.82 0.44
-3.54 0.56 0.36
-3.20 0.57 0.38
-2.74 0.52 0.39
-2.59 0.67 0.40
-2.42 0.66 0.39
-2.20 0.79 0.39
-2.08 0.90 0.40
-1.84 0.94 0.41
-1.68 0.87 0.41
-3.21 0.67 0.31
-2.68 0.57 0.35
-2.46 0.62 0.36
-2.10 0.85 0.38
-2.05 0.88 0.38
-1.66 0.84 0.40
-1.12 -0.91 0.43
-1.93 -0.64 0.41
-2.56 0.66 0.33
-2.42 0.66 0.35
-2.27 0.78 0.35
-2.03 0.94 0.36
-1.00 -0.90 0.42
-3.63 0.47 0.22
-3.00 0.52 0.28
-2.51 0.71 0.32
-2.11 0.87 0.34
-1.93 0.83 0.36
-1.94 0.91 0.35
-2.57 0.67 0.29
-2.43 0.74 0.30
-2.29 0.72 0.31
-2.04 0.73 0.34
-2.00 0.91 0.33
-2.75 0.44 0.26
-2.73 0.83 0.24
-1.87 0.83 0.33
-1.72 0.85 0.34
-1.66 0.84 0.35
-1.15 -0.84 0.39
-2.97 0.51 0.20
-2.92 0.57 0.20
-2.72 0.58 0.23
-2.50 0.64 0.26
-1.98 0.81 0.30
-1.82 0.93 0.31
-1.70 0.82 0.33
-2.60 0.54 0.23
-2.56 0.59 0.23
-2.40 0.79 0.24
-1.63 0.79 0.33
-1.19 -0.92 0.35
-2.50 0.63 0.21
-2.41 0.66 0.22
-2.47 0.76 0.21
-2.43 0.81 0.21
-2.21 0.73 0.25
-1.08 -0.87 0.35
-1.15 -0.82 0.36
-2.36 0.63 0.22
-2.23 0.75 0.23
-2.12 0.74 0.24
-1.62 0.94 0.28
-1.18 -0.73 0.36
-2.04 -0.73 0.27
-2.25 0.77 0.20
-2.00 0.64 0.26
-2.11 0.79 0.22
-1.83 0.72 0.27
-1.97 1.03 0.21
-1.77 0.86 0.26
-1.65 0.75 0.29
-1.65 1.13 0.23
-2.04 0.73 0.22
-2.04 0.80 0.21
-1.91 0.74 0.24
-1.78 0.80 0.25
-1.46 0.79 0.29
-2.05 0.75 0.20
-1.92 0.75 0.22
-1.82 0.71 0.25
-1.88 0.93 0.20
-1.74 0.81 0.24
-1.66 0.93 0.23
-1.03 -1.40 0.20
-1.89 -0.94 0.22
-1.73 0.73 0.24
-1.71 0.84 0.23
-1.68 0.88 0.22
-1.54 0.79 0.26
-1.34 -0.89 0.27
-1.85 0.74 0.21
-1.78 0.73 0.22
-1.80 0.82 0.20
-1.66 0.70 0.25
-1.62 0.85 0.22
-1.37 -0.85 0.27
-1.70 -0.92 0.22
-1.77 -0.85 0.22
-1.67 0.72 0.23
-1.55 0.80 0.23
-0.92 -0.88 0.26
-1.34 -0.88 0.25
-1.73 0.67 0.21
-1.59 0.72 0.23
-1.25 -0.82 0.26
-1.33 -0.70 0.28
-1.47 -0.81 0.24
-1.58 -0.86 0.21
-1.63 -0.87 0.20
-0.95 -0.92 0.22
-1.12 -0.79 0.26
-1.15 -0.82 0.25
-1.33 -0.85 0.23
-1.38 -0.91 0.21
-1.40 -0.83 0.23
-1.50 -0.80 0.23
-1.22 -0.79 0.24
-1.41 -0.75 0.24
-1.68 -0.56 0.23
-1.18 -0.78 0.23
-1.26 -0.87 0.21
-0.99 -0.73 0.24
-1.09 -0.76 0.23
-1.12 -0.79 0.22
-1.18 -0.80 0.22
-1.31 -0.76 0.22
-1.02 -0.76 0.22
