# .PCD v0.7 - Point Cloud Data file format
VERSION 0.7
FIELDS x y z
SIZE 4 4 4
TYPE F F F
COUNT 1 1 1
WIDTH 2861
HEIGHT 1
VIEWPOINT 0 0 0 1 0 0 0
POINTS 2861
DATA ASCII
-12.88 0.27 1.51
-12.30 1.41 1.53
-2.96 1.34 2.00
-8.68 -1.24 1.58
-8.67 -1.21 1.58
-8.69 -1.19 1.58
-8.56 -1.15 1.58
-8.69 -1.11 1.58
-8.64 -1.08 1.58
-8.52 -1.01 1.58
-8.61 -1.00 1.58
-8.84 -0.99 1.57
-8.55 -0.94 1.58
-8.55 -0.91 1.58
-8.59 -0.89 1.58
-8.56 -0.86 1.58
-8.51 -0.83 1.58
-8.64 -0.81 1.58
-8.65 -0.79 1.58
-8.72 -0.77 1.57
-8.91 -0.72 1.56
-9.93 -0.70 1.51
-9.79 -0.66 1.52
-9.53 -0.62 1.53
-15.38 -0.87 1.21
-11.01 -0.63 1.45
-10.73 -0.59 1.46
-10.62 -0.55 1.47
-11.10 -0.54 1.44
-10.43 -0.48 1.48
-10.30 -0.45 1.49
-10.69 -0.43 1.47
-10.55 -0.39 1.47
-10.59 -0.36 1.47
-10.86 -0.34 1.46
-10.55 -0.30 1.47
-10.45 -0.26 1.48
-11.20 -0.25 1.44
-11.34 -0.18 1.43
-9.48 -0.08 1.53
-11.93 -0.02 1.40
-12.86 0.02 1.45
-12.84 0.08 1.45
-9.77 0.09 1.62
-12.95 0.14 1.44
-9.67 0.13 1.63
-12.54 0.20 1.47
-13.10 0.24 1.43
-13.01 0.30 1.44
-12.72 0.32 1.46
-12.52 1.13 1.46
-8.59 -1.29 1.53
-8.52 -1.23 1.53
-8.48 -1.20 1.53
-8.43 -1.17 1.54
-8.59 -1.15 1.53
-8.38 -1.11 1.54
-8.55 -1.10 1.53
-8.48 -1.07 1.53
-8.54 -1.04 1.53
-8.55 -1.02 1.53
-8.47 -0.98 1.53
-8.52 -0.96 1.53
-8.38 -0.92 1.54
-8.52 -0.91 1.53
-8.45 -0.88 1.54
-8.48 -0.85 1.53
-8.41 -0.82 1.54
-8.42 -0.80 1.54
-8.52 -0.78 1.53
-8.42 -0.75 1.54
-9.09 -0.76 1.50
-9.03 -0.73 1.50
-9.17 -0.71 1.49
-5.53 -0.47 1.71
-8.98 -0.65 1.50
-9.71 -0.66 1.46
-9.89 -0.64 1.45
-5.68 -0.40 1.70
-10.20 -0.59 1.43
-10.63 -0.58 1.41
-10.72 -0.55 1.40
-10.44 -0.51 1.42
-10.68 -0.49 1.40
-10.92 -0.47 1.39
-10.81 -0.43 1.39
-10.78 -0.40 1.40
-10.77 -0.37 1.40
-10.72 -0.33 1.40
-10.70 -0.30 1.40
-10.64 -0.27 1.40
-10.95 -0.24 1.39
-11.10 -0.21 1.38
-12.49 -0.16 1.47
-12.75 -0.13 1.46
-12.74 -0.10 1.46
-12.92 -0.07 1.45
-12.60 -0.04 1.46
-12.90 -0.01 1.45
-8.70 0.09 1.47
-8.38 0.14 1.49
-13.23 1.03 1.36
-12.52 1.28 1.40
-12.62 1.35 1.40
-1.64 -0.57 1.92
-8.70 -1.33 1.47
-8.68 -1.30 1.47
-8.63 -1.24 1.47
-8.56 -1.20 1.48
-8.44 -1.16 1.49
-8.45 -1.14 1.49
-8.38 -1.05 1.49
-8.40 -1.03 1.49
-8.43 -1.01 1.49
-8.57 -0.99 1.48
-14.73 -1.50 1.08
-8.43 -0.93 1.49
-8.28 -0.89 1.50
-8.36 -0.87 1.49
-8.34 -0.84 1.49
-8.48 -0.83 1.48
-8.44 -0.80 1.49
-8.56 -0.78 1.48
-8.73 -0.77 1.47
-8.80 -0.74 1.46
-5.50 -0.51 1.67
-9.01 -0.70 1.45
-9.08 -0.68 1.45
-9.08 -0.65 1.45
-10.71 -0.71 1.34
-9.75 -0.63 1.40
-10.64 -0.64 1.35
-9.29 -0.55 1.43
-9.19 -0.52 1.44
-11.33 -0.58 1.30
-11.09 -0.54 1.32
-10.85 -0.50 1.33
-10.84 -0.46 1.33
-10.95 -0.43 1.33
-10.95 -0.40 1.33
-10.84 -0.37 1.33
-11.02 -0.34 1.32
-10.90 -0.31 1.33
-11.05 -0.28 1.32
-10.90 -0.24 1.33
-11.11 -0.21 1.32
-11.24 -0.18 1.31
-11.08 -0.15 1.32
-11.09 -0.12 1.32
-13.10 0.02 1.31
-13.11 0.05 1.31
-12.66 0.08 1.34
-12.70 0.11 1.33
-9.72 0.11 1.53
-11.42 1.04 1.41
-11.11 1.03 1.43
-12.45 1.28 1.34
-5.36 0.92 1.81
-9.53 1.69 1.53
-8.47 -1.22 1.43
-8.41 -1.19 1.43
-8.48 -1.12 1.43
-8.48 -1.09 1.43
-8.53 -1.07 1.42
-8.47 -1.04 1.43
-8.37 -1.00 1.43
-8.40 -0.98 1.43
-8.36 -0.95 1.44
-8.25 -0.92 1.44
-8.39 -0.90 1.43
-8.34 -0.87 1.44
-8.30 -0.84 1.44
-5.62 -0.61 1.62
-8.22 -0.78 1.45
-8.36 -0.77 1.44
-8.35 -0.74 1.44
-5.53 -0.53 1.63
-5.64 -0.52 1.62
-5.67 -0.50 1.62
-5.39 -0.46 1.64
-5.38 -0.45 1.64
-5.47 -0.43 1.63
-5.48 -0.41 1.63
-5.35 -0.39 1.64
-5.36 -0.37 1.64
-5.40 -0.35 1.64
-5.32 -0.33 1.64
-11.41 -0.55 1.23
-5.26 -0.29 1.65
-11.30 -0.39 1.43
-11.52 -0.37 1.41
-11.96 -0.35 1.38
-11.87 -0.32 1.39
-11.98 -0.30 1.38
-12.02 -0.27 1.38
-11.88 -0.24 1.39
-12.33 -0.22 1.36
-12.19 -0.19 1.37
-12.60 -0.16 1.34
-12.55 -0.13 1.35
-12.60 -0.10 1.34
-12.58 -0.07 1.34
-10.00 -0.03 1.51
-13.03 -0.01 1.31
-6.78 0.05 1.49
-8.47 -1.19 1.37
-8.45 -1.14 1.37
-8.40 -1.11 1.38
-8.50 -1.09 1.37
-8.47 -1.06 1.37
-8.48 -1.04 1.37
-8.36 -1.00 1.38
-8.26 -0.94 1.38
-8.20 -0.91 1.39
-8.27 -0.89 1.38
-8.37 -0.87 1.38
-8.38 -0.84 1.38
-8.26 -0.81 1.39
-8.30 -0.79 1.38
-8.22 -0.76 1.39
-8.68 -0.76 1.35
-8.84 -0.72 1.34
-5.75 -0.50 1.57
-8.80 -0.66 1.35
-11.38 -0.78 1.15
-9.30 -0.63 1.31
-11.37 -0.71 1.16
-8.73 -0.55 1.35
-9.06 -0.54 1.33
-11.09 -0.60 1.17
-8.72 -0.47 1.35
-5.35 -0.31 1.60
-8.75 -0.42 1.35
-11.17 -0.47 1.17
-10.78 -0.43 1.20
-10.56 -0.39 1.21
-10.61 -0.36 1.21
-11.13 -0.34 1.17
-11.28 -0.31 1.16
-11.48 -0.29 1.15
-11.61 -0.25 1.14
-11.73 -0.22 1.13
-12.12 -0.19 1.10
-12.59 -0.13 1.06
-9.92 0.01 1.41
-10.07 0.04 1.40
-9.52 0.06 1.44
-9.70 0.08 1.42
-9.85 0.11 1.41
-9.80 0.13 1.42
-9.58 0.15 1.43
-9.64 0.20 1.43
-10.35 0.24 1.37
-9.59 0.27 1.43
-10.34 0.31 1.37
-9.95 0.33 1.40
-9.71 0.34 1.42
-13.58 0.80 1.12
-11.64 0.72 1.27
-11.88 0.79 1.25
-12.62 0.93 1.19
-12.80 1.35 1.17
-13.05 1.53 1.15
-12.56 1.54 1.19
-12.63 1.58 1.18
-12.05 1.59 1.23
-12.26 1.65 1.21
-12.32 1.69 1.21
-9.23 1.62 1.44
-9.22 1.64 1.44
-9.02 1.67 1.46
-8.91 1.67 1.47
-3.59 -0.83 1.69
-4.04 -0.86 1.66
-8.62 -1.27 1.29
-8.55 -1.18 1.30
-3.92 -0.67 1.67
-3.86 -0.65 1.67
-8.39 -1.08 1.31
-4.36 -0.67 1.63
-8.26 -0.99 1.32
-3.76 -0.55 1.68
-4.95 -0.64 1.59
-4.36 -0.57 1.63
-4.83 -0.59 1.60
-5.20 -0.60 1.57
-8.38 -0.82 1.31
-4.99 -0.55 1.58
-5.57 -0.57 1.54
-5.37 -0.54 1.55
-5.70 -0.54 1.53
-5.61 -0.52 1.53
-5.71 -0.50 1.53
-5.90 -0.50 1.51
-5.46 -0.45 1.55
-9.41 -0.51 1.45
-9.61 -0.49 1.43
-9.77 -0.48 1.42
-12.05 -0.56 1.25
-9.60 -0.42 1.43
-9.87 -0.41 1.41
-11.74 -0.46 1.27
-11.80 -0.43 1.26
-11.75 -0.40 1.27
-12.49 -0.40 1.21
-11.73 -0.35 1.27
-11.85 -0.32 1.26
-11.97 -0.30 1.25
-11.89 -0.27 1.26
-12.03 -0.24 1.25
-12.05 -0.21 1.24
-12.40 -0.19 1.22
-12.14 -0.16 1.24
-9.64 -0.10 1.43
-9.56 -0.08 1.44
-9.69 -0.05 1.43
-9.78 -0.03 1.42
-9.66 -0.01 1.43
-11.80 0.01 0.97
-9.55 0.06 1.39
-9.53 0.08 1.39
-9.63 0.11 1.38
-9.68 0.13 1.38
-9.59 0.15 1.39
-9.72 0.34 1.37
-12.50 1.04 1.14
-12.71 1.21 1.12
-11.47 1.21 1.22
-12.02 1.64 1.17
-8.98 1.50 1.42
-8.98 1.55 1.42
-8.74 1.53 1.44
-8.95 1.61 1.42
-8.72 1.59 1.44
-8.51 -1.20 1.25
-8.35 -1.13 1.26
-3.88 -0.65 1.64
-4.14 -0.64 1.62
-4.70 -0.68 1.57
-8.15 -0.98 1.28
-8.14 -0.96 1.28
-3.97 -0.57 1.63
-4.71 -0.62 1.57
-4.45 -0.58 1.59
-4.61 -0.57 1.58
-8.22 -0.83 1.27
-8.45 -0.83 1.25
-5.36 -0.57 1.52
-5.62 -0.58 1.49
-5.72 -0.56 1.48
-5.75 -0.54 1.48
-5.74 -0.52 1.48
-5.66 -0.50 1.49
-5.50 -0.47 1.50
-5.60 -0.46 1.50
-5.52 -0.43 1.50
-5.62 -0.42 1.49
-5.30 -0.38 1.52
-5.64 -0.38 1.49
-5.50 -0.36 1.50
-5.38 -0.33 1.51
-5.73 -0.33 1.48
-5.72 -0.31 1.48
-10.80 -0.46 1.05
-6.26 -0.29 1.44
-10.30 -0.38 1.10
-6.37 -0.25 1.43
-6.37 -0.23 1.43
-9.61 -0.28 1.16
-9.77 -0.25 1.14
-9.45 -0.22 1.17
-6.57 -0.14 1.41
-6.68 -0.10 1.40
-11.37 -0.12 1.01
-6.69 -0.06 1.40
-9.43 0.01 1.34
-9.48 0.04 1.33
-9.38 0.06 1.34
-9.38 0.08 1.34
-9.23 0.10 1.36
-7.63 0.12 1.50
-7.41 0.14 1.52
-7.47 0.16 1.51
-7.64 0.18 1.50
-7.48 0.19 1.51
-7.68 0.22 1.49
-7.29 0.24 1.53
-9.89 0.37 1.29
-9.70 0.39 1.31
-9.83 0.42 1.30
-9.55 0.47 1.32
-12.43 0.73 1.07
-12.27 0.75 1.08
-12.27 0.81 1.08
-12.49 0.86 1.06
-13.05 1.05 1.01
-12.79 1.09 1.03
-11.16 0.98 1.18
-11.98 1.14 1.10
-12.06 1.27 1.09
-12.25 1.53 1.07
-11.44 1.68 1.14
-9.30 1.39 1.33
-9.33 1.44 1.33
-8.95 1.43 1.36
-8.93 1.45 1.36
-8.97 1.50 1.36
-8.75 1.49 1.38
-8.66 1.54 1.39
-8.64 1.56 1.39
-8.98 1.64 1.36
-8.94 1.65 1.36
-8.91 1.67 1.36
-3.98 -0.79 1.59
-4.01 -0.76 1.59
-4.03 -0.75 1.58
-8.28 -1.20 1.20
-3.96 -0.69 1.59
-3.92 -0.67 1.59
-4.11 -0.67 1.58
-4.01 -0.65 1.59
-4.09 -0.64 1.58
-4.15 -0.63 1.57
-4.45 -0.64 1.55
-5.29 -0.70 1.47
-4.84 -0.64 1.51
-5.00 -0.64 1.50
-4.95 -0.62 1.50
-4.91 -0.60 1.50
-4.61 -0.56 1.53
-5.14 -0.58 1.48
-4.98 -0.55 1.50
-5.27 -0.55 1.47
-5.35 -0.54 1.46
-5.43 -0.52 1.46
-5.68 -0.52 1.43
-5.57 -0.49 1.44
-5.47 -0.47 1.45
-5.66 -0.46 1.44
-5.46 -0.43 1.46
-5.49 -0.41 1.45
-5.51 -0.40 1.45
-6.23 -0.41 1.38
-5.55 -0.36 1.45
-6.12 -0.36 1.39
-5.68 -0.33 1.43
-5.79 -0.31 1.42
-5.67 -0.29 1.44
-5.88 -0.27 1.42
-6.03 -0.26 1.40
-6.15 -0.24 1.39
-6.34 -0.23 1.37
-6.32 -0.20 1.38
-9.62 -0.25 1.08
-6.26 -0.16 1.38
-9.21 -0.14 1.36
-9.39 -0.12 1.34
-9.34 -0.10 1.35
-9.34 -0.08 1.35
-9.36 -0.03 1.34
-9.32 -0.01 1.35
-6.21 0.01 1.34
-6.46 0.03 1.31
-6.64 0.05 1.30
-7.95 0.08 1.17
-6.98 0.10 1.26
-7.91 0.13 1.17
-7.96 0.16 1.17
-7.89 0.18 1.17
-7.71 0.20 1.19
-7.74 0.23 1.19
-7.89 0.26 1.17
-7.57 0.21 1.46
-7.63 0.23 1.45
-12.74 0.42 0.97
-9.50 0.33 1.28
-7.59 0.40 1.46
-12.57 0.74 0.99
-12.51 0.77 0.99
-12.52 0.83 0.99
-12.33 0.93 1.01
-12.24 0.96 1.01
-12.59 1.01 0.98
-12.55 1.04 0.98
-12.95 1.11 0.94
-12.95 1.14 0.95
-12.97 1.17 0.94
-12.12 1.12 1.02
-12.55 1.38 0.98
-11.80 1.50 1.05
-11.71 1.60 1.05
-9.12 1.39 1.30
-9.57 1.48 1.25
-9.63 1.51 1.25
-8.84 1.41 1.32
-9.18 1.49 1.29
-9.11 1.50 1.30
-9.23 1.54 1.28
-8.69 1.50 1.34
-3.11 0.98 1.86
-2.90 1.59 1.85
-8.73 -1.25 1.09
-8.41 -1.19 1.12
-4.23 -0.72 1.53
-4.04 -0.68 1.55
-8.19 -1.09 1.15
-4.37 -0.68 1.52
-8.05 -1.02 1.16
-8.02 -0.99 1.16
-4.00 -0.60 1.55
-8.01 -0.94 1.17
-4.18 -0.58 1.54
-7.61 -0.86 1.20
-13.41 -1.31 0.64
-4.31 -0.55 1.52
-5.25 -0.60 1.43
-8.23 -0.81 1.14
-7.97 -0.76 1.17
-5.16 -0.54 1.44
-8.25 -0.73 1.14
-5.20 -0.51 1.44
-5.45 -0.51 1.41
-5.77 -0.51 1.38
-5.67 -0.48 1.39
-5.48 -0.45 1.41
-5.84 -0.45 1.38
-5.42 -0.41 1.42
-5.57 -0.40 1.40
-5.78 -0.39 1.38
-5.75 -0.37 1.38
-5.85 -0.35 1.37
-6.07 -0.34 1.35
-6.10 -0.32 1.35
-5.88 -0.29 1.37
-0.45 -0.10 1.89
-6.20 -0.26 1.34
-6.00 -0.24 1.36
-11.31 -0.35 0.85
-3.74 -0.14 1.58
-11.38 -0.29 0.84
-6.28 -0.16 1.33
-6.20 -0.14 1.34
-11.07 -0.18 0.87
-6.49 -0.10 1.31
-11.27 -0.12 0.85
-6.54 -0.06 1.31
-6.34 -0.04 1.33
-7.99 -0.02 1.17
-12.38 0.02 0.93
-11.73 0.05 0.99
-7.22 0.05 1.45
-7.44 0.07 1.42
-7.43 0.08 1.42
-7.51 0.10 1.42
-7.54 0.12 1.41
-9.45 0.17 1.22
-7.41 0.15 1.43
-7.59 0.18 1.41
-9.20 0.24 1.25
-8.42 0.24 1.32
-7.63 0.23 1.40
-7.66 0.25 1.40
-9.38 0.33 1.23
-9.31 0.35 1.23
-7.39 0.30 1.43
-7.29 0.33 1.44
-9.22 0.44 1.24
-9.16 0.46 1.25
-12.19 0.63 0.94
-12.30 0.67 0.93
-7.58 0.43 1.41
-7.80 0.46 1.38
-7.51 0.47 1.41
-7.54 0.49 1.41
-9.34 0.69 1.23
-7.37 0.56 1.42
-7.88 0.62 1.37
-13.16 1.06 0.84
-7.59 0.64 1.40
-7.50 0.65 1.41
-13.22 1.16 0.83
-8.08 0.74 1.35
-11.85 1.62 0.96
-9.14 1.37 1.23
-9.58 1.46 1.19
-8.98 1.41 1.25
-9.08 1.50 1.24
-8.59 1.44 1.29
-8.73 1.48 1.27
-8.71 1.50 1.27
-6.56 1.16 1.49
-8.70 1.55 1.27
-8.85 1.59 1.26
-8.82 1.61 1.26
-8.71 1.61 1.27
-8.76 1.69 1.26
-3.95 -0.97 1.51
-3.96 -0.96 1.51
-3.90 -0.93 1.52
-3.47 -0.84 1.56
-4.18 -0.83 1.49
-4.21 -0.78 1.49
-4.11 -0.75 1.50
-3.95 -0.72 1.51
-3.98 -0.71 1.51
-3.98 -0.69 1.51
-4.23 -0.70 1.49
-4.36 -0.70 1.47
-4.16 -0.67 1.49
-4.14 -0.65 1.50
-3.94 -0.61 1.52
-4.09 -0.61 1.50
-4.04 -0.59 1.51
-4.35 -0.60 1.47
-4.79 -0.62 1.43
-4.13 -0.55 1.50
-5.12 -0.61 1.39
-5.24 -0.61 1.38
-5.61 -0.61 1.34
-5.20 -0.57 1.38
-5.58 -0.57 1.35
-5.52 -0.55 1.35
-5.82 -0.55 1.32
-5.30 -0.50 1.38
-5.63 -0.50 1.34
-5.48 -0.47 1.36
-5.45 -0.45 1.36
-5.43 -0.43 1.36
-5.57 -0.42 1.35
-5.66 -0.40 1.34
-5.96 -0.40 1.31
-5.79 -0.37 1.33
-5.92 -0.36 1.31
-5.91 -0.33 1.31
-6.05 -0.32 1.30
-7.26 -0.25 1.44
-12.05 -0.39 0.96
-12.47 -0.37 0.92
-11.45 -0.31 1.02
-7.17 -0.18 1.45
-9.23 -0.21 1.25
-9.23 -0.19 1.25
-7.43 -0.13 1.43
-7.17 -0.11 1.45
-11.10 -0.14 1.06
-9.44 -0.10 1.22
-6.70 -0.05 1.50
-12.05 -0.07 0.96
-9.20 -0.03 1.25
-7.35 -0.01 1.43
-8.98 0.04 0.92
-6.50 0.05 1.19
-6.81 0.07 1.16
-7.82 0.11 1.05
-7.50 0.13 1.08
-7.57 0.15 1.07
-7.27 0.17 1.11
-7.38 0.20 1.10
-7.45 0.22 1.09
-7.53 0.25 1.08
-7.22 0.26 1.11
-7.46 0.29 1.08
-7.81 0.33 1.05
-7.47 0.34 1.08
-7.47 0.37 1.08
-7.46 0.39 1.08
-7.47 0.41 1.08
-8.00 0.46 1.03
-7.48 0.46 1.08
-8.16 0.48 1.30
-14.16 1.11 0.65
-8.70 1.69 1.21
-9.92 -1.35 0.82
-4.58 -0.72 1.41
-15.01 -1.69 0.26
-7.91 -0.98 1.04
-7.92 -0.93 1.04
-8.25 -0.94 1.00
-7.95 -0.89 1.04
-7.86 -0.85 1.04
-9.12 -0.88 0.91
-8.89 -0.83 0.93
-9.25 -0.83 0.89
-9.36 -0.81 0.88
-9.59 -0.79 0.86
-9.43 -0.76 0.87
-9.01 -0.70 0.92
-9.06 -0.68 0.91
-9.20 -0.66 0.90
-9.09 -0.62 0.91
-9.38 -0.61 0.88
-9.58 -0.59 0.86
-5.92 -0.39 1.26
-5.89 -0.37 1.26
-10.30 -0.54 0.78
-10.45 -0.51 0.76
-10.87 -0.50 0.72
-5.98 -0.30 1.25
-10.99 -0.44 0.70
-8.96 -0.34 0.92
-9.84 -0.34 0.83
-9.70 -0.31 0.84
-9.84 -0.28 0.83
-8.50 -0.23 0.97
-8.71 -0.20 0.95
-8.34 -0.17 0.99
-11.06 -0.18 0.69
-8.81 -0.13 0.94
-10.23 -0.11 0.79
-6.46 -0.06 1.20
-10.75 -0.05 0.73
-9.91 -0.02 0.82
-7.27 0.01 1.34
-8.85 0.04 1.16
-8.98 0.06 1.15
-9.05 0.08 1.14
-8.92 0.10 1.15
-8.88 0.12 1.16
-8.79 0.14 1.17
-8.91 0.16 1.15
-8.48 0.18 1.20
-7.54 0.18 1.31
-8.74 0.22 1.17
-8.62 0.24 1.19
-9.26 0.28 1.11
-9.20 0.30 1.12
-8.98 0.32 1.14
-3.56 0.14 1.76
-9.06 0.36 1.13
-9.36 0.40 1.10
-8.68 0.39 1.18
-13.02 0.61 0.68
-8.88 0.44 1.16
-8.47 0.44 1.20
-14.62 0.79 0.50
-14.49 0.82 0.51
-14.52 0.86 0.51
-7.70 0.52 1.29
-7.80 0.54 1.28
-8.12 0.58 1.24
-8.47 0.63 1.20
-14.70 1.11 0.49
-9.00 0.71 1.14
-8.52 0.69 1.19
-8.66 0.85 1.17
-9.05 0.91 1.13
-8.97 0.93 1.14
-9.83 1.40 1.03
-9.12 1.41 1.11
-8.95 1.43 1.13
-8.76 1.47 1.15
-9.00 1.53 1.12
-8.78 1.54 1.14
-4.56 0.89 1.63
-1.81 -1.01 1.67
-3.91 -1.04 1.43
-3.95 -0.97 1.42
-3.88 -0.94 1.43
-3.83 -0.92 1.44
-3.83 -0.91 1.44
-3.86 -0.90 1.44
-4.04 -0.91 1.42
-3.95 -0.88 1.43
-3.97 -0.87 1.42
-4.00 -0.85 1.42
-4.04 -0.84 1.42
-4.11 -0.84 1.41
-4.04 -0.81 1.42
-5.34 -0.95 1.26
-4.26 -0.81 1.39
-4.10 -0.77 1.41
-4.73 -0.83 1.34
-4.46 -0.78 1.37
-4.23 -0.74 1.39
-5.14 -0.82 1.29
-4.26 -0.71 1.39
-4.42 -0.71 1.37
-4.38 -0.69 1.38
-4.70 -0.70 1.34
-4.40 -0.66 1.37
-4.75 -0.67 1.33
-4.30 -0.61 1.39
-5.15 -0.67 1.29
-5.17 -0.66 1.28
-9.63 -1.00 0.77
-4.80 -0.59 1.33
-5.06 -0.59 1.30
-5.23 -0.59 1.28
-5.25 -0.57 1.28
-5.23 -0.55 1.28
-5.32 -0.54 1.27
-5.30 -0.52 1.27
-5.43 -0.51 1.25
-5.26 -0.48 1.27
-5.42 -0.47 1.26
-5.20 -0.44 1.28
-6.79 -0.37 1.40
-7.13 -0.37 1.36
-7.27 -0.36 1.34
-6.92 -0.32 1.38
-7.22 -0.32 1.35
-7.02 -0.29 1.37
-9.97 -0.39 1.04
-10.76 -0.40 0.95
-10.02 -0.35 1.03
-9.16 -0.29 1.13
-7.32 -0.22 1.34
-10.73 -0.29 0.95
-9.11 -0.23 1.13
-7.58 -0.17 1.31
-7.14 -0.14 1.36
-7.02 -0.12 1.37
-9.49 -0.15 1.09
-8.93 -0.12 1.15
-9.05 -0.10 1.14
-9.09 -0.07 1.13
-8.91 -0.05 1.16
-9.15 -0.03 1.13
-7.10 -0.01 1.36
-8.68 0.01 0.80
-8.63 0.04 0.81
-10.88 0.07 0.86
-11.20 0.10 0.82
-8.67 0.10 1.12
-9.16 0.12 1.07
-9.97 0.16 0.97
-8.59 0.16 1.13
-8.18 0.17 1.18
-8.86 0.21 1.10
-8.52 0.22 1.14
-8.48 0.24 1.15
-8.43 0.26 1.15
-8.88 0.29 1.10
-8.64 0.30 1.13
-8.66 0.33 1.12
-8.32 0.33 1.17
-8.83 0.37 1.10
-8.51 0.38 1.14
-8.46 0.40 1.15
-8.55 0.42 1.13
-8.82 0.46 1.10
-8.65 0.47 1.12
-8.38 0.48 1.16
-7.79 0.46 1.23
-8.37 0.52 1.16
-8.33 0.53 1.16
-8.39 0.56 1.15
-8.33 0.57 1.16
-8.39 0.60 1.15
-5.32 0.40 1.52
-8.53 0.65 1.13
-8.36 0.66 1.16
-8.52 0.69 1.14
-8.65 0.72 1.12
-8.87 0.76 1.09
-9.11 0.80 1.06
-8.41 0.80 1.15
-12.42 1.27 0.66
-9.29 1.37 1.03
-9.09 1.45 1.05
-8.57 1.39 1.11
-8.64 1.44 1.11
-8.72 1.50 1.09
-3.76 -1.00 1.41
-3.99 -0.99 1.38
-3.90 -0.96 1.39
-3.87 -0.94 1.39
-3.95 -0.94 1.38
-3.89 -0.91 1.39
-3.86 -0.89 1.39
-4.02 -0.90 1.38
-4.02 -0.88 1.38
-4.13 -0.88 1.36
-5.39 -1.03 1.21
-3.94 -0.83 1.39
-5.59 -1.02 1.18
-5.53 -0.99 1.19
-4.15 -0.81 1.36
-4.27 -0.80 1.35
-4.63 -0.83 1.30
-4.48 -0.80 1.32
-4.48 -0.78 1.32
-4.34 -0.75 1.34
-4.55 -0.75 1.31
-4.15 -0.70 1.36
-4.40 -0.70 1.33
-4.29 -0.68 1.34
-4.44 -0.67 1.33
-5.04 -0.71 1.25
-5.21 -0.71 1.23
-4.75 -0.65 1.29
-4.32 -0.60 1.34
-5.69 -0.70 1.17
-4.80 -0.61 1.28
-5.61 -0.65 1.18
-5.26 -0.60 1.22
-4.91 -0.56 1.27
-5.77 -0.60 1.16
-5.56 -0.57 1.19
-5.27 -0.53 1.22
-5.36 -0.52 1.21
-4.95 -0.47 1.26
-5.18 -0.47 1.23
-5.21 -0.46 1.23
-5.23 -0.44 1.23
-5.79 -0.45 1.16
-5.61 -0.42 1.18
-5.51 -0.40 1.19
-5.82 -0.39 1.16
-5.87 -0.37 1.15
-5.93 -0.36 1.14
-8.79 -0.45 0.79
-8.83 -0.42 0.79
-9.05 -0.40 0.76
-8.92 -0.37 0.77
-8.62 -0.33 0.81
-8.77 -0.31 0.79
-8.41 -0.28 0.84
-8.34 -0.25 0.84
-8.13 -0.22 0.87
-8.12 -0.19 0.87
-6.02 -0.14 1.13
-8.38 -0.15 0.84
-8.12 -0.12 0.87
-8.03 -0.09 0.88
-8.18 -0.07 0.86
-8.27 -0.04 0.85
-8.50 -0.02 0.82
-9.41 0.01 0.97
-9.14 0.04 1.00
-8.92 0.06 1.03
-8.66 0.08 1.06
-8.50 0.09 1.08
-8.51 0.12 1.08
-8.61 0.14 1.07
-8.50 0.16 1.08
-8.58 0.18 1.07
-8.27 0.19 1.11
-8.27 0.21 1.11
-7.92 0.22 1.16
-7.90 0.24 1.16
-7.92 0.26 1.16
-8.26 0.29 1.11
-8.48 0.32 1.08
-8.41 0.34 1.09
-8.25 0.35 1.11
-8.11 0.36 1.13
-7.90 0.37 1.16
-8.05 0.40 1.14
-8.12 0.42 1.13
-8.41 0.46 1.09
-8.27 0.47 1.11
-8.29 0.49 1.10
-8.20 0.51 1.12
-8.38 0.54 1.09
-8.40 0.56 1.09
-8.25 0.57 1.11
-8.70 0.62 1.05
-8.34 0.62 1.10
-8.39 0.64 1.09
-6.51 0.52 1.33
-8.38 0.68 1.09
-8.46 0.71 1.08
-8.27 0.71 1.10
-8.31 0.74 1.10
-8.02 0.73 1.13
-13.51 1.25 0.43
-13.88 1.32 0.38
-8.29 0.88 1.10
-12.14 1.30 0.60
-12.14 1.33 0.60
-11.80 1.33 0.65
-12.28 1.44 0.58
-12.07 1.44 0.61
-12.04 1.47 0.61
-12.02 1.50 0.61
-12.02 1.53 0.61
-9.02 1.33 0.99
-9.52 1.43 0.93
-9.07 1.38 0.99
-8.47 1.31 1.06
-8.72 1.37 1.03
-9.81 1.57 0.89
-8.66 1.41 1.04
-8.70 1.46 1.03
-9.20 1.56 0.97
-8.73 1.59 1.02
-8.46 1.63 1.06
-3.91 -1.10 1.34
-3.87 -1.08 1.34
-4.00 -1.07 1.33
-3.91 -1.02 1.34
-3.76 -0.99 1.36
-3.75 -0.97 1.36
-3.87 -0.97 1.35
-3.84 -0.95 1.35
-3.79 -0.93 1.36
-3.77 -0.91 1.36
-3.88 -0.91 1.35
-3.81 -0.89 1.35
-3.98 -0.89 1.33
-3.89 -0.87 1.34
-4.07 -0.88 1.32
-3.98 -0.85 1.33
-3.90 -0.82 1.34
-5.73 -1.04 1.10
-5.48 -0.99 1.14
-5.39 -0.96 1.15
-5.28 -0.92 1.16
-5.30 -0.91 1.16
-5.43 -0.90 1.14
-4.16 -0.74 1.31
-4.27 -0.74 1.29
-4.58 -0.76 1.25
-4.52 -0.73 1.26
-4.54 -0.72 1.26
-5.25 -0.77 1.17
-5.11 -0.74 1.19
-4.28 -0.64 1.29
-4.48 -0.65 1.27
-5.19 -0.69 1.18
-4.79 -0.64 1.23
-4.59 -0.60 1.25
-4.55 -0.58 1.26
-4.68 -0.58 1.24
-4.72 -0.56 1.24
-4.82 -0.55 1.22
-4.85 -0.54 1.22
-4.86 -0.52 1.22
-4.91 -0.51 1.21
-5.09 -0.50 1.19
-4.89 -0.47 1.21
-4.94 -0.46 1.21
-5.39 -0.46 1.15
-5.14 -0.43 1.18
-5.02 -0.41 1.20
-5.71 -0.42 1.11
-9.34 -0.58 0.64
-6.65 -0.43 0.99
-6.14 -0.39 1.05
-6.13 -0.37 1.05
-9.20 -0.46 0.65
-6.52 -0.34 1.00
-6.02 -0.30 1.07
-8.95 -0.37 0.69
-5.89 -0.25 1.08
-5.96 -0.24 1.08
-5.95 -0.22 1.08
-6.02 -0.20 1.07
-6.02 -0.18 1.07
-8.42 -0.20 0.75
-8.19 -0.17 0.78
-8.82 -0.11 1.04
-9.06 -0.09 1.01
-9.69 -0.08 0.93
-9.95 -0.06 0.90
-10.18 -0.03 0.87
-9.66 -0.01 0.94
-8.23 0.01 0.70
-7.99 0.03 0.73
-7.88 0.06 0.75
-8.16 0.08 0.71
-8.04 0.11 0.73
-7.30 0.12 0.83
-6.57 0.14 0.93
-6.50 0.16 0.94
-6.49 0.18 0.94
-6.87 0.21 0.89
-6.47 0.22 0.94
-8.31 0.23 1.05
-8.31 0.25 1.05
-8.16 0.27 1.07
-8.29 0.29 1.05
-3.87 0.15 1.65
-8.02 0.32 1.09
-8.19 0.35 1.06
-7.87 0.35 1.10
-8.27 0.39 1.05
-8.38 0.42 1.03
-8.31 0.43 1.04
-8.27 0.45 1.05
-8.52 0.48 1.01
-8.13 0.48 1.07
-8.02 0.50 1.08
-8.23 0.53 1.05
-8.20 0.55 1.06
-8.53 0.59 1.01
-8.52 0.61 1.01
-6.45 0.48 1.29
-8.68 0.66 0.99
-9.01 0.71 0.95
-8.69 0.70 0.99
-8.31 0.69 1.04
-6.74 0.58 1.25
-8.22 0.73 1.05
-13.24 1.19 0.37
-12.17 1.19 0.51
-11.98 1.20 0.54
-12.85 1.32 0.42
-11.42 1.20 0.61
-12.29 1.41 0.49
-12.34 1.44 0.49
-12.21 1.46 0.50
-6.44 0.79 1.29
-11.61 1.44 0.58
-12.07 1.53 0.52
-12.16 1.57 0.51
-11.98 1.61 0.53
-8.92 1.25 0.94
-8.66 1.25 0.98
-9.01 1.33 0.93
-8.73 1.31 0.97
-3.79 0.59 1.64
-9.81 1.51 0.82
-9.03 1.42 0.93
-10.26 1.63 0.76
-9.38 1.52 0.88
-9.59 1.58 0.85
-8.64 1.44 0.98
-8.42 1.47 1.00
-8.52 1.68 0.98
-8.35 1.69 1.01
-3.64 -1.07 1.33
-3.85 -1.09 1.30
-3.72 -1.04 1.32
-3.84 -1.04 1.30
-3.68 -1.00 1.33
-3.81 -1.01 1.31
-3.64 -0.96 1.33
-3.69 -0.96 1.33
-3.62 -0.93 1.33
-3.73 -0.93 1.32
-3.85 -0.94 1.30
-3.81 -0.92 1.31
-3.83 -0.90 1.31
-4.15 -0.93 1.26
-4.02 -0.90 1.28
-3.81 -0.86 1.31
-4.02 -0.87 1.28
-3.96 -0.84 1.29
-3.88 -0.82 1.30
-4.04 -0.82 1.28
-4.25 -0.83 1.25
-4.16 -0.81 1.26
-4.09 -0.78 1.27
-3.98 -0.75 1.29
-4.26 -0.77 1.25
-4.03 -0.73 1.28
-4.49 -0.76 1.22
-4.57 -0.75 1.21
-5.08 -0.79 1.14
-5.44 -0.81 1.09
-5.07 -0.75 1.14
-4.59 -0.69 1.20
-5.02 -0.71 1.14
-5.03 -0.69 1.14
-4.77 -0.65 1.18
-4.82 -0.64 1.17
-4.82 -0.62 1.17
-4.84 -0.61 1.17
-4.98 -0.60 1.15
-5.88 -0.65 1.03
-5.27 -0.59 1.11
-5.09 -0.56 1.14
-5.27 -0.55 1.11
-5.40 -0.54 1.09
-5.18 -0.51 1.12
-5.06 -0.48 1.14
-5.20 -0.47 1.12
-5.24 -0.46 1.12
-5.05 -0.43 1.14
-6.53 -0.49 0.94
-9.93 -0.64 0.47
-6.30 -0.43 0.97
-6.16 -0.41 0.99
-6.41 -0.40 0.95
-6.49 -0.38 0.94
-6.18 -0.35 0.98
-5.47 -0.30 1.08
-5.29 -0.27 1.11
-5.86 -0.27 1.03
-5.37 -0.24 1.10
-5.55 -0.22 1.07
-9.60 -0.31 0.51
-8.41 -0.25 0.68
-8.37 -0.22 0.68
-8.59 -0.20 0.65
-8.19 -0.17 0.71
-8.02 -0.14 0.73
-8.12 -0.12 0.72
-8.02 -0.09 0.73
-8.22 -0.07 0.70
-8.13 -0.04 0.72
-7.93 -0.02 0.74
-9.55 0.01 0.80
-9.41 0.04 0.83
-9.50 0.06 0.81
-9.78 0.08 0.77
-9.76 0.11 0.77
-9.84 0.13 0.76
-8.11 0.13 1.01
-7.76 0.14 1.06
-7.98 0.17 1.03
-9.75 0.22 0.77
-8.45 0.22 0.96
-8.51 0.24 0.95
-8.37 0.25 0.97
-8.28 0.27 0.98
-8.12 0.29 1.01
-8.22 0.31 0.99
-4.74 0.19 1.49
-8.12 0.34 1.01
-8.08 0.36 1.01
-7.99 0.38 1.02
-7.95 0.40 1.03
-8.05 0.42 1.01
-8.08 0.44 1.01
-8.01 0.46 1.02
-8.08 0.48 1.01
-4.73 0.30 1.49
-8.16 0.52 1.00
-8.41 0.56 0.96
-8.49 0.59 0.95
-8.43 0.60 0.96
-8.35 0.62 0.97
-8.43 0.64 0.96
-8.49 0.67 0.95
-8.36 0.68 0.97
-8.88 0.74 0.89
-7.93 0.68 1.03
-7.24 0.64 1.12
-6.89 0.63 1.17
-7.00 0.66 1.16
-7.15 0.69 1.14
-7.10 0.70 1.14
-12.09 1.24 0.43
-9.73 1.02 0.77
-7.39 0.84 1.10
-6.19 0.72 1.27
-6.17 0.73 1.27
-11.44 1.40 0.51
-11.70 1.49 0.48
-11.84 1.56 0.46
-7.84 1.06 1.03
-8.43 1.18 0.94
-8.39 1.20 0.95
-8.41 1.22 0.95
-8.69 1.30 0.90
-8.87 1.35 0.88
-8.76 1.36 0.89
-8.67 1.37 0.90
-8.62 1.38 0.91
-8.90 1.45 0.87
-8.72 1.44 0.90
-8.81 1.48 0.88
-8.79 1.49 0.88
-9.73 1.67 0.75
-8.73 1.53 0.89
-8.40 1.49 0.94
-8.48 1.57 0.92
-8.66 1.67 0.90
-8.36 1.68 0.94
-6.01 1.48 1.27
-3.72 -1.09 1.27
-3.82 -1.09 1.25
-3.84 -1.08 1.25
-3.72 -1.04 1.27
-3.82 -1.04 1.26
-3.78 -1.02 1.26
-3.75 -1.00 1.27
-3.86 -1.00 1.25
-3.76 -0.97 1.27
-3.76 -0.96 1.27
-3.79 -0.95 1.26
-3.79 -0.93 1.26
-3.99 -0.94 1.23
-3.80 -0.90 1.26
-3.85 -0.89 1.25
-3.78 -0.87 1.26
-3.92 -0.87 1.24
-4.08 -0.88 1.22
-3.91 -0.84 1.24
-3.86 -0.82 1.25
-3.96 -0.82 1.24
-4.11 -0.82 1.22
-4.13 -0.80 1.21
-4.01 -0.78 1.23
-3.98 -0.76 1.23
-4.38 -0.79 1.18
-4.09 -0.74 1.22
-3.56 -0.66 1.30
-3.97 -0.69 1.24
-3.99 -0.68 1.23
-5.32 -0.80 1.04
-5.32 -0.78 1.04
-4.79 -0.71 1.12
-4.89 -0.70 1.10
-5.04 -0.70 1.08
-4.87 -0.66 1.11
-4.59 -0.62 1.15
-4.44 -0.59 1.17
-4.45 -0.58 1.17
-4.62 -0.57 1.14
-5.30 -0.61 1.04
-4.77 -0.55 1.12
-5.16 -0.56 1.06
-5.05 -0.54 1.08
-4.97 -0.51 1.09
-5.06 -0.50 1.08
-4.93 -0.47 1.10
-4.68 -0.44 1.13
-4.91 -0.44 1.10
-4.96 -0.42 1.09
-6.04 -0.46 0.94
-6.52 -0.47 0.87
-6.46 -0.44 0.88
-4.57 -0.33 1.15
-6.40 -0.40 0.88
-6.27 -0.37 0.90
-6.14 -0.34 0.92
-5.79 -0.31 0.97
-6.19 -0.31 0.92
-7.08 -0.23 1.16
-6.89 -0.21 1.19
-6.95 -0.19 1.18
-6.97 -0.17 1.18
-7.08 -0.16 1.16
-9.30 -0.19 0.84
-7.05 -0.12 1.16
-7.13 -0.11 1.15
-6.74 -0.09 1.21
-7.07 -0.07 1.16
-9.27 -0.08 0.85
-9.56 -0.05 0.80
-9.49 -0.03 0.81
-9.51 -0.01 0.81
-7.99 0.01 0.57
-6.93 0.03 0.74
-6.65 0.05 0.78
-5.95 0.07 0.89
-7.10 0.10 0.71
-6.59 0.12 0.79
-6.34 0.13 0.83
-6.81 0.16 0.75
-7.00 0.19 0.72
-6.74 0.21 0.76
-6.55 0.22 0.79
-6.67 0.25 0.77
-6.51 0.26 0.80
-7.36 0.31 0.67
-7.20 0.33 0.69
-7.20 0.35 0.69
-7.60 0.39 0.63
-7.00 0.39 0.72
-7.49 0.44 0.65
-8.07 0.38 0.95
-7.93 0.39 0.97
-7.98 0.42 0.97
-8.06 0.44 0.95
-8.27 0.47 0.92
-8.23 0.51 0.93
-8.23 0.53 0.93
-8.34 0.55 0.91
-8.22 0.61 0.93
-8.68 0.66 0.86
-10.04 0.88 0.65
-11.41 1.25 0.44
-11.48 1.29 0.42
-11.44 1.39 0.43
-11.43 1.45 0.43
-11.39 1.53 0.43
-11.46 1.62 0.42
-3.36 1.12 1.62
-7.12 -1.37 0.70
-7.14 -1.33 0.70
-4.34 -0.60 1.13
-4.17 -0.52 1.16
-4.64 -0.47 1.09
-9.48 -0.73 0.35
-5.36 -0.44 0.98
-9.36 -0.53 0.37
-9.14 -0.49 0.40
-9.56 -0.45 0.34
-9.74 -0.43 0.31
-9.11 -0.38 0.41
-9.27 -0.35 0.38
-9.12 -0.32 0.40
-9.33 -0.30 0.37
-9.45 -0.28 0.35
-9.57 -0.25 0.33
-8.83 -0.18 0.45
-8.16 -0.12 0.55
-6.27 -0.08 0.84
-8.20 -0.07 0.54
-8.05 -0.04 0.56
-7.52 -0.02 0.65
-9.43 0.01 0.67
-9.45 0.04 0.67
-9.55 0.06 0.65
-11.16 0.09 0.40
-9.54 0.10 0.66
-9.93 0.13 0.59
-9.72 0.15 0.63
-10.38 0.19 0.52
-9.63 0.20 0.64
-4.75 0.11 1.41
-7.93 0.20 0.91
-8.25 0.23 0.86
-7.66 0.23 0.95
-7.98 0.26 0.90
-7.93 0.28 0.91
-7.66 0.29 0.95
-7.61 0.31 0.96
-7.81 0.33 0.93
-7.74 0.35 0.94
-7.84 0.37 0.92
-7.93 0.39 0.91
-7.98 0.42 0.90
-7.90 0.43 0.91
-8.09 0.46 0.88
-8.00 0.48 0.89
-8.16 0.51 0.87
-8.23 0.53 0.86
-8.25 0.55 0.85
-8.12 0.56 0.87
-8.13 0.58 0.87
-8.55 0.63 0.80
-8.16 0.62 0.86
-7.96 0.63 0.90
-7.98 0.65 0.89
-7.87 0.66 0.91
-8.86 0.76 0.75
-8.31 0.74 0.84
-8.97 0.82 0.73
-7.83 0.73 0.91
-11.26 1.07 0.37
-11.31 1.11 0.36
-11.21 1.12 0.38
-11.23 1.15 0.37
-11.05 1.16 0.40
-11.14 1.20 0.38
-11.22 1.23 0.37
-11.29 1.27 0.36
-7.62 0.88 0.94
-11.23 1.32 0.37
-11.39 1.37 0.34
-11.34 1.39 0.35
-11.23 1.40 0.36
-10.99 1.40 0.40
-4.09 0.55 1.50
-4.27 0.58 1.47
-8.35 1.13 0.82
-10.84 1.49 0.42
-10.94 1.53 0.41
-11.27 1.60 0.35
-4.46 0.66 1.44
-4.43 0.67 1.45
-11.27 1.68 0.35
-4.14 0.69 1.49
-9.80 1.64 0.58
-6.70 -1.54 0.69
-3.64 -1.01 1.18
-6.76 -1.50 0.68
-6.78 -1.48 0.68
-6.66 -1.44 0.70
-6.71 -1.43 0.69
-6.81 -1.42 0.67
-7.00 -1.43 0.64
-6.74 -1.37 0.68
-3.60 -0.89 1.19
-3.53 -0.87 1.20
-3.60 -0.86 1.19
-3.62 -0.85 1.19
-6.64 -1.24 0.70
-3.87 -0.85 1.15
-7.03 -1.25 0.64
-3.80 -0.81 1.16
-3.59 -0.77 1.20
-5.93 -1.04 0.82
-6.11 -1.05 0.79
-3.54 -0.72 1.20
-3.68 -0.72 1.18
-3.84 -0.73 1.16
-3.83 -0.71 1.16
-3.57 -0.67 1.20
-4.02 -0.70 1.13
-3.87 -0.67 1.15
-4.08 -0.67 1.12
-4.80 -0.73 1.00
-5.07 -0.74 0.96
-4.91 -0.71 0.98
-5.13 -0.71 0.95
-4.92 -0.67 0.98
-4.80 -0.64 1.00
-5.11 -0.65 0.95
-4.92 -0.62 0.98
-4.96 -0.60 0.98
-4.91 -0.58 0.98
-5.14 -0.58 0.95
-5.07 -0.56 0.96
-4.99 -0.53 0.97
-5.04 -0.52 0.96
-4.94 -0.49 0.98
-5.02 -0.48 0.97
-4.41 -0.43 1.06
-4.35 -0.41 1.07
-4.37 -0.39 1.07
-6.96 -0.38 1.07
-7.06 -0.36 1.05
-6.46 -0.32 1.14
-6.69 -0.31 1.11
-6.60 -0.29 1.12
-6.57 -0.28 1.13
-6.55 -0.26 1.13
-6.45 -0.24 1.15
-6.51 -0.23 1.14
-6.88 -0.22 1.08
-6.84 -0.20 1.08
-6.82 -0.19 1.09
-6.75 -0.17 1.10
-9.45 -0.21 0.67
-9.48 -0.19 0.67
-9.38 -0.17 0.68
-9.56 -0.15 0.65
-9.65 -0.12 0.64
-9.34 -0.10 0.69
-11.19 -0.09 0.40
-11.41 -0.07 0.36
-12.17 -0.04 0.24
-9.32 -0.01 0.69
-6.72 0.01 0.62
-6.72 0.03 0.62
-6.89 0.05 0.59
-9.33 0.08 0.62
-9.43 0.10 0.60
-9.23 0.12 0.63
-8.81 0.14 0.70
-9.03 0.16 0.67
-9.07 0.19 0.66
-9.26 0.21 0.63
-8.99 0.23 0.67
-7.98 0.22 0.84
-7.84 0.24 0.86
-7.77 0.25 0.87
-7.77 0.27 0.87
-7.66 0.29 0.89
-7.62 0.30 0.90
-7.53 0.32 0.91
-7.53 0.34 0.91
-7.59 0.36 0.90
-7.54 0.38 0.91
-7.79 0.41 0.87
-7.79 0.42 0.87
-7.93 0.45 0.84
-7.96 0.47 0.84
-8.00 0.49 0.83
-7.98 0.51 0.83
-8.09 0.54 0.82
-7.96 0.55 0.84
-8.14 0.58 0.81
-8.08 0.60 0.82
-8.23 0.63 0.79
-5.40 0.43 1.26
-8.19 0.67 0.80
-8.48 0.71 0.75
-8.35 0.72 0.77
-8.52 0.75 0.74
-8.55 0.78 0.73
-5.36 0.50 1.27
-8.47 0.81 0.75
-8.48 0.83 0.74
-9.76 0.98 0.53
-5.23 0.54 1.29
-5.84 0.62 1.18
-4.68 0.51 1.38
-4.73 0.53 1.37
-6.09 0.69 1.14
-4.52 0.53 1.40
-4.22 0.51 1.45
-4.55 0.56 1.40
-10.51 1.28 0.40
-10.55 1.31 0.39
-4.25 0.55 1.45
-4.64 0.61 1.38
-4.86 0.65 1.34
-10.19 1.37 0.45
-4.80 0.67 1.35
-5.14 0.73 1.29
-4.76 0.69 1.36
-5.01 0.74 1.32
-4.66 0.70 1.38
-9.31 1.39 0.59
-5.09 0.79 1.30
-4.90 0.77 1.33
-5.38 0.86 1.25
-9.95 1.58 0.48
-9.87 1.60 0.49
-4.28 0.72 1.43
-4.09 0.70 1.47
-4.18 0.72 1.45
-4.23 0.75 1.44
-4.11 0.74 1.46
-4.51 0.82 1.39
-4.27 0.80 1.43
-6.62 -1.63 0.63
-6.38 -1.57 0.67
-6.59 -1.58 0.63
-3.57 -1.04 1.15
-6.64 -1.55 0.63
-6.64 -1.52 0.63
-6.77 -1.52 0.61
-3.53 -0.98 1.16
-6.73 -1.47 0.61
-6.67 -1.44 0.62
-6.58 -1.41 0.64
-3.67 -0.94 1.13
-3.79 -0.95 1.11
-3.38 -0.87 1.18
-6.28 -1.27 0.69
-3.55 -0.87 1.15
-3.64 -0.86 1.14
-3.63 -0.85 1.14
-3.70 -0.84 1.13
-3.56 -0.81 1.15
-3.71 -0.81 1.13
-3.83 -0.81 1.11
-6.35 -1.11 0.68
-4.02 -0.81 1.08
-3.82 -0.77 1.11
-3.80 -0.75 1.11
-3.60 -0.71 1.15
-3.41 -0.67 1.18
-3.56 -0.68 1.15
-3.66 -0.67 1.14
-3.71 -0.66 1.13
-4.12 -0.69 1.06
-4.58 -0.72 0.98
-4.25 -0.67 1.04
-5.20 -0.75 0.88
-5.20 -0.73 0.88
-4.67 -0.66 0.97
-4.88 -0.66 0.93
-5.07 -0.66 0.90
-5.14 -0.65 0.89
-4.88 -0.61 0.93
-5.17 -0.62 0.88
-4.58 -0.55 0.98
-4.70 -0.54 0.96
-4.81 -0.54 0.94
-5.21 -0.55 0.88
-5.29 -0.53 0.86
-5.50 -0.53 0.83
-5.62 -0.52 0.81
-3.96 -0.40 1.09
-5.59 -0.48 0.81
-5.55 -0.46 0.82
-4.05 -0.36 1.07
-4.17 -0.35 1.05
-3.99 -0.32 1.08
-5.97 -0.40 0.75
-3.77 -0.28 1.12
-3.90 -0.27 1.10
-6.13 -0.34 0.72
-5.91 -0.32 0.76
-6.12 -0.30 0.72
-6.34 -0.25 0.69
-6.29 -0.22 0.70
-1.30 -0.09 1.53
-6.12 -0.18 0.72
-6.04 -0.16 0.74
-5.93 -0.14 0.75
-6.12 -0.12 0.72
-6.27 -0.10 0.70
-6.02 -0.08 0.74
-6.07 -0.05 0.73
-6.45 -0.04 0.67
-6.51 -0.01 0.66
-8.77 0.01 0.64
-8.72 0.05 0.64
-9.04 0.08 0.59
-8.76 0.12 0.64
-8.95 0.14 0.60
-9.16 0.17 0.57
-9.30 0.19 0.54
-7.92 0.20 0.78
-7.91 0.22 0.78
-7.71 0.25 0.82
-7.59 0.27 0.84
-7.54 0.28 0.85
-7.42 0.30 0.87
-7.48 0.34 0.85
-7.51 0.37 0.85
-7.57 0.39 0.84
-7.57 0.41 0.84
-7.65 0.44 0.82
-7.65 0.45 0.82
-7.91 0.51 0.78
-8.02 0.54 0.76
-8.00 0.57 0.76
-8.09 0.60 0.74
-8.02 0.61 0.75
-8.05 0.63 0.75
-8.28 0.69 0.71
-8.36 0.72 0.69
-8.32 0.76 0.70
-8.42 0.79 0.68
-8.62 0.83 0.65
-8.39 0.82 0.69
-5.75 0.60 1.15
-9.56 1.01 0.48
-10.24 1.15 0.36
-10.14 1.17 0.37
-9.85 1.16 0.43
-6.00 0.74 1.10
-10.10 1.26 0.38
-9.90 1.29 0.41
-9.95 1.32 0.40
-5.54 0.76 1.18
-4.81 0.67 1.31
-4.74 0.69 1.32
-4.81 0.71 1.31
-9.36 1.40 0.50
-9.91 1.51 0.40
-10.04 1.55 0.38
-9.81 1.54 0.42
-5.43 0.89 1.19
-5.20 0.87 1.23
-9.96 1.69 0.39
-9.72 1.67 0.43
-9.67 1.69 0.44
-8.22 1.69 0.69
-8.04 1.69 0.72
-6.49 -1.63 0.57
-6.62 -1.63 0.55
-6.39 -1.55 0.59
-6.74 -1.59 0.53
-6.58 -1.54 0.56
-6.70 -1.54 0.54
-6.67 -1.51 0.54
-6.66 -1.49 0.55
-6.51 -1.44 0.57
-3.56 -0.95 1.10
-3.67 -0.96 1.08
-3.51 -0.92 1.11
-3.65 -0.92 1.08
-3.56 -0.90 1.10
-3.39 -0.86 1.13
-3.59 -0.87 1.10
-3.44 -0.83 1.12
-3.29 -0.80 1.15
-3.44 -0.81 1.12
-3.55 -0.81 1.10
-3.92 -0.84 1.04
-3.91 -0.82 1.04
-3.82 -0.80 1.06
-3.62 -0.76 1.09
-3.97 -0.79 1.03
-5.84 -0.99 0.70
-3.70 -0.72 1.08
-5.15 -0.87 0.82
-5.56 -0.90 0.75
-4.96 -0.82 0.85
-4.13 -0.71 1.00
-4.92 -0.78 0.86
-4.23 -0.69 0.98
-4.52 -0.70 0.93
-4.73 -0.70 0.90
-4.93 -0.71 0.86
-4.89 -0.68 0.87
-4.97 -0.67 0.85
-4.79 -0.64 0.89
-5.04 -0.64 0.84
-4.69 -0.60 0.90
-4.74 -0.58 0.89
-4.75 -0.57 0.89
-4.97 -0.57 0.85
-4.08 -0.48 1.01
-5.54 -0.57 0.75
-4.19 -0.46 0.99
-5.65 -0.54 0.73
-5.73 -0.53 0.72
-5.75 -0.51 0.72
-3.98 -0.38 1.03
-3.68 -0.35 1.08
-4.09 -0.36 1.01
-3.92 -0.33 1.04
-3.88 -0.32 1.05
-3.92 -0.30 1.04
-5.89 -0.38 0.69
-3.95 -0.27 1.03
-5.96 -0.34 0.68
-5.86 -0.31 0.70
-3.96 -0.23 1.03
-5.95 -0.28 0.68
-5.95 -0.26 0.68
-5.98 -0.24 0.68
-5.97 -0.22 0.68
-5.92 -0.20 0.68
-5.88 -0.17 0.69
-6.06 -0.16 0.66
-6.06 -0.14 0.66
-9.34 -0.12 0.54
-9.52 -0.10 0.50
-9.05 -0.05 0.59
-9.03 -0.03 0.59
-8.98 -0.01 0.60
-6.00 0.00 0.59
-6.13 0.03 0.57
-6.50 0.05 0.50
-6.41 0.07 0.52
-6.25 0.09 0.55
-6.16 0.11 0.57
-6.50 0.14 0.50
-6.49 0.16 0.50
-6.70 0.18 0.46
-6.81 0.21 0.44
-6.57 0.22 0.49
-7.46 0.21 0.80
-7.44 0.23 0.80
-7.34 0.24 0.82
-7.38 0.26 0.81
-7.45 0.28 0.80
-7.54 0.30 0.78
-7.45 0.32 0.80
-7.48 0.34 0.79
-7.46 0.35 0.79
-7.52 0.37 0.78
-7.63 0.40 0.76
-7.29 0.40 0.83
-7.69 0.44 0.75
-7.82 0.46 0.73
-7.68 0.47 0.75
-7.74 0.50 0.74
-7.72 0.51 0.74
-7.67 0.53 0.75
-7.78 0.56 0.73
-7.74 0.57 0.74
-7.75 0.59 0.73
-7.89 0.62 0.71
-7.97 0.65 0.69
-8.53 0.71 0.59
-5.43 0.47 1.16
-8.33 0.74 0.63
-8.36 0.76 0.62
-8.54 0.80 0.59
-8.40 0.80 0.61
-4.46 0.44 1.34
-8.27 0.83 0.64
-5.09 0.53 1.22
-5.12 0.55 1.21
-8.53 0.92 0.59
-8.30 0.92 0.63
-8.45 0.95 0.60
-5.59 0.65 1.13
-8.51 1.00 0.59
-5.37 0.65 1.17
-4.09 0.51 1.40
-4.46 0.57 1.33
-4.38 0.57 1.35
-4.76 0.63 1.28
-4.45 0.60 1.33
-4.50 0.62 1.33
-4.39 0.61 1.34
-4.37 0.62 1.35
-4.41 0.64 1.34
-4.38 0.64 1.34
-4.41 0.66 1.34
-4.33 0.66 1.35
-9.52 1.45 0.39
-4.63 0.73 1.30
-4.57 0.73 1.31
-4.88 0.79 1.25
-4.70 0.77 1.28
-9.59 1.62 0.37
-4.35 0.76 1.34
-4.49 0.80 1.32
-9.59 1.69 0.37
-4.41 0.81 1.33
-4.22 0.79 1.37
-3.63 0.71 1.48
-4.00 0.81 1.40
-3.87 0.98 1.42
-0.59 -0.60 1.60
-0.59 -0.59 1.60
-0.81 -0.62 1.56
-6.74 -1.68 0.45
-6.43 -1.60 0.51
-6.27 -1.53 0.54
-6.25 -1.50 0.54
-6.39 -1.48 0.52
-3.01 -0.91 1.15
-6.45 -1.45 0.50
-3.34 -0.92 1.09
-4.63 -1.10 0.85
-2.87 -0.81 1.18
-2.91 -0.80 1.17
-3.06 -0.81 1.14
-3.29 -0.81 1.10
-3.41 -0.82 1.08
-3.54 -0.82 1.05
-3.69 -0.82 1.03
-3.51 -0.79 1.06
-3.63 -0.79 1.04
-3.61 -0.77 1.04
-3.69 -0.76 1.03
-3.63 -0.74 1.04
-3.80 -0.75 1.01
-3.48 -0.70 1.07
-3.67 -0.70 1.03
-3.87 -0.71 0.99
-4.74 -0.79 0.83
-4.26 -0.72 0.92
-4.01 -0.68 0.97
-4.27 -0.69 0.92
-4.27 -0.67 0.92
-3.73 -0.61 1.02
-5.10 -0.72 0.77
-4.26 -0.62 0.92
-4.57 -0.64 0.86
-4.72 -0.63 0.84
-4.92 -0.63 0.80
-4.76 -0.60 0.83
-5.19 -0.62 0.75
-3.29 -0.45 1.10
-5.53 -0.61 0.69
-3.67 -0.45 1.03
-3.51 -0.43 1.06
-3.68 -0.42 1.03
-3.65 -0.41 1.04
-3.78 -0.40 1.01
-3.73 -0.38 1.02
-3.39 -0.35 1.08
-3.94 -0.37 0.98
-3.81 -0.34 1.00
-5.85 -0.43 0.63
-3.77 -0.31 1.01
-3.89 -0.30 0.99
-5.95 -0.38 0.61
-5.75 -0.35 0.64
-3.61 -0.25 1.04
-3.76 -0.24 1.01
-1.61 -0.15 1.41
-5.98 -0.28 0.60
-6.01 -0.26 0.60
-1.18 -0.11 1.49
-1.37 -0.10 1.46
-6.17 -0.20 0.57
-6.17 -0.18 0.57
-6.11 -0.16 0.58
-6.16 -0.14 0.57
-6.72 -0.12 0.46
-1.36 -0.04 1.46
-6.23 -0.08 0.55
-6.85 -0.06 0.44
-6.29 -0.04 0.54
-6.08 -0.01 0.58
-7.42 0.01 0.74
-7.79 0.03 0.67
-7.81 0.05 0.66
-7.35 0.06 0.75
-7.26 0.08 0.77
-7.37 0.10 0.75
-7.42 0.12 0.74
-7.29 0.13 0.76
-7.48 0.16 0.73
-7.44 0.17 0.73
-7.48 0.19 0.73
-7.48 0.21 0.73
-7.51 0.23 0.72
-7.40 0.24 0.74
-7.41 0.26 0.74
-7.45 0.28 0.73
-7.43 0.30 0.73
-7.46 0.32 0.73
-7.42 0.33 0.73
-7.43 0.35 0.73
-7.45 0.37 0.73
-7.47 0.39 0.72
-7.42 0.41 0.73
-7.72 0.44 0.67
-7.71 0.46 0.68
-7.70 0.48 0.68
-7.70 0.50 0.68
-7.44 0.50 0.73
-7.49 0.52 0.72
-7.48 0.54 0.72
-7.57 0.56 0.70
-7.68 0.59 0.68
-7.52 0.59 0.71
-6.07 0.50 0.99
-7.78 0.65 0.66
-7.80 0.67 0.65
-7.92 0.70 0.63
-8.06 0.73 0.60
-8.12 0.76 0.59
-8.34 0.80 0.55
-8.34 0.82 0.55
-8.39 0.84 0.54
-5.59 0.58 1.08
-8.26 0.87 0.56
-8.23 0.89 0.56
-8.29 0.92 0.55
-5.70 0.65 1.05
-8.45 0.98 0.52
-5.67 0.68 1.06
-8.42 1.01 0.52
-8.55 1.05 0.50
-8.74 1.10 0.46
-8.97 1.15 0.42
-4.74 0.63 1.24
-4.75 0.64 1.23
-4.89 0.67 1.20
-6.41 0.89 0.91
-9.12 1.28 0.38
-5.38 0.78 1.11
-9.08 1.32 0.39
-5.54 0.83 1.08
-5.03 0.77 1.17
-4.78 0.74 1.22
-5.01 0.79 1.18
-4.87 0.78 1.20
-5.38 0.87 1.10
-5.13 0.85 1.15
-5.29 0.88 1.12
-4.99 0.88 1.18
-4.73 0.84 1.23
-4.84 0.88 1.20
-4.92 0.90 1.19
-5.22 0.97 1.13
-8.22 1.69 0.54
-7.82 1.63 0.61
-7.84 1.67 0.61
-7.59 1.64 0.66
-6.12 1.62 0.93
-6.27 -1.64 0.45
-5.91 -1.55 0.53
-5.98 -1.54 0.51
-6.13 -1.55 0.48
-5.84 -1.48 0.54
-5.94 -1.47 0.52
-3.30 -1.00 1.04
-6.23 -1.48 0.47
-3.63 -1.03 0.98
-6.16 -1.43 0.48
-6.10 -1.40 0.49
-3.91 -1.03 0.92
-3.92 -1.01 0.92
-5.67 -1.27 0.58
-6.11 -1.31 0.49
-6.20 -1.31 0.48
-3.72 -0.92 0.96
-3.44 -0.87 1.02
-6.18 -1.24 0.48
-3.62 -0.86 0.98
-6.00 -1.17 0.52
-6.66 -1.24 0.39
-5.74 -1.08 0.57
-5.48 -1.03 0.62
-3.72 -0.79 0.96
-3.84 -0.79 0.94
-5.47 -0.97 0.62
-5.06 -0.90 0.70
-5.32 -0.91 0.65
-5.22 -0.88 0.67
-4.95 -0.83 0.72
-4.70 -0.79 0.77
-3.60 -0.66 0.99
-4.32 -0.71 0.85
-4.73 -0.74 0.77
-4.54 -0.70 0.80
-4.90 -0.72 0.74
-4.81 -0.70 0.75
-4.88 -0.68 0.74
-4.82 -0.66 0.75
-4.97 -0.66 0.72
-4.82 -0.63 0.75
-4.77 -0.61 0.76
-4.91 -0.60 0.73
-5.05 -0.59 0.71
-5.20 -0.58 0.68
-5.54 -0.59 0.61
-4.24 -0.48 0.86
-4.11 -0.46 0.89
-5.72 -0.54 0.58
-5.66 -0.52 0.59
-5.51 -0.49 0.62
-5.62 -0.48 0.60
-5.75 -0.47 0.57
-5.71 -0.45 0.58
-5.62 -0.42 0.60
-5.59 -0.40 0.60
-5.73 -0.39 0.57
-5.76 -0.37 0.57
-5.66 -0.35 0.59
-5.81 -0.33 0.56
-5.84 -0.31 0.55
-5.12 -0.15 1.18
-7.70 -0.19 0.69
-7.65 -0.17 0.70
-7.45 -0.15 0.73
-7.45 -0.13 0.73
-7.78 -0.12 0.67
-7.96 -0.10 0.64
-7.85 -0.08 0.66
-7.99 -0.07 0.63
-7.92 -0.04 0.64
-7.83 -0.03 0.66
-7.83 -0.01 0.66
-6.21 0.03 0.41
-1.04 0.03 1.46
-6.00 0.09 0.45
-4.36 0.13 0.78
-4.37 0.15 0.78
-4.22 0.16 0.81
-4.71 0.19 0.71
-1.10 0.11 1.44
-3.84 0.20 0.89
-4.25 0.23 0.80
-4.77 0.26 0.70
-4.89 0.29 0.67
-4.38 0.28 0.77
-4.48 0.30 0.75
-4.27 0.31 0.79
-7.43 0.37 0.67
-7.47 0.39 0.66
-7.47 0.41 0.66
-7.28 0.41 0.70
-7.48 0.44 0.66
-7.55 0.46 0.65
-7.44 0.48 0.67
-7.70 0.51 0.61
-7.62 0.53 0.63
-7.66 0.55 0.62
-8.09 0.59 0.54
-7.72 0.59 0.61
-7.73 0.61 0.61
-7.70 0.62 0.61
-7.59 0.63 0.63
-7.80 0.67 0.59
-3.97 0.36 1.36
-7.86 0.71 0.58
-7.89 0.73 0.57
-4.19 0.41 1.31
-4.29 0.43 1.29
-4.08 0.42 1.34
-8.30 0.85 0.48
-8.38 0.88 0.47
-4.04 0.44 1.34
-8.45 0.93 0.45
-3.99 0.46 1.35
-3.91 0.46 1.37
-8.55 1.00 0.43
-4.23 0.52 1.30
-4.36 0.54 1.28
-4.05 0.51 1.34
-4.01 0.52 1.35
-4.10 0.54 1.33
-4.13 0.56 1.32
-3.94 0.54 1.36
-3.93 0.55 1.36
-4.05 0.58 1.33
-4.05 0.59 1.33
-4.18 0.62 1.31
-4.19 0.63 1.31
-4.05 0.62 1.33
-4.34 0.67 1.27
-4.29 0.67 1.28
-4.14 0.66 1.31
-4.30 0.70 1.28
-4.08 0.67 1.32
-4.40 0.76 1.26
-3.47 0.79 1.44
-5.91 1.44 0.93
-5.58 1.47 0.99
-5.39 1.67 1.01
-0.75 -0.70 1.52
-0.66 -0.68 1.54
-0.84 -0.69 1.50
-0.51 -0.62 1.57
-0.61 -0.63 1.55
-0.56 -0.61 1.56
-0.78 -0.65 1.51
-0.63 -0.61 1.54
-0.60 -0.59 1.55
-0.84 -0.63 1.50
-0.70 -0.59 1.53
-6.21 -1.45 0.40
-3.04 -0.90 1.05
-3.01 -0.88 1.06
-3.63 -0.95 0.93
-3.12 -0.85 1.04
-2.97 -0.82 1.07
-3.12 -0.83 1.04
-3.27 -0.84 1.01
-3.23 -0.82 1.01
-3.32 -0.82 1.00
-3.47 -0.82 0.96
-3.21 -0.77 1.02
-3.44 -0.79 0.97
-3.72 -0.81 0.91
-3.46 -0.76 0.97
-3.20 -0.72 1.02
-3.38 -0.73 0.98
-3.18 -0.69 1.03
-2.96 -0.65 1.07
-3.31 -0.68 1.00
-2.62 -0.58 1.14
-3.02 -0.62 1.06
-3.24 -0.63 1.01
-3.34 -0.62 0.99
-3.04 -0.58 1.05
-3.53 -0.62 0.95
-3.00 -0.55 1.06
-4.15 -0.65 0.83
-3.70 -0.59 0.92
-3.87 -0.59 0.89
-4.32 -0.61 0.79
-3.24 -0.50 1.01
-4.29 -0.58 0.80
-4.75 -0.60 0.71
-2.86 -0.43 1.09
-3.10 -0.44 1.04
-2.50 -0.38 1.17
-2.58 -0.37 1.15
-2.96 -0.39 1.07
-2.95 -0.37 1.07
-3.00 -0.35 1.06
-3.12 -0.35 1.04
-2.57 -0.30 1.15
-5.73 -0.41 0.51
-5.49 -0.38 0.56
-5.54 -0.36 0.55
-2.15 -0.20 1.23
-5.72 -0.33 0.51
-5.68 -0.31 0.52
-5.58 -0.28 0.54
-5.55 -0.26 0.54
-6.06 -0.26 0.44
-5.78 -0.23 0.50
-5.78 -0.21 0.50
-6.10 -0.20 0.43
-0.98 -0.07 1.47
-6.09 -0.16 0.43
-5.18 -0.12 0.62
-1.07 -0.05 1.45
-5.44 -0.07 0.57
-5.38 -0.05 0.58
-5.68 -0.03 0.52
-5.67 -0.01 0.52
-7.16 0.01 0.66
-7.25 0.03 0.64
-7.74 0.05 0.53
-7.29 0.06 0.63
-7.30 0.08 0.63
-7.24 0.10 0.64
-7.22 0.12 0.64
-7.17 0.13 0.65
-7.19 0.15 0.65
-7.29 0.17 0.63
-7.36 0.19 0.61
-7.25 0.20 0.63
-7.16 0.22 0.65
-7.18 0.24 0.65
-7.07 0.25 0.67
-7.09 0.27 0.67
-7.05 0.28 0.67
-7.23 0.31 0.64
-7.29 0.33 0.62
-7.24 0.34 0.63
-7.42 0.37 0.59
-7.25 0.38 0.63
-7.44 0.41 0.59
-7.45 0.42 0.59
-7.41 0.44 0.60
-7.33 0.45 0.61
-7.12 0.46 0.65
-7.86 0.52 0.50
-7.83 0.54 0.51
-7.82 0.56 0.51
-7.77 0.58 0.52
-7.88 0.60 0.49
-7.83 0.62 0.50
-7.86 0.64 0.50
-7.80 0.65 0.51
-7.99 0.69 0.47
-8.02 0.71 0.46
-8.03 0.73 0.46
-8.04 0.75 0.46
-8.02 0.77 0.46
-7.96 0.79 0.47
-7.99 0.81 0.46
-8.10 0.84 0.44
-8.18 0.87 0.42
-8.24 0.89 0.41
-8.24 0.91 0.41
-8.23 0.93 0.41
-4.26 0.51 1.25
-4.67 0.57 1.16
-9.03 1.11 0.24
-4.12 0.53 1.28
-4.34 0.57 1.23
-4.76 0.63 1.14
-4.59 0.62 1.17
-4.84 0.67 1.12
-5.76 0.80 0.93
-5.71 0.81 0.94
-5.28 0.76 1.03
-4.78 0.71 1.13
-4.75 0.71 1.14
-5.04 0.77 1.07
-4.81 0.75 1.12
-4.76 0.75 1.13
-6.29 1.00 0.81
-4.82 0.79 1.12
-4.93 0.81 1.10
-4.64 0.78 1.16
-6.69 1.13 0.72
-4.66 0.81 1.15
-4.77 0.84 1.13
-4.80 0.86 1.12
-4.71 0.85 1.14
-4.55 0.85 1.17
-5.50 1.03 0.97
-8.03 1.57 0.42
-7.61 1.51 0.51
-7.78 1.57 0.47
-7.62 1.55 0.51
-7.59 1.57 0.51
-7.67 1.60 0.49
-7.41 1.57 0.55
-7.71 1.65 0.48
-6.82 1.48 0.68
-6.90 1.52 0.66
-6.44 1.44 0.75
-6.56 1.48 0.73
-7.00 1.59 0.63
-6.77 1.56 0.68
-6.62 1.54 0.71
-6.54 1.54 0.73
-6.78 1.61 0.67
-6.50 1.57 0.74
-6.66 1.64 0.70
-6.12 1.53 0.81
-6.21 1.58 0.79
-6.17 1.59 0.80
-6.41 1.66 0.75
-5.83 1.53 0.87
-5.84 1.60 0.87
-5.60 1.55 0.92
-5.92 1.65 0.85
-5.89 1.66 0.85
-5.72 1.63 0.89
-5.79 1.66 0.87
-5.64 1.64 0.90
-5.62 1.65 0.91
-5.48 1.62 0.94
-5.46 1.63 0.94
-4.30 -1.64 0.70
-4.30 -1.62 0.71
-4.41 -1.61 0.68
-4.21 -1.55 0.73
-4.29 -1.55 0.71
-4.25 -1.53 0.72
-4.34 -1.53 0.70
-4.31 -1.51 0.71
-4.40 -1.51 0.69
-4.90 -1.60 0.58
-4.30 -1.45 0.71
-4.65 -1.51 0.64
-5.10 -1.59 0.54
-4.47 -1.44 0.68
-5.00 -1.53 0.56
-5.35 -1.45 0.49
-4.92 -1.35 0.58
-5.46 -1.43 0.47
-5.19 -1.36 0.53
-5.18 -1.34 0.53
-5.40 -1.36 0.48
-5.47 -1.35 0.47
-4.81 -1.22 0.61
-4.48 -1.15 0.68
-4.35 -1.12 0.71
-4.51 -1.12 0.67
-4.10 -1.04 0.76
-5.31 -1.21 0.50
-5.72 -1.26 0.42
-5.52 -1.21 0.46
-5.51 -1.18 0.46
-5.79 -1.09 0.41
-3.80 -0.81 0.83
-5.62 -1.03 0.44
-3.85 -0.79 0.82
-3.77 -0.76 0.84
-4.66 -0.85 0.65
-3.54 -0.71 0.89
-3.54 -0.69 0.89
-4.93 -0.83 0.59
-4.51 -0.77 0.68
-4.12 -0.71 0.76
-4.79 -0.76 0.62
-4.46 -0.71 0.69
-5.11 -0.76 0.55
-4.83 -0.71 0.61
-4.89 -0.70 0.60
-4.55 -0.66 0.67
-4.57 -0.64 0.67
-4.47 -0.61 0.69
-4.54 -0.60 0.67
-4.67 -0.60 0.65
-4.54 -0.57 0.67
-4.63 -0.56 0.66
-4.75 -0.55 0.63
-4.88 -0.54 0.60
-5.06 -0.54 0.56
-5.19 -0.53 0.54
-5.56 -0.54 0.46
-5.48 -0.51 0.48
-5.36 -0.48 0.50
-5.45 -0.47 0.48
-5.40 -0.45 0.49
-7.62 -0.41 0.56
-7.31 -0.38 0.63
-7.25 -0.36 0.64
-7.23 -0.34 0.64
-8.20 -0.36 0.44
-7.23 -0.30 0.64
-7.57 -0.30 0.57
-5.14 -0.19 1.08
-7.58 -0.21 0.57
-7.40 -0.17 0.61
-7.19 -0.15 0.65
-7.12 -0.13 0.67
-7.87 -0.10 0.51
-7.71 -0.08 0.54
-8.11 -0.07 0.46
-8.17 -0.05 0.44
-8.12 -0.03 0.45
-7.62 -0.01 0.56
-1.12 0.00 1.37
-1.15 0.01 1.36
-1.08 0.02 1.38
-7.01 0.06 0.62
-7.11 0.08 0.60
-7.02 0.10 0.62
-7.06 0.11 0.61
-7.04 0.13 0.61
-7.44 0.15 0.53
-7.32 0.17 0.55
-7.48 0.19 0.52
-7.18 0.20 0.58
-7.50 0.23 0.51
-7.33 0.24 0.55
-4.96 0.18 1.07
-7.27 0.27 0.56
-7.16 0.29 0.58
-7.33 0.31 0.55
-7.34 0.33 0.55
-7.38 0.35 0.54
-7.33 0.36 0.55
-7.61 0.40 0.48
-7.61 0.45 0.48
-5.46 0.34 0.96
-7.95 0.51 0.41
-5.62 0.38 0.92
-5.82 0.40 0.87
-5.39 0.39 0.97
-7.98 0.59 0.40
-5.43 0.42 0.96
-5.75 0.46 0.89
-5.46 0.46 0.95
-7.97 0.69 0.40
-5.41 0.48 0.96
-8.06 0.73 0.38
-7.91 0.74 0.41
-7.89 0.76 0.41
-8.15 0.80 0.36
-8.52 0.86 0.27
-8.58 0.88 0.26
-4.77 0.51 1.10
-5.06 0.55 1.04
-5.95 0.66 0.84
-5.61 0.64 0.91
-4.29 0.50 1.20
-4.15 0.50 1.23
-4.20 0.52 1.22
-4.09 0.51 1.25
-4.36 0.55 1.19
-4.25 0.55 1.21
-4.09 0.54 1.24
-4.61 0.62 1.13
-3.95 0.54 1.27
-4.09 0.57 1.24
-3.92 0.56 1.28
-4.69 0.68 1.11
-4.47 0.66 1.16
-4.07 0.61 1.25
-4.47 0.68 1.16
-4.10 0.64 1.24
-5.92 0.92 0.83
-4.96 0.79 1.04
-4.30 0.70 1.19
-4.27 0.71 1.20
-4.68 0.79 1.10
-4.54 0.77 1.14
-4.61 0.79 1.12
-4.45 0.78 1.16
-4.48 0.80 1.15
-4.41 0.79 1.16
-4.48 0.82 1.15
-4.52 0.84 1.14
-5.53 1.05 0.91
-5.73 1.10 0.86
-7.70 1.54 0.42
-6.57 1.37 0.67
-4.52 -1.48 0.60
-4.39 -1.43 0.63
-4.30 -1.40 0.65
-4.59 -1.44 0.59
-4.43 -1.39 0.62
-0.99 -0.68 1.40
-4.41 -1.34 0.63
-1.00 -0.67 1.40
-0.93 -0.65 1.41
-4.88 -1.38 0.52
-5.00 -1.38 0.50
-0.90 -0.62 1.42
-4.70 -1.29 0.56
-4.70 -1.27 0.57
-4.70 -1.26 0.57
-0.87 -0.58 1.43
-4.33 -1.14 0.65
-3.92 -1.06 0.74
-4.32 -1.10 0.65
-4.00 -1.04 0.73
-3.54 -0.95 0.83
-3.16 -0.84 0.92
-6.32 -1.17 0.21
-3.55 -0.78 0.83
-3.57 -0.77 0.83
-3.37 -0.73 0.87
-3.40 -0.71 0.86
-3.25 -0.68 0.90
-3.26 -0.67 0.90
-3.43 -0.68 0.86
-3.27 -0.65 0.89
-3.04 -0.61 0.94
-2.87 -0.58 0.98
-2.79 -0.55 1.00
-3.25 -0.59 0.90
-2.86 -0.54 0.99
-3.10 -0.55 0.93
-2.92 -0.52 0.97
-2.87 -0.50 0.98
-4.75 -0.65 0.56
-4.66 -0.63 0.58
-4.60 -0.61 0.60
-4.53 -0.58 0.61
-4.66 -0.58 0.58
-4.54 -0.55 0.61
-5.12 -0.58 0.48
-2.73 -0.39 1.01
-2.49 -0.36 1.07
-2.67 -0.34 1.03
-5.38 -0.50 0.42
-4.87 -0.45 0.54
-5.20 -0.46 0.47
-5.29 -0.44 0.45
-5.32 -0.42 0.44
-5.46 -0.41 0.41
-5.02 -0.37 0.51
-4.96 -0.33 0.52
-4.94 -0.32 0.52
-4.71 -0.29 0.57
-4.49 -0.26 0.62
-4.65 -0.25 0.59
-1.06 -0.11 1.38
-0.72 -0.09 1.46
-4.52 -0.15 0.62
-1.20 -0.07 1.35
-7.05 0.04 0.54
-7.58 0.06 0.42
-7.18 0.08 0.51
-7.16 0.10 0.51
-7.30 0.12 0.48
-7.43 0.13 0.45
-7.47 0.15 0.44
-7.57 0.17 0.42
-7.61 0.19 0.41
-7.50 0.21 0.44
-7.43 0.22 0.45
-7.51 0.25 0.43
-8.45 0.67 0.21
-8.40 0.70 0.22
-8.38 0.72 0.22
-6.09 0.66 0.74
-6.07 0.68 0.75
-5.88 0.70 0.79
-6.04 0.78 0.75
-6.07 0.80 0.74
-5.75 0.77 0.82
-6.77 0.94 0.58
-6.30 0.94 0.68
-6.05 0.91 0.74
-6.40 0.98 0.66
-6.67 1.04 0.59
-6.96 1.10 0.53
-6.64 1.07 0.60
-6.34 1.04 0.67
-6.78 1.12 0.57
-6.75 1.13 0.57
-6.10 1.05 0.72
-4.90 0.87 1.00
-4.86 -1.43 0.45
-4.37 -1.31 0.57
-4.32 -1.29 0.58
-4.56 -1.32 0.52
-4.83 -1.31 0.46
-4.43 -1.23 0.56
-4.89 -1.27 0.45
-4.41 -1.17 0.56
-3.85 -0.77 0.70
-3.41 -0.69 0.80
-3.27 -0.66 0.83
-3.12 -0.56 0.87
-5.11 -0.69 0.41
-4.95 -0.66 0.44
-4.83 -0.63 0.47
-4.78 -0.61 0.48
-4.83 -0.59 0.47
-5.01 -0.59 0.43
-4.91 -0.53 0.45
-4.71 -0.50 0.50
-5.17 -0.45 0.39
-5.88 -0.42 0.23
-4.60 -0.32 0.52
-7.00 -0.07 0.55
-7.08 -0.06 0.54
-2.31 1.27 1.44
-1.36 -1.20 0.80
-3.25 0.72 0.72
-0.87 -0.90 0.60
-2.19 0.83 0.55
-2.33 0.77 0.54
-1.03 -1.15 0.55
-3.00 0.76 0.55
-2.47 0.82 0.53
-2.89 0.68 0.52
-0.93 -1.03 0.51
-3.07 0.68 0.49
-0.92 -1.02 0.50
-1.14 -0.95 0.49
-3.76 0.40 0.46
-3.90 0.45 0.46
-4.98 0.26 0.42
-3.09 0.68 0.44
-0.92 -1.02 0.48
-1.13 -0.94 0.47
-3.07 0.68 0.42
-0.97 -0.97 0.47
-2.81 0.67 0.41
-2.56 0.76 0.42
-1.69 -0.58 0.45
-5.01 0.18 0.30
-1.03 -1.08 0.44
-1.12 -0.99 0.43
-1.16 -0.97 0.42
-1.49 -0.56 0.43
-3.42 0.55 0.29
-3.02 0.70 0.32
-2.95 0.72 0.32
-2.71 0.73 0.34
-2.68 0.77 0.34
-1.05 -1.02 0.41
-1.12 -0.98 0.41
-3.38 0.61 0.27
-3.15 0.66 0.29
-3.11 0.72 0.29
-3.19 0.77 0.28
-3.03 0.73 0.30
-2.94 0.78 0.30
-3.14 0.48 0.23
-3.14 0.48 0.21
-3.03 0.58 0.22
-1.86 -0.72 0.34
-2.91 0.69 0.21
-0.78 -1.11 0.32
-0.93 -0.96 0.32
-0.90 -0.98 0.31
-0.87 -0.98 0.30
-0.95 -1.00 0.29
-1.03 -1.08 0.28
-0.94 -0.98 0.29
-0.80 -0.90 0.26
-1.00 -0.95 0.26
-1.33 -1.03 0.23
-0.81 -0.91 0.23
-0.88 -0.87 0.23
-0.83 -0.89 0.22
-1.23 -0.92 0.21
-0.88 -0.86 0.22
-0.79 -0.80 0.22
-0.78 -0.78 0.20
-0.94 -0.72 0.22
-15.58 -0.37 1.87
-10.30 -0.81 1.92
-15.95 -0.29 1.75
-15.92 -0.24 1.75
-15.85 -0.11 1.75
-12.71 0.08 1.87
-15.66 -0.20 1.64
-15.94 -0.95 1.56
-15.88 -0.81 1.56
-15.88 -0.72 1.56
-15.81 -0.63 1.56
-15.88 -0.59 1.56
-15.96 -0.55 1.56
-12.64 -0.19 1.78
-15.44 -1.00 1.51
-15.45 -0.96 1.51
-15.84 -0.81 1.49
-15.93 -0.77 1.49
-15.80 -0.68 1.49
-15.91 -0.64 1.49
-15.77 -0.59 1.49
-8.82 -0.80 1.71
-10.51 -0.89 1.64
-14.83 -1.01 1.46
-15.18 -0.99 1.45
-15.46 -0.96 1.44
-15.37 -0.92 1.44
-15.59 -0.84 1.43
-15.89 -0.81 1.42
-15.90 -0.77 1.42
-15.84 -0.72 1.42
-15.84 -0.68 1.42
-12.82 -0.25 1.68
-12.48 -0.19 1.69
-10.59 -0.98 1.59
-14.95 -1.02 1.39
-15.44 -0.96 1.37
-15.27 -0.91 1.38
-15.96 -0.90 1.34
-15.72 -0.76 1.36
-12.93 0.11 1.56
-8.56 -0.91 1.63
-10.28 -0.81 1.54
-9.69 -0.75 1.57
-10.50 -0.76 1.53
-10.55 -0.73 1.53
-10.84 -0.42 1.66
-15.70 -1.02 1.20
-15.59 -0.97 1.20
-15.69 -0.93 1.20
-15.70 -0.85 1.20
-15.87 -0.81 1.19
-12.64 0.11 1.46
-12.99 0.17 1.44
-14.09 -1.56 1.20
-10.72 -1.09 1.40
-15.38 -1.21 1.13
-15.34 -1.13 1.13
-15.28 -1.08 1.13
-9.17 -0.69 1.49
-15.46 -1.01 1.12
-15.56 -0.97 1.12
-15.32 -0.92 1.13
-10.57 -0.64 1.41
-15.48 -0.84 1.12
-15.94 -0.77 1.09
-15.96 -0.73 1.09
-12.10 0.19 1.25
-14.20 -1.57 1.12
-10.79 -1.13 1.34
-10.62 -1.05 1.35
-15.11 -1.28 1.06
-8.80 -0.71 1.46
-15.45 -1.05 1.04
-15.36 -1.00 1.04
-15.53 -0.97 1.03
-15.40 -0.92 1.04
-15.33 -0.87 1.05
-15.43 -0.83 1.04
-15.63 -0.80 1.03
-15.87 -0.77 1.01
-12.96 0.14 1.32
-14.20 -1.66 1.03
-14.31 -1.63 1.03
-14.44 -1.60 1.02
-14.88 -1.60 0.99
-14.36 -1.51 1.02
-10.63 -1.02 1.28
-8.40 -0.82 1.43
-13.12 -1.14 1.11
-10.20 -0.90 1.31
-14.93 -1.19 0.98
-8.77 -0.74 1.41
-8.81 -0.72 1.40
-9.19 -0.71 1.38
-9.11 -0.68 1.38
-10.59 -0.74 1.28
-11.14 -0.74 1.24
-9.52 -0.62 1.36
-9.44 -0.59 1.36
-9.34 -0.55 1.37
-11.31 -0.61 1.23
-11.04 -0.57 1.25
-10.91 -0.50 1.26
-12.47 -0.04 1.35
-14.54 -1.69 0.92
-14.37 -1.59 0.93
-14.19 -1.45 0.95
-13.91 -1.35 0.97
-13.70 -1.25 0.98
-14.17 -1.25 0.95
-13.20 -1.07 1.02
-10.84 -0.84 1.19
-8.62 -0.68 1.36
-11.17 -0.80 1.17
-11.18 -0.73 1.17
-11.22 -0.67 1.17
-11.30 -0.64 1.16
-11.05 -0.57 1.18
-11.36 -0.55 1.16
-10.95 -0.50 1.19
-8.47 -1.14 1.31
-8.45 -1.12 1.31
-8.36 -1.05 1.31
-13.80 -1.42 0.88
-8.19 -0.91 1.33
-8.18 -0.88 1.33
-8.17 -0.86 1.33
-8.33 -0.84 1.32
-12.99 -1.17 0.95
-8.43 -0.80 1.31
-8.50 -0.78 1.30
-8.52 -0.75 1.30
-8.45 -0.72 1.31
-8.29 -0.69 1.32
-8.18 -0.65 1.33
-8.41 -0.64 1.31
-8.73 -0.63 1.29
-11.84 -0.63 1.26
-11.66 -0.57 1.28
-11.80 -0.52 1.26
-11.83 -0.49 1.26
-12.22 -0.13 1.23
-12.32 -0.10 1.22
-13.03 -0.08 1.17
-13.27 -0.04 1.15
-13.22 -0.01 1.15
-13.09 0.08 1.10
-13.16 0.14 1.09
-8.12 -1.03 1.28
-7.97 -0.91 1.29
-8.12 -0.90 1.28
-8.09 -0.87 1.28
-8.20 -0.86 1.28
-8.32 -0.79 1.26
-8.40 -0.77 1.26
-8.27 -0.74 1.27
-8.47 -0.72 1.25
