# .PCD v0.7 - Point Cloud Data file format
VERSION 0.7
FIELDS x y z
SIZE 4 4 4
TYPE F F F
COUNT 1 1 1
WIDTH 2854
HEIGHT 1
VIEWPOINT 0 0 0 1 0 0 0
POINTS 2854
DATA ASCII
-5.75 -0.45 1.49
-7.30 -0.51 1.36
-12.20 -0.72 0.95
-8.14 -0.50 1.29
-12.20 -0.65 0.96
-7.87 -0.44 1.32
-7.96 -0.42 1.31
-8.02 -0.39 1.30
-7.55 -0.35 1.34
-7.36 -0.32 1.36
-7.34 -0.30 1.36
-13.35 -0.44 0.86
-13.41 -0.40 0.85
-13.31 -0.36 0.86
-13.04 -0.32 0.88
-7.98 -0.19 1.31
-7.75 -0.16 1.32
-11.57 -0.19 1.01
-7.84 -0.11 1.32
-7.68 -0.09 1.33
-11.59 -0.09 1.00
-11.29 -0.05 1.03
-10.66 -0.02 1.08
-11.66 0.02 1.12
-12.16 0.05 1.07
-11.05 0.07 1.17
-11.11 0.09 1.16
-11.13 0.12 1.16
-11.09 0.15 1.17
-11.09 0.17 1.17
-11.09 0.20 1.17
-11.05 0.23 1.17
-10.99 0.25 1.17
-10.99 0.28 1.17
-11.09 0.31 1.17
-11.34 0.34 1.14
-11.58 0.38 1.12
-11.52 0.40 1.12
-11.49 0.43 1.13
-11.62 0.46 1.12
-11.37 0.48 1.14
-11.19 0.50 1.16
-11.52 0.54 1.12
-11.80 0.58 1.10
-11.69 0.63 1.11
-12.02 0.68 1.08
-11.88 0.70 1.09
-11.89 0.73 1.09
-12.16 0.77 1.06
-11.99 0.79 1.08
-12.04 1.00 1.07
-11.91 1.02 1.08
-11.77 1.67 1.09
-7.19 1.08 1.51
-2.92 -0.83 1.69
-3.43 -0.78 1.65
-6.94 -1.14 1.33
-7.11 -1.14 1.31
-6.91 -1.09 1.33
-7.13 -1.10 1.31
-7.03 -1.06 1.32
-6.96 -1.03 1.33
-7.01 -1.01 1.32
-7.04 -0.99 1.32
-7.02 -0.97 1.32
-7.16 -0.96 1.31
-6.96 -0.92 1.33
-6.98 -0.90 1.33
-6.63 -0.84 1.36
-6.95 -0.85 1.33
-6.98 -0.83 1.33
-6.49 -0.76 1.37
-6.07 -0.71 1.41
-6.91 -0.75 1.33
-6.18 -0.68 1.40
-6.93 -0.71 1.33
-5.83 -0.61 1.43
-5.64 -0.58 1.45
-6.56 -0.62 1.37
-5.98 -0.56 1.42
-6.64 -0.58 1.36
-7.30 -0.60 1.30
-6.70 -0.54 1.35
-7.42 -0.56 1.29
-7.11 -0.52 1.32
-7.48 -0.52 1.28
-8.50 -0.54 1.19
-5.59 -0.38 1.45
-5.36 -0.35 1.47
-8.20 -0.45 1.22
-8.02 -0.42 1.23
-7.91 -0.39 1.24
-7.87 -0.36 1.25
-8.06 -0.34 1.23
-4.18 -0.20 1.58
-7.67 -0.28 1.27
-12.91 -0.39 0.80
-9.12 -0.27 1.13
-12.70 -0.31 0.81
-12.89 -0.28 0.80
-11.62 -0.22 0.91
-13.34 -0.17 0.96
-12.55 -0.13 1.03
-12.80 -0.11 1.01
-14.10 -0.08 0.89
-11.92 -0.01 1.09
-11.79 0.01 0.82
-4.59 0.02 1.50
-11.45 0.08 0.85
-10.60 0.11 0.93
-10.80 0.14 0.91
-10.38 0.17 0.95
-10.43 0.20 0.94
-4.86 0.13 1.48
-11.38 0.28 0.85
-11.20 0.31 0.87
-11.11 0.34 0.88
-11.09 0.31 1.10
-10.96 0.33 1.12
-11.36 0.40 1.08
-11.44 0.45 1.07
-11.41 0.48 1.07
-11.48 0.51 1.06
-11.59 0.54 1.05
-11.69 0.58 1.04
-11.70 0.61 1.04
-11.75 0.69 1.04
-12.05 0.77 1.01
-12.15 0.80 1.00
-15.89 1.32 0.63
-7.69 0.68 1.43
-11.82 1.64 1.02
-11.91 1.68 1.01
-11.31 1.63 1.07
-9.68 1.66 1.22
-0.84 -0.77 1.86
-7.14 -1.23 1.26
-7.12 -1.21 1.26
-6.89 -1.16 1.28
-7.11 -1.16 1.26
-7.21 -1.15 1.25
-7.06 -1.11 1.27
-7.04 -1.08 1.27
-7.08 -1.07 1.27
-7.02 -1.04 1.27
-7.07 -1.02 1.27
-6.93 -0.98 1.28
-6.89 -0.96 1.28
-6.66 -0.91 1.31
-6.94 -0.92 1.28
-6.82 -0.88 1.29
-6.64 -0.84 1.31
-6.80 -0.83 1.29
-6.78 -0.81 1.29
-6.77 -0.79 1.30
-6.73 -0.76 1.30
-6.65 -0.73 1.31
-6.77 -0.72 1.30
-7.05 -0.72 1.27
-8.19 -0.78 1.16
-8.11 -0.75 1.17
-8.12 -0.73 1.17
-7.59 -0.66 1.22
-8.01 -0.67 1.18
-8.22 -0.65 1.16
-8.19 -0.63 1.16
-8.46 -0.62 1.13
-8.06 -0.57 1.17
-5.60 -0.42 1.41
-8.13 -0.52 1.17
-8.38 -0.51 1.14
-8.40 -0.48 1.14
-8.42 -0.46 1.14
-8.59 -0.44 1.12
-8.03 -0.39 1.18
-8.79 -0.39 1.10
-8.63 -0.36 1.12
-8.91 -0.34 1.09
-8.74 -0.31 1.11
-7.38 -0.25 1.24
-12.79 -0.35 0.72
-9.31 -0.24 1.05
-11.27 -0.25 0.87
-9.20 -0.18 1.06
-9.16 -0.16 1.07
-9.42 -0.13 1.04
-11.24 -0.12 0.87
-11.33 -0.09 0.86
-11.48 -0.05 0.85
-11.29 -0.02 0.86
-10.80 0.01 1.06
-12.20 0.04 0.92
-11.09 0.07 1.03
-10.77 0.09 1.07
-10.75 0.12 1.07
-11.05 0.15 1.04
-11.03 0.17 1.04
-11.02 0.20 1.04
-10.97 0.23 1.04
-11.17 0.26 1.02
-11.23 0.29 1.02
-11.05 0.31 1.03
-11.25 0.34 1.01
-11.05 0.36 1.03
-11.16 0.39 1.02
-10.93 0.41 1.05
-11.03 0.44 1.04
-11.01 0.46 1.04
-11.01 0.49 1.04
-11.53 0.54 0.98
-11.62 0.57 0.97
-11.59 0.60 0.98
-12.06 0.71 0.93
-12.15 0.77 0.92
-10.80 0.74 1.06
-11.60 0.82 0.97
-11.86 1.01 0.94
-15.56 1.55 0.56
-5.30 0.55 1.62
-4.66 0.51 1.68
-12.89 1.45 0.83
-12.23 1.49 0.90
-11.85 1.50 0.94
-11.67 1.54 0.96
-12.38 1.66 0.88
-11.84 1.62 0.94
-10.85 1.51 1.04
-11.37 1.61 0.98
-10.94 1.61 1.03
-11.18 1.67 1.00
-11.15 1.69 1.01
-9.20 1.68 1.20
-9.18 -1.58 0.99
-6.95 -1.26 1.21
-6.95 -1.24 1.21
-6.83 -1.20 1.23
-7.01 -1.20 1.21
-6.86 -1.16 1.22
-7.02 -1.13 1.21
-6.80 -1.08 1.23
-6.80 -1.06 1.23
-6.75 -1.03 1.24
-6.66 -1.00 1.25
-6.58 -0.97 1.25
-6.55 -0.94 1.26
-6.51 -0.90 1.26
-6.69 -0.89 1.24
-6.67 -0.87 1.24
-6.56 -0.84 1.26
-6.60 -0.82 1.25
-6.59 -0.80 1.25
-6.35 -0.75 1.28
-6.18 -0.70 1.29
-6.38 -0.69 1.27
-6.59 -0.69 1.25
-8.06 -0.77 1.10
-7.97 -0.74 1.11
-6.19 -0.60 1.29
-5.97 -0.56 1.32
-8.18 -0.65 1.09
-8.12 -0.62 1.10
-8.23 -0.61 1.09
-8.09 -0.57 1.10
-8.38 -0.56 1.07
-8.34 -0.53 1.08
-5.23 -0.36 1.39
-8.30 -0.46 1.08
-8.36 -0.43 1.07
-8.41 -0.41 1.07
-8.64 -0.39 1.04
-5.73 -0.19 1.58
-10.10 -0.30 1.14
-10.12 -0.28 1.13
-9.23 -0.23 1.22
-5.75 -0.13 1.58
-8.94 -0.18 1.25
-9.16 -0.16 1.23
-9.05 -0.14 1.24
-8.79 -0.11 1.27
-9.56 -0.10 1.19
-5.89 -0.05 1.57
-12.26 -0.07 0.91
-12.42 -0.04 0.90
-12.48 -0.01 0.89
-10.58 0.01 0.76
-5.95 0.03 1.26
-10.48 0.07 0.77
-10.48 0.10 0.77
-10.48 0.14 0.77
-10.43 0.17 0.78
-10.44 0.20 0.78
-10.40 0.23 0.78
-10.44 0.26 0.78
-10.07 0.28 0.81
-10.05 0.31 0.82
-10.49 0.35 0.77
-10.14 0.37 0.81
-10.17 0.44 0.80
-9.91 0.46 0.83
-9.99 0.49 0.82
-9.85 0.51 0.84
-9.98 0.55 0.82
-10.41 0.60 0.78
-11.09 0.55 0.96
-11.56 0.79 0.90
-4.84 0.53 1.64
-12.72 1.52 0.77
-11.20 1.67 0.93
-9.29 -1.59 0.90
-9.28 -1.56 0.90
-7.22 -1.15 1.12
-9.84 -1.43 0.84
-10.23 -1.42 0.80
-9.86 -1.34 0.84
-9.91 -1.32 0.83
-6.57 -0.94 1.20
-9.41 -1.21 0.89
-6.50 -0.87 1.20
-6.95 -0.89 1.16
-7.36 -0.91 1.11
-6.89 -0.84 1.16
-7.32 -0.81 1.12
-7.98 -0.84 1.04
-8.36 -0.77 1.00
-5.29 -0.53 1.34
-8.25 -0.71 1.02
-12.67 -0.96 0.54
-7.98 -0.64 1.04
-8.27 -0.63 1.01
-8.36 -0.61 1.00
-8.34 -0.58 1.01
-12.52 -0.77 0.55
-12.52 -0.74 0.55
-8.39 -0.51 1.00
-8.51 -0.49 0.99
-8.48 -0.46 0.99
-8.53 -0.44 0.98
-8.48 -0.41 0.99
-8.66 -0.39 0.97
-8.89 -0.37 0.95
-12.05 -0.44 0.60
-8.95 -0.32 0.94
-11.74 -0.36 0.64
-11.46 -0.32 0.67
-12.35 -0.30 0.57
-11.40 -0.25 0.67
-8.95 -0.18 0.94
-11.09 -0.18 0.71
-11.40 -0.15 0.67
-11.61 -0.12 0.65
-11.12 -0.08 0.70
-11.04 -0.05 0.71
-10.68 -0.02 0.75
-11.77 0.02 0.80
-11.89 0.04 0.79
-11.55 0.07 0.83
-11.32 0.10 0.86
-11.02 0.12 0.89
-11.08 0.15 0.88
-10.98 0.17 0.89
-11.33 0.21 0.85
-11.09 0.23 0.88
-11.20 0.26 0.87
-11.20 0.28 0.87
-11.18 0.31 0.87
-11.20 0.34 0.87
-11.08 0.36 0.88
-11.16 0.39 0.87
-10.96 0.41 0.89
-11.30 0.45 0.85
-11.10 0.47 0.88
-11.18 0.50 0.87
-11.23 0.53 0.86
-11.38 0.56 0.84
-11.65 0.60 0.81
-5.70 0.31 1.50
-11.54 0.65 0.83
-11.44 0.67 0.84
-11.44 0.70 0.84
-11.17 0.71 0.87
-11.57 0.77 0.82
-11.66 0.80 0.81
-11.58 0.82 0.82
-11.48 0.84 0.83
-11.80 0.89 0.79
-11.60 0.91 0.81
-11.66 0.94 0.81
-12.00 1.00 0.77
-11.91 1.02 0.78
-11.82 1.04 0.79
-12.05 1.09 0.76
-12.22 1.13 0.74
-12.08 1.15 0.76
-12.32 1.20 0.73
-12.22 1.22 0.74
-12.54 1.29 0.70
-12.46 1.31 0.71
-12.37 1.33 0.72
-12.77 1.40 0.67
-12.22 1.43 0.73
-12.38 1.48 0.71
-12.45 1.52 0.71
-13.28 1.65 0.61
-10.90 1.39 0.89
-11.11 1.66 0.86
-9.62 1.66 1.03
-9.44 1.65 1.05
-9.50 1.68 1.04
-9.46 -1.62 0.79
-9.54 -1.57 0.79
-7.15 -1.24 1.06
-9.05 -1.45 0.84
-6.65 -1.13 1.12
-6.71 -1.12 1.12
-6.76 -1.10 1.11
-6.39 -1.04 1.15
-6.84 -1.07 1.10
-6.86 -1.02 1.10
-6.73 -0.99 1.11
-7.05 -1.00 1.08
-6.98 -0.94 1.08
-6.14 -0.84 1.18
-6.48 -0.83 1.14
-7.31 -0.88 1.05
-7.38 -0.87 1.04
-8.06 -0.90 0.96
-7.92 -0.86 0.98
-8.03 -0.85 0.96
-8.19 -0.83 0.95
-6.77 -0.70 1.11
-5.76 -0.59 1.23
-5.73 -0.56 1.23
-5.58 -0.54 1.25
-8.02 -0.64 0.97
-6.09 -0.51 1.19
-8.30 -0.61 0.93
-8.20 -0.44 1.22
-8.34 -0.43 1.20
-8.48 -0.42 1.19
-8.57 -0.40 1.18
-9.06 -0.40 1.12
-5.79 -0.24 1.50
-9.16 -0.36 1.11
-5.72 -0.21 1.51
-5.73 -0.20 1.50
-9.62 -0.31 1.05
-9.95 -0.30 1.02
-9.92 -0.27 1.02
-9.80 -0.25 1.03
-9.92 -0.22 1.02
-10.09 -0.20 1.00
-9.80 -0.17 1.03
-9.91 -0.15 1.02
-5.63 -0.07 1.52
-5.66 -0.06 1.51
-9.93 -0.08 1.02
-12.01 -0.07 0.78
-12.21 -0.04 0.75
-5.65 -0.01 1.51
-10.00 0.01 0.65
-4.54 0.02 1.32
-9.99 0.07 0.66
-11.29 0.10 0.78
-11.48 0.12 0.76
-11.55 0.15 0.75
-11.32 0.18 0.78
-10.85 0.20 0.84
-10.99 0.23 0.82
-10.92 0.25 0.83
-5.37 0.14 1.51
-11.02 0.31 0.82
-10.84 0.33 0.84
-11.02 0.36 0.81
-11.26 0.39 0.79
-11.11 0.41 0.80
-11.02 0.44 0.81
-10.88 0.46 0.83
-11.23 0.50 0.79
-11.34 0.53 0.77
-11.38 0.56 0.77
-11.53 0.60 0.75
-5.76 0.32 1.46
-11.39 0.64 0.77
-11.33 0.67 0.77
-11.13 0.68 0.80
-11.12 0.71 0.80
-11.40 0.75 0.77
-11.45 0.79 0.76
-6.29 0.45 1.39
-11.63 0.85 0.73
-11.66 0.88 0.73
-11.65 0.91 0.73
-11.73 0.94 0.72
-11.88 0.99 0.70
-11.82 1.01 0.71
-11.79 1.04 0.71
-11.92 1.08 0.70
-11.84 1.10 0.71
-11.91 1.13 0.70
-12.02 1.17 0.68
-11.98 1.20 0.69
-12.15 1.24 0.67
-12.11 1.27 0.67
-12.63 1.35 0.60
-12.72 1.39 0.59
-7.01 0.81 1.30
-12.85 1.50 0.57
-10.14 1.24 0.91
-12.84 1.60 0.57
-10.31 1.31 0.89
-10.38 1.34 0.88
-10.17 1.34 0.90
-10.34 1.39 0.88
-10.42 1.43 0.87
-11.05 1.54 0.79
-10.38 1.47 0.88
-4.52 0.68 1.60
-10.80 1.61 0.82
-10.80 1.64 0.82
-9.68 1.57 0.96
-9.59 1.62 0.97
-9.69 1.69 0.95
-9.38 1.66 0.99
-9.24 1.68 1.01
-2.10 -0.93 1.62
-2.87 -0.85 1.52
-9.27 -1.68 0.74
-9.48 -1.68 0.71
-9.48 -1.65 0.71
-6.71 -1.25 1.05
-6.54 -1.20 1.07
-2.67 -0.68 1.55
-6.83 -1.20 1.04
-6.79 -1.17 1.04
-6.75 -1.14 1.05
-6.94 -1.14 1.03
-6.70 -1.09 1.06
-6.80 -1.08 1.04
-6.76 -1.05 1.05
-6.91 -1.05 1.03
-6.93 -1.03 1.03
-6.92 -1.00 1.03
-7.20 -1.01 1.00
-6.82 -0.95 1.04
-6.59 -0.90 1.07
-6.36 -0.86 1.10
-6.71 -0.87 1.05
-7.24 -0.90 0.99
-6.84 -0.84 1.04
-7.70 -0.89 0.94
-8.09 -0.90 0.89
-7.66 -0.84 0.94
-6.77 -0.74 1.05
-6.76 -0.72 1.05
-6.57 -0.68 1.07
-6.44 -0.65 1.09
-6.06 -0.61 1.13
-6.14 -0.59 1.12
-6.44 -0.59 1.09
-6.39 -0.57 1.09
-6.24 -0.54 1.11
-6.56 -0.53 1.08
-5.36 -0.44 1.22
-8.19 -0.58 0.88
-4.63 -0.37 1.31
-4.60 -0.35 1.31
-4.68 -0.34 1.30
-4.47 -0.31 1.33
-4.73 -0.31 1.30
-8.45 -0.43 0.84
-8.44 -0.41 0.85
-8.48 -0.38 0.84
-4.41 -0.23 1.33
-9.02 -0.35 0.78
-9.15 -0.32 0.76
-4.57 -0.18 1.32
-9.99 -0.29 0.66
-10.07 -0.26 0.65
-10.62 -0.24 0.58
-10.20 -0.20 0.63
-10.29 -0.17 0.62
-9.66 -0.13 0.70
-9.84 -0.11 0.68
-9.95 -0.08 0.66
-4.54 -0.03 1.32
-10.02 -0.02 0.65
-11.34 0.01 0.70
-11.04 0.04 0.73
-5.71 0.04 1.43
-11.09 0.09 0.73
-11.08 0.12 0.73
-10.45 0.14 0.81
-10.45 0.16 0.81
-10.49 0.19 0.80
-10.29 0.21 0.83
-10.48 0.24 0.81
-10.41 0.26 0.82
-10.28 0.29 0.83
-10.40 0.31 0.82
-10.45 0.34 0.81
-10.18 0.36 0.84
-11.04 0.41 0.73
-10.05 0.40 0.86
-10.88 0.46 0.75
-10.70 0.48 0.77
-5.47 0.26 1.46
-11.12 0.55 0.72
-7.27 0.38 1.22
-7.11 0.39 1.24
-7.21 0.41 1.23
-7.20 0.43 1.23
-7.20 0.45 1.23
-7.12 0.46 1.24
-6.94 0.46 1.26
-7.14 0.49 1.23
-7.06 0.50 1.24
-11.22 0.82 0.70
-6.88 0.53 1.27
-6.89 0.54 1.27
-6.76 0.57 1.28
-7.06 0.61 1.24
-8.55 0.75 1.05
-8.11 0.74 1.11
-6.33 0.59 1.34
-7.34 0.70 1.21
-6.72 0.68 1.29
-6.55 0.68 1.31
-6.52 0.69 1.31
-6.56 0.73 1.30
-6.55 0.74 1.31
-6.62 0.77 1.30
-6.57 0.79 1.30
-6.42 0.79 1.32
-6.57 0.83 1.30
-6.39 0.84 1.32
-10.29 1.36 0.81
-10.28 1.41 0.81
-10.60 1.48 0.77
-10.48 1.49 0.78
-10.59 1.53 0.77
-10.70 1.57 0.75
-10.61 1.58 0.77
-10.62 1.61 0.76
-10.62 1.64 0.76
-10.44 1.64 0.79
-9.52 1.54 0.91
-9.39 1.54 0.92
-9.55 1.62 0.90
-9.21 1.58 0.94
-9.10 1.63 0.96
-9.27 1.69 0.93
-6.08 1.54 1.34
-3.56 1.03 1.67
-6.35 -1.61 1.03
-6.38 -1.59 1.02
-6.40 -1.57 1.02
-6.15 -1.49 1.05
-6.22 -1.48 1.04
-6.46 -1.50 1.01
-6.15 -1.42 1.05
-6.32 -1.43 1.03
-2.56 -0.81 1.52
-6.31 -1.38 1.04
-6.49 -1.37 1.01
-6.60 -1.36 1.00
-6.89 -1.38 0.96
-7.03 -1.38 0.94
-6.71 -1.31 0.98
-2.79 -0.75 1.49
-6.66 -1.26 0.99
-6.69 -1.25 0.99
-3.16 -0.75 1.45
-6.64 -1.19 0.99
-3.28 -0.74 1.43
-3.00 -0.70 1.47
-6.54 -1.12 1.01
-3.15 -0.69 1.45
-6.49 -1.07 1.01
-6.36 -1.01 1.03
-6.39 -0.99 1.03
-6.44 -0.98 1.02
-6.41 -0.95 1.03
-6.54 -0.94 1.01
-6.25 -0.89 1.05
-7.93 -1.04 0.83
-6.57 -0.86 1.01
-6.83 -0.86 0.97
-6.25 -0.79 1.05
-6.54 -0.79 1.01
-6.73 -0.79 0.99
-6.63 -0.76 1.00
-7.22 -0.78 0.92
-6.45 -0.68 1.02
-8.14 -0.78 0.80
-6.54 -0.64 1.01
-6.50 -0.62 1.02
-7.86 -0.68 0.84
-7.84 -0.66 0.84
-8.20 -0.65 0.80
-8.27 -0.61 0.79
-4.58 -0.38 1.26
-4.47 -0.36 1.28
-4.67 -0.35 1.25
-4.48 -0.33 1.28
-4.50 -0.31 1.27
-4.50 -0.30 1.27
-4.49 -0.26 1.27
-4.58 -0.25 1.26
-4.59 -0.23 1.26
-4.72 -0.22 1.25
-4.50 -0.20 1.27
-4.44 -0.18 1.28
-4.52 -0.16 1.27
-4.52 -0.15 1.27
-4.41 -0.13 1.28
-4.82 -0.12 1.23
-5.77 -0.08 1.42
-5.80 -0.06 1.42
-5.95 -0.05 1.40
-5.80 -0.03 1.42
-5.76 -0.02 1.42
-11.30 -0.01 0.70
-4.49 0.00 1.22
-4.60 0.02 1.21
-4.62 0.04 1.21
-4.74 0.06 1.19
-5.25 0.08 1.12
-4.76 0.09 1.19
-4.80 0.11 1.18
-10.00 0.22 0.47
-4.38 0.14 1.24
-9.88 0.28 0.49
-6.09 0.21 1.00
-4.88 0.20 1.17
-10.23 0.31 0.76
-10.41 0.34 0.74
-10.36 0.36 0.75
-10.25 0.38 0.76
-10.48 0.42 0.73
-7.13 0.30 1.19
-5.55 0.25 1.41
-5.47 0.26 1.42
-7.50 0.37 1.14
-5.45 0.29 1.42
-7.30 0.40 1.16
-7.23 0.41 1.17
-7.50 0.44 1.14
-5.94 0.37 1.35
-6.82 0.44 1.23
-5.99 0.40 1.34
-5.82 0.40 1.37
-7.27 0.52 1.17
-6.95 0.51 1.21
-6.27 0.48 1.30
-6.42 0.51 1.28
-5.83 0.47 1.36
-5.91 0.50 1.35
-6.95 0.60 1.21
-6.21 0.55 1.31
-6.29 0.57 1.30
-5.88 0.55 1.36
-6.16 0.59 1.32
-6.09 0.60 1.33
-6.19 0.62 1.31
-6.14 0.64 1.32
-6.38 0.67 1.28
-6.13 0.66 1.32
-6.38 0.71 1.28
-6.19 0.70 1.31
-9.99 1.15 0.78
-12.48 1.46 0.44
-10.29 1.23 0.74
-10.03 1.22 0.77
-10.51 1.31 0.71
-10.12 1.28 0.76
-12.65 1.63 0.41
-12.66 1.66 0.41
-10.38 1.42 0.72
-10.70 1.49 0.68
-10.31 1.46 0.73
-10.33 1.49 0.73
-9.61 1.41 0.83
-10.36 1.54 0.72
-9.71 1.47 0.81
-9.59 1.48 0.83
-9.53 1.49 0.84
-9.45 1.50 0.85
-9.39 1.52 0.85
-9.44 1.55 0.85
-9.27 1.55 0.87
-9.34 1.58 0.86
-9.45 1.62 0.84
-9.18 1.60 0.88
-9.20 1.63 0.88
-8.73 1.57 0.94
-8.75 1.61 0.94
-8.55 1.60 0.97
-8.86 1.68 0.92
-8.59 1.65 0.96
-8.63 1.68 0.95
-3.34 0.95 1.68
-3.44 0.99 1.67
-1.62 -0.81 1.62
-6.40 -1.68 0.95
-6.39 -1.65 0.96
-6.34 -1.62 0.96
-6.40 -1.61 0.96
-6.60 -1.60 0.93
-6.44 -1.55 0.95
-6.61 -1.56 0.93
-6.35 -1.50 0.96
-2.62 -0.85 1.48
-6.60 -1.50 0.93
-6.79 -1.50 0.91
-6.43 -1.42 0.95
-6.96 -1.48 0.88
-2.45 -0.77 1.50
-6.77 -1.41 0.91
-3.28 -0.87 1.39
-2.55 -0.75 1.49
-6.86 -1.36 0.90
-6.89 -1.34 0.89
-2.68 -0.73 1.47
-2.20 -0.65 1.54
-2.82 -0.72 1.45
-6.79 -1.24 0.91
-6.62 -1.19 0.93
-2.61 -0.66 1.48
-6.75 -1.16 0.91
-7.64 -1.25 0.79
-6.96 -1.14 0.89
-7.01 -1.13 0.88
-7.19 -1.12 0.86
-6.84 -1.06 0.90
-6.98 -1.05 0.88
-6.68 -1.00 0.93
-6.73 -0.98 0.92
-6.80 -0.97 0.91
-7.83 -1.05 0.77
-8.07 -1.05 0.74
-7.95 -1.01 0.75
-7.78 -0.97 0.78
-8.09 -0.98 0.73
-7.15 -0.87 0.86
-7.05 -0.83 0.88
-7.00 -0.81 0.88
-8.13 -0.88 0.73
-8.00 -0.84 0.75
-8.19 -0.83 0.72
-8.34 -0.82 0.70
-8.36 -0.79 0.70
-6.73 -0.65 0.92
-8.34 -0.74 0.70
-8.36 -0.72 0.70
-8.02 -0.67 0.74
-8.11 -0.65 0.73
-7.86 -0.61 0.77
-8.11 -0.60 0.73
-8.02 -0.57 0.75
-7.61 -0.52 0.80
-4.84 -0.36 1.18
-4.41 -0.33 1.24
-4.34 -0.31 1.25
-4.63 -0.30 1.21
-4.50 -0.28 1.22
-4.49 -0.26 1.22
-4.38 -0.24 1.24
-4.48 -0.23 1.23
-4.34 -0.21 1.25
-4.18 -0.19 1.27
-4.34 -0.17 1.25
-4.38 -0.16 1.24
-4.54 -0.15 1.22
-4.45 -0.13 1.23
-4.46 -0.11 1.23
-4.62 -0.10 1.21
-4.45 -0.08 1.23
-4.41 -0.06 1.24
-4.65 -0.05 1.20
-4.39 -0.03 1.24
-4.49 -0.01 1.22
-10.30 0.01 0.68
-10.89 0.04 0.59
-11.09 0.09 0.56
-11.09 0.15 0.56
-11.05 0.20 0.57
-10.74 0.22 0.61
-10.71 0.25 0.61
-10.58 0.29 0.63
-10.59 0.34 0.63
-7.70 0.29 1.05
-7.81 0.31 1.03
-7.15 0.30 1.13
-7.29 0.34 1.11
-5.64 0.30 1.34
-5.73 0.33 1.33
-7.21 0.43 1.12
-7.25 0.45 1.11
-5.80 0.39 1.32
-5.73 0.41 1.33
-5.67 0.44 1.34
-6.91 0.54 1.16
-5.68 0.46 1.33
-5.98 0.52 1.29
-6.27 0.57 1.25
-6.01 0.58 1.29
-6.04 0.60 1.28
-6.25 0.63 1.25
-6.30 0.67 1.24
-5.98 0.67 1.29
-11.95 1.37 0.42
-12.15 1.42 0.39
-12.44 1.49 0.34
-12.28 1.53 0.37
-12.41 1.60 0.35
-12.38 1.66 0.35
-12.38 1.69 0.35
-10.45 1.46 0.63
-8.19 1.19 0.96
-10.44 1.56 0.63
-9.53 1.47 0.76
-9.30 1.46 0.79
-9.07 1.45 0.83
-9.03 1.49 0.83
-8.95 1.52 0.84
-8.63 1.51 0.89
-8.55 1.52 0.90
-9.00 1.62 0.83
-8.75 1.62 0.87
-8.52 1.62 0.90
-8.47 1.65 0.91
-8.37 1.68 0.92
-6.28 -1.66 0.90
-6.17 -1.62 0.92
-6.23 -1.61 0.91
-6.67 -1.67 0.85
-6.64 -1.64 0.85
-6.89 -1.66 0.81
-6.82 -1.63 0.82
-7.26 -1.68 0.76
-7.05 -1.62 0.79
-6.70 -1.54 0.84
-6.87 -1.54 0.82
-2.53 -0.82 1.45
-3.05 -0.89 1.37
-6.78 -1.46 0.83
-3.03 -0.86 1.38
-2.75 -0.80 1.42
-2.75 -0.79 1.42
-2.77 -0.78 1.42
-6.65 -1.33 0.85
-6.93 -1.35 0.81
-2.76 -0.74 1.42
-2.60 -0.71 1.44
-3.06 -0.76 1.37
-3.05 -0.74 1.38
-2.84 -0.70 1.41
-3.01 -0.71 1.38
-6.90 -1.18 0.82
-3.34 -0.72 1.33
-3.59 -0.74 1.30
-6.66 -1.09 0.85
-7.88 -1.21 0.68
-6.50 -1.03 0.88
-6.69 -1.03 0.85
-8.02 -1.15 0.66
-6.74 -0.99 0.84
-8.02 -1.10 0.66
-7.57 -1.03 0.72
-3.38 -0.59 1.33
-7.71 -0.99 0.70
-7.61 -0.96 0.72
-7.53 -0.93 0.73
-7.27 -0.88 0.77
-7.06 -0.84 0.80
-8.22 -0.91 0.63
-8.26 -0.89 0.63
-5.99 -0.68 0.95
-8.41 -0.85 0.60
-8.41 -0.82 0.60
-6.75 -0.68 0.84
-3.00 -0.39 1.38
-8.28 -0.74 0.62
-8.16 -0.70 0.64
-8.16 -0.68 0.64
-8.32 -0.66 0.62
-8.02 -0.62 0.66
-7.77 -0.58 0.70
-8.19 -0.58 0.64
-8.08 -0.55 0.65
-7.77 -0.51 0.70
-4.43 -0.33 1.18
-4.39 -0.31 1.18
-4.27 -0.29 1.20
-4.48 -0.28 1.17
-4.36 -0.26 1.19
-4.48 -0.25 1.17
-5.79 -0.17 1.33
-5.78 -0.15 1.33
-9.74 -0.20 0.76
-5.59 -0.10 1.36
-10.05 -0.16 0.71
-10.45 -0.11 0.66
-10.45 -0.06 0.65
-10.63 -0.01 0.63
-8.05 0.01 0.58
-7.95 0.03 0.59
-8.21 0.06 0.55
-8.02 0.08 0.58
-8.19 0.11 0.56
-7.91 0.13 0.60
-7.80 0.16 0.61
-7.73 0.18 0.62
-7.78 0.20 0.62
-7.84 0.23 0.61
-7.98 0.26 0.59
-8.83 0.31 0.46
-8.30 0.34 0.54
-8.13 0.36 0.56
-9.30 0.43 0.39
-8.08 0.41 0.57
-8.25 0.45 0.54
-9.16 0.51 0.40
-11.02 0.54 0.48
-11.28 0.61 0.44
-11.66 0.66 0.39
-11.63 0.68 0.39
-11.62 0.71 0.39
-11.36 0.72 0.43
-11.72 0.77 0.37
-11.49 0.79 0.41
-11.71 0.83 0.37
-11.83 0.87 0.36
-11.92 0.90 0.34
-11.82 0.92 0.36
-11.75 0.95 0.37
-12.12 1.00 0.31
-12.07 1.03 0.32
-12.09 1.06 0.31
-5.46 0.51 1.33
-8.84 0.86 0.81
-11.99 1.20 0.33
-12.11 1.24 0.31
-12.02 1.26 0.32
-11.99 1.29 0.32
-12.06 1.32 0.31
-9.47 1.20 0.71
-5.24 0.69 1.36
-8.63 1.57 0.82
-8.78 1.64 0.80
-8.62 1.65 0.82
-6.34 -1.66 0.83
-6.43 -1.64 0.81
-6.65 -1.66 0.78
-6.75 -1.65 0.76
-7.12 -1.67 0.71
-7.05 -1.64 0.72
-6.80 -1.57 0.76
-6.77 -1.54 0.77
-6.79 -1.52 0.76
-6.69 -1.49 0.78
-6.72 -1.47 0.77
-2.06 -0.72 1.49
-6.79 -1.44 0.76
-2.11 -0.70 1.48
-6.58 -1.36 0.80
-6.93 -1.39 0.74
-6.83 -1.35 0.76
-7.01 -1.35 0.73
-6.78 -1.30 0.77
-7.44 -1.37 0.67
-7.07 -1.29 0.72
-7.62 -1.34 0.64
-6.90 -1.23 0.75
-8.88 -1.46 0.45
-7.48 -1.25 0.66
-8.52 -1.36 0.50
-7.98 -1.27 0.59
-7.91 -1.23 0.60
-8.91 -1.32 0.45
-9.22 -1.33 0.40
-8.04 -1.17 0.58
-6.09 -0.94 0.87
-6.52 -0.96 0.81
-8.66 -1.16 0.48
-7.91 -1.06 0.60
-7.04 -0.95 0.73
-7.59 -0.98 0.65
-7.50 -0.95 0.66
-7.94 -0.96 0.60
-8.18 -0.96 0.56
-8.27 -0.94 0.54
-6.14 -0.73 0.87
-8.56 -0.91 0.50
-8.54 -0.88 0.50
-8.62 -0.87 0.49
-8.45 -0.83 0.52
-8.64 -0.81 0.49
-8.46 -0.77 0.52
-8.27 -0.73 0.55
-8.31 -0.71 0.54
-8.32 -0.69 0.54
-8.33 -0.66 0.54
-8.34 -0.64 0.54
-8.46 -0.62 0.52
-8.47 -0.59 0.52
-8.55 -0.57 0.50
-7.84 -0.51 0.61
-8.41 -0.51 0.53
-7.22 -0.43 0.71
-7.75 -0.43 0.62
-8.41 -0.43 0.53
-8.56 -0.41 0.50
-8.73 -0.39 0.48
-8.70 -0.36 0.48
-8.96 -0.35 0.44
-9.63 -0.34 0.34
-9.80 -0.28 0.31
-9.76 -0.25 0.32
-7.71 -0.14 0.63
-7.88 -0.12 0.60
-8.29 -0.04 0.54
-7.84 -0.02 0.61
-9.77 0.01 0.60
-10.69 0.04 0.45
-9.57 0.06 0.63
-9.43 0.08 0.65
-10.98 0.12 0.40
-10.99 0.15 0.40
-11.11 0.17 0.38
-10.84 0.20 0.42
-8.94 0.18 0.73
-9.05 0.25 0.71
-9.10 0.28 0.70
-5.12 0.18 1.34
-8.95 0.33 0.73
-5.33 0.21 1.31
-5.23 0.22 1.32
-5.36 0.24 1.30
-11.02 0.52 0.39
-5.47 0.27 1.28
-7.30 0.38 0.99
-7.46 0.41 0.96
-7.30 0.42 0.99
-5.65 0.34 1.25
-5.57 0.35 1.26
-8.77 0.56 0.75
-5.63 0.38 1.25
-5.64 0.39 1.25
-5.72 0.41 1.24
-6.35 0.47 1.14
-5.89 0.45 1.21
-5.71 0.45 1.24
-5.79 0.47 1.23
-6.30 0.53 1.15
-5.93 0.51 1.20
-6.17 0.57 1.16
-5.90 0.56 1.21
-6.01 0.58 1.19
-6.32 0.62 1.14
-6.15 0.62 1.17
-9.00 0.93 0.71
-6.21 0.66 1.16
-9.29 1.02 0.66
-9.11 1.03 0.69
-8.94 1.03 0.71
-9.10 1.07 0.69
-8.98 1.08 0.71
-9.20 1.13 0.67
-9.15 1.14 0.68
-9.13 1.17 0.68
-9.40 1.22 0.64
-9.39 1.24 0.64
-9.33 1.26 0.65
-9.51 1.31 0.62
-9.47 1.32 0.62
-9.32 1.33 0.65
-9.43 1.37 0.63
-9.42 1.39 0.63
-9.59 1.46 0.60
-10.72 1.66 0.41
-9.58 1.55 0.60
-9.12 1.55 0.67
-9.62 1.66 0.59
-9.16 1.62 0.66
-8.68 1.58 0.74
-8.77 1.62 0.72
-6.28 -1.66 0.76
-6.33 -1.65 0.75
-6.70 -1.67 0.69
-2.16 -0.84 1.43
-6.90 -1.66 0.66
-6.83 -1.63 0.68
-6.98 -1.63 0.65
-2.16 -0.79 1.43
-2.33 -0.81 1.40
-2.32 -0.80 1.40
-6.41 -1.45 0.75
-6.53 -1.44 0.73
-2.50 -0.79 1.38
-2.27 -0.74 1.41
-2.33 -0.74 1.40
-2.79 -0.80 1.33
-2.21 -0.70 1.42
-6.52 -1.31 0.73
-2.79 -0.76 1.33
-6.96 -1.33 0.66
-6.61 -1.26 0.72
-2.95 -0.74 1.30
-2.40 -0.66 1.39
-2.57 -0.67 1.36
-6.64 -1.17 0.71
-2.72 -0.66 1.34
-6.37 -1.10 0.76
-2.48 -0.61 1.38
-2.70 -0.62 1.34
-2.97 -0.64 1.30
-6.37 -1.01 0.76
-3.04 -0.62 1.29
-6.40 -0.97 0.75
-8.53 -1.18 0.41
-2.26 -0.50 1.41
-6.43 -0.91 0.75
-7.93 -1.04 0.51
-7.40 -0.96 0.59
-6.70 -0.87 0.71
-6.59 -0.84 0.72
-8.21 -0.96 0.47
-6.63 -0.80 0.72
-6.43 -0.76 0.75
-6.46 -0.74 0.74
-5.75 -0.67 0.86
-5.45 -0.62 0.91
-5.57 -0.61 0.89
-6.14 -0.64 0.80
-5.68 -0.58 0.87
-8.53 -0.75 0.42
-8.35 -0.72 0.44
-8.45 -0.70 0.43
-8.22 -0.66 0.47
-6.95 -0.56 0.67
-6.69 -0.52 0.71
-8.20 -0.58 0.47
-9.55 -0.49 0.64
-9.54 -0.47 0.64
-9.39 -0.44 0.66
-9.38 -0.42 0.66
-9.56 -0.40 0.63
-9.50 -0.38 0.64
-9.55 -0.35 0.63
-6.03 -0.21 1.20
-9.54 -0.31 0.64
-7.76 -0.23 0.92
-5.50 -0.15 1.28
-5.74 -0.14 1.25
-9.49 -0.21 0.64
-8.34 -0.17 0.83
-6.20 -0.11 1.17
-5.63 -0.09 1.26
-10.67 -0.14 0.45
-10.61 -0.11 0.46
-10.89 -0.09 0.42
-5.43 -0.03 1.29
-5.74 -0.02 1.24
-10.54 -0.01 0.47
-7.20 0.01 0.55
-7.35 0.03 0.52
-8.12 0.06 0.40
-7.69 0.08 0.47
-8.77 0.10 0.69
-5.12 0.08 1.30
-10.05 0.18 0.47
-10.82 0.22 0.34
-9.92 0.23 0.49
-10.40 0.26 0.41
-8.80 0.24 0.68
-5.29 0.16 1.27
-5.43 0.18 1.25
-5.37 0.19 1.26
-5.38 0.20 1.26
-5.29 0.21 1.27
-5.49 0.23 1.24
-5.41 0.24 1.25
-9.10 0.43 0.63
-5.41 0.27 1.25
-5.60 0.29 1.22
-5.52 0.30 1.23
-5.91 0.34 1.17
-5.72 0.34 1.20
-5.56 0.35 1.22
-5.51 0.36 1.23
-5.75 0.38 1.19
-6.46 0.45 1.07
-5.77 0.41 1.19
-5.89 0.44 1.17
-5.97 0.46 1.15
-5.73 0.45 1.19
-5.93 0.48 1.16
-5.83 0.49 1.17
-6.09 0.53 1.13
-6.45 0.57 1.07
-6.45 0.59 1.07
-6.20 0.58 1.11
-6.39 0.61 1.08
-6.41 0.63 1.07
-8.94 0.90 0.65
-6.40 0.66 1.08
-6.15 0.65 1.12
-9.43 1.01 0.56
-9.35 1.03 0.57
-9.20 1.04 0.60
-9.59 1.10 0.53
-6.18 0.73 1.11
-9.46 1.13 0.55
-9.77 1.19 0.50
-9.22 1.15 0.59
-9.70 1.23 0.51
-9.38 1.22 0.57
-9.62 1.27 0.52
-9.45 1.27 0.55
-3.99 0.56 1.48
-9.41 1.31 0.56
-9.43 1.34 0.55
-9.32 1.35 0.57
-9.30 1.37 0.57
-9.34 1.40 0.56
-4.02 0.63 1.47
-9.77 1.51 0.49
-9.47 1.48 0.54
-9.60 1.53 0.52
-9.41 1.59 0.55
-8.76 1.51 0.66
-9.03 1.58 0.61
-9.23 1.65 0.58
-8.28 1.61 0.73
-3.66 0.88 1.52
-4.30 1.68 1.37
-1.95 -1.32 1.42
-6.09 -1.68 0.72
-6.18 -1.68 0.71
-6.25 -1.67 0.70
-6.10 -1.62 0.72
-6.19 -1.62 0.71
-6.23 -1.60 0.70
-6.39 -1.61 0.68
-6.38 -1.59 0.68
-6.71 -1.63 0.62
-6.66 -1.59 0.63
-2.47 -0.85 1.34
-2.39 -0.83 1.36
-2.35 -0.81 1.36
-2.28 -0.79 1.38
-2.35 -0.79 1.36
-2.26 -0.76 1.38
-2.24 -0.75 1.38
-2.31 -0.75 1.37
-6.64 -1.39 0.64
-2.28 -0.72 1.38
-2.59 -0.75 1.32
-2.47 -0.72 1.34
-2.81 -0.76 1.29
-2.90 -0.76 1.27
-2.64 -0.71 1.31
-2.45 -0.67 1.35
-3.03 -0.74 1.25
-2.90 -0.71 1.27
-2.77 -0.68 1.29
-2.76 -0.66 1.29
-2.70 -0.64 1.30
-2.86 -0.65 1.28
-2.60 -0.61 1.32
-2.33 -0.55 1.37
-2.53 -0.56 1.33
-2.36 -0.53 1.36
-6.18 -0.92 0.72
-2.95 -0.57 1.26
-6.20 -0.89 0.72
-3.49 -0.60 1.17
-2.90 -0.53 1.27
-6.44 -0.85 0.68
-6.12 -0.80 0.73
-3.34 -0.53 1.20
-3.30 -0.51 1.21
-6.26 -0.75 0.71
-5.93 -0.70 0.77
-5.39 -0.64 0.85
-5.21 -0.60 0.88
-6.23 -0.66 0.71
-5.20 -0.56 0.89
-5.02 -0.53 0.92
-6.67 -0.63 0.64
-6.79 -0.61 0.62
-6.65 -0.58 0.64
-8.28 -0.66 0.37
-6.91 -0.55 0.60
-6.70 -0.52 0.64
-6.73 -0.50 0.63
-6.74 -0.48 0.63
-6.66 -0.45 0.64
-4.27 -0.32 1.04
-4.29 -0.30 1.04
-4.91 -0.31 0.93
-4.50 -0.28 1.00
-4.66 -0.27 0.98
-4.48 -0.25 1.01
-4.42 -0.23 1.02
-4.41 -0.21 1.02
-4.20 -0.19 1.05
-4.03 -0.17 1.08
-4.16 -0.16 1.06
-4.11 -0.14 1.07
-3.94 -0.12 1.10
-3.97 -0.11 1.09
-4.26 -0.09 1.04
-4.81 -0.08 0.95
-6.21 -0.08 0.72
-4.29 -0.04 1.04
-1.57 -0.02 1.49
-6.67 -0.02 0.64
-9.52 0.04 0.48
-8.62 0.05 0.64
-8.70 0.07 0.63
-9.48 0.17 0.49
-9.63 0.20 0.46
-9.60 0.22 0.47
-8.95 0.23 0.58
-9.00 0.25 0.57
-8.95 0.27 0.58
-8.87 0.29 0.60
-7.39 0.26 0.85
-8.95 0.33 0.58
-7.21 0.29 0.89
-7.20 0.31 0.89
-7.04 0.32 0.92
-10.09 0.47 0.38
-9.15 0.45 0.54
-9.12 0.47 0.55
-9.03 0.49 0.56
-9.07 0.51 0.56
-9.34 0.55 0.51
-6.72 0.42 0.97
-6.75 0.43 0.97
-9.07 0.60 0.55
-6.78 0.47 0.96
-8.69 0.62 0.62
-6.71 0.50 0.97
-6.34 0.49 1.04
-6.76 0.53 0.96
-6.44 0.52 1.02
-6.38 0.54 1.03
-6.48 0.56 1.01
-6.59 0.58 0.99
-6.41 0.58 1.02
-6.58 0.62 0.99
-6.45 0.62 1.01
-6.40 0.63 1.02
-6.50 0.66 1.00
-6.48 0.67 1.01
-9.45 1.00 0.48
-9.48 1.02 0.47
-6.08 0.68 1.08
-6.10 0.69 1.07
-9.37 1.08 0.49
-6.07 0.72 1.08
-9.50 1.14 0.46
-9.51 1.16 0.46
-6.32 0.80 1.03
-9.52 1.21 0.46
-9.51 1.23 0.46
-9.55 1.26 0.45
-9.41 1.27 0.48
-9.52 1.30 0.46
-9.60 1.34 0.44
-9.45 1.34 0.47
-9.38 1.36 0.48
-9.42 1.39 0.47
-9.38 1.40 0.48
-9.43 1.43 0.47
-9.47 1.46 0.46
-9.78 1.53 0.40
-9.60 1.60 0.43
-9.81 1.69 0.39
-8.38 1.49 0.65
-5.61 -1.67 0.73
-5.70 -1.67 0.72
-5.86 -1.68 0.69
-5.92 -1.67 0.68
-6.01 -1.67 0.67
-6.02 -1.65 0.66
-6.12 -1.65 0.65
-6.07 -1.62 0.66
-6.10 -1.60 0.65
-6.14 -1.59 0.64
-6.09 -1.56 0.65
-6.02 -1.53 0.67
-6.11 -1.52 0.65
-6.17 -1.51 0.64
-2.65 -0.89 1.27
-6.49 -1.52 0.58
-6.64 -1.53 0.56
-2.76 -0.87 1.25
-6.60 -1.48 0.57
-2.17 -0.75 1.35
-6.70 -1.45 0.55
-2.38 -0.76 1.32
-2.43 -0.75 1.31
-2.84 -0.80 1.23
-2.73 -0.78 1.25
-2.90 -0.79 1.22
-2.97 -0.78 1.21
-2.86 -0.75 1.23
-2.97 -0.76 1.21
-2.96 -0.74 1.21
-3.30 -0.78 1.15
-2.83 -0.70 1.24
-3.10 -0.72 1.19
-2.74 -0.66 1.25
-2.71 -0.65 1.26
-2.69 -0.63 1.26
-2.97 -0.65 1.21
-2.97 -0.64 1.21
-2.86 -0.61 1.23
-2.56 -0.57 1.29
-3.09 -0.61 1.19
-2.83 -0.57 1.24
-3.11 -0.59 1.19
-3.40 -0.60 1.14
-6.58 -0.90 0.58
-3.36 -0.57 1.15
-3.24 -0.55 1.17
-6.46 -0.83 0.60
-6.16 -0.78 0.65
-6.45 -0.78 0.60
-6.20 -0.74 0.65
-6.15 -0.72 0.65
-6.32 -0.71 0.62
-6.37 -0.69 0.62
-6.77 -0.70 0.55
-6.70 -0.67 0.56
-6.78 -0.66 0.54
-6.55 -0.62 0.58
-6.74 -0.61 0.55
-7.41 -0.63 0.43
-6.51 -0.55 0.59
-6.89 -0.55 0.52
-6.50 -0.51 0.59
-6.69 -0.50 0.56
-6.55 -0.47 0.58
-6.69 -0.46 0.56
-6.59 -0.43 0.58
-4.54 -0.32 0.94
-4.96 -0.32 0.86
-4.52 -0.28 0.94
-4.65 -0.27 0.92
-4.79 -0.26 0.89
-4.59 -0.23 0.93
-4.21 -0.20 0.99
-4.70 -0.20 0.91
-5.21 -0.20 0.82
-4.64 -0.17 0.92
-5.66 -0.17 0.74
-5.70 -0.15 0.73
-5.95 -0.14 0.69
-8.67 -0.11 0.63
-8.45 -0.09 0.67
-9.57 -0.06 0.47
-5.04 -0.02 1.27
-9.41 -0.01 0.50
-1.00 0.00 1.53
-1.16 0.01 1.50
-1.15 0.02 1.50
-1.17 0.03 1.49
-1.28 0.04 1.48
-1.61 0.05 1.41
-1.38 0.06 1.46
-7.48 0.17 0.33
-1.28 0.07 1.47
-1.61 0.09 1.41
-1.64 0.10 1.41
-1.12 0.10 1.50
-5.50 0.17 1.14
-9.00 0.29 0.49
-8.84 0.31 0.52
-7.20 0.27 0.83
-7.16 0.28 0.83
-7.53 0.32 0.77
-7.62 0.34 0.75
-9.44 0.44 0.41
-9.69 0.48 0.36
-6.00 0.31 1.05
-6.21 0.34 1.01
-7.18 0.41 0.83
-6.42 0.38 0.97
-6.55 0.40 0.94
-5.94 0.38 1.06
-8.89 0.59 0.51
-6.71 0.46 0.91
-6.62 0.47 0.93
-8.43 0.62 0.59
-3.95 0.31 1.43
-8.85 0.69 0.51
-8.80 0.71 0.52
-6.33 0.53 0.98
-6.16 0.53 1.01
-6.19 0.55 1.01
-6.27 0.57 0.99
-6.42 0.60 0.96
-4.17 0.40 1.38
-9.56 0.94 0.38
-9.45 0.95 0.40
-4.06 0.43 1.40
-9.47 0.99 0.39
-9.21 0.99 0.44
-4.65 0.52 1.29
-4.10 0.47 1.39
-4.33 0.51 1.35
-4.29 0.52 1.36
-5.02 0.62 1.22
-4.34 0.55 1.34
-4.36 0.56 1.34
-4.12 0.54 1.38
-9.61 1.27 0.36
-4.32 0.59 1.35
-3.99 0.56 1.41
-9.27 1.29 0.42
-3.92 0.57 1.42
-9.43 1.36 0.39
-3.95 0.59 1.41
-9.60 1.43 0.35
-9.38 1.45 0.39
-9.39 1.47 0.39
-7.86 1.49 0.67
-5.82 -1.67 0.63
-5.91 -1.67 0.61
-5.95 -1.66 0.60
-6.13 -1.67 0.57
-6.13 -1.65 0.57
-6.10 -1.62 0.58
-6.22 -1.62 0.55
-6.11 -1.58 0.57
-6.13 -1.56 0.57
-6.34 -1.58 0.53
-6.63 -1.61 0.48
-6.55 -1.58 0.49
-2.33 -0.83 1.28
-2.48 -0.84 1.25
-6.36 -1.48 0.53
-2.33 -0.79 1.28
-2.28 -0.78 1.29
-2.11 -0.74 1.32
-2.23 -0.74 1.30
-2.34 -0.75 1.28
-2.11 -0.70 1.32
-2.54 -0.76 1.25
-2.39 -0.72 1.27
-2.56 -0.74 1.24
-2.30 -0.69 1.29
-2.44 -0.69 1.26
-2.41 -0.68 1.27
-2.53 -0.68 1.25
-2.39 -0.65 1.27
-2.50 -0.66 1.25
-2.33 -0.62 1.29
-2.56 -0.64 1.24
-2.42 -0.61 1.27
-2.57 -0.62 1.24
-2.63 -0.61 1.23
-2.48 -0.58 1.26
-2.62 -0.58 1.23
-2.74 -0.58 1.21
-2.89 -0.59 1.18
-2.55 -0.54 1.25
-2.63 -0.54 1.23
-2.87 -0.55 1.19
-3.09 -0.56 1.14
-2.65 -0.50 1.23
-2.86 -0.50 1.19
-3.21 -0.50 1.12
-6.34 -0.73 0.54
-6.56 -0.71 0.50
-3.14 -0.43 1.14
-6.71 -0.67 0.48
-6.79 -0.66 0.46
-6.53 -0.62 0.51
-6.81 -0.62 0.46
-6.87 -0.60 0.45
-4.72 -0.44 0.84
-6.63 -0.54 0.49
-4.31 -0.39 0.92
-4.55 -0.38 0.88
-4.38 -0.36 0.91
-6.72 -0.45 0.47
-4.82 -0.34 0.83
-6.67 -0.41 0.48
-6.56 -0.38 0.50
-4.00 -0.26 0.98
-4.22 -0.25 0.94
-4.04 -0.23 0.97
-4.38 -0.23 0.91
-6.96 -0.29 0.43
-4.03 -0.18 0.97
-4.85 -0.19 0.82
-4.23 -0.16 0.93
-4.22 -0.14 0.93
-4.40 -0.13 0.90
-4.21 -0.11 0.94
-4.34 -0.09 0.91
-4.16 -0.08 0.94
-4.57 -0.06 0.87
-1.25 -0.03 1.48
-1.78 -0.02 1.38
-1.21 -0.01 1.49
-8.67 0.01 0.48
-8.80 0.03 0.46
-7.20 0.04 0.77
-8.99 0.08 0.42
-5.45 0.06 1.10
-5.42 0.07 1.11
-8.71 0.14 0.47
-9.32 0.17 0.35
-9.24 0.19 0.37
-8.63 0.20 0.49
-9.12 0.23 0.39
-5.50 0.15 1.09
-5.55 0.17 1.08
-9.26 0.30 0.36
-9.28 0.32 0.36
-9.28 0.35 0.36
-9.16 0.36 0.38
-5.62 0.24 1.07
-9.28 0.41 0.36
-5.68 0.27 1.05
-5.80 0.29 1.03
-5.82 0.30 1.03
-6.12 0.33 0.97
-5.67 0.32 1.05
-5.78 0.35 1.03
-6.18 0.38 0.96
-6.26 0.42 0.94
-8.45 0.58 0.51
-8.91 0.66 0.42
-8.91 0.68 0.42
-6.35 0.50 0.92
-6.48 0.53 0.89
-6.66 0.56 0.86
-6.20 0.54 0.95
-6.50 0.58 0.89
-6.15 0.56 0.96
-6.14 0.58 0.96
-5.99 0.58 0.99
-6.07 0.60 0.97
-6.22 0.63 0.94
-6.19 0.67 0.94
-6.16 0.69 0.95
-8.89 1.00 0.42
-4.42 0.52 1.29
-4.62 0.56 1.25
-6.15 0.76 0.95
-9.27 1.16 0.34
-7.79 1.37 0.61
-7.84 1.43 0.60
-7.88 1.46 0.59
-8.69 1.65 0.43
-8.46 1.63 0.47
-5.29 -1.61 0.65
-5.19 -1.57 0.67
-5.25 -1.56 0.66
-6.20 -1.67 0.48
-6.30 -1.66 0.46
-6.33 -1.65 0.45
-6.21 -1.61 0.48
-2.74 -0.95 1.16
-6.16 -1.55 0.49
-5.97 -1.50 0.52
-5.96 -1.48 0.53
-5.82 -1.43 0.56
-5.81 -1.41 0.56
-5.87 -1.40 0.55
-5.97 -1.40 0.53
-2.59 -0.83 1.19
-2.39 -0.78 1.23
-2.41 -0.78 1.22
-2.52 -0.78 1.20
-2.62 -0.78 1.18
-2.41 -0.74 1.22
-2.55 -0.75 1.20
-2.45 -0.72 1.22
-2.59 -0.73 1.19
-2.53 -0.71 1.20
-2.61 -0.71 1.18
-6.45 -1.21 0.44
-6.43 -1.17 0.44
-6.76 -1.19 0.38
-6.88 -1.18 0.36
-6.96 -1.17 0.34
-3.12 -0.68 1.08
-3.18 -0.68 1.07
-2.84 -0.62 1.14
-2.91 -0.62 1.13
-2.88 -0.60 1.13
-3.21 -0.63 1.07
-3.05 -0.60 1.10
-3.21 -0.60 1.07
-3.12 -0.58 1.09
-3.18 -0.57 1.08
-6.70 -0.90 0.40
-6.07 -0.73 0.52
-6.24 -0.73 0.48
-6.30 -0.71 0.47
-6.31 -0.69 0.47
-5.93 -0.64 0.55
-5.52 -0.59 0.62
-6.25 -0.62 0.48
-6.62 -0.63 0.41
-4.88 -0.49 0.75
-6.88 -0.60 0.36
-6.78 -0.57 0.38
-4.51 -0.42 0.82
-4.53 -0.40 0.82
-4.96 -0.41 0.73
-4.43 -0.36 0.83
-4.53 -0.35 0.82
-4.60 -0.34 0.80
-4.27 -0.30 0.86
-3.87 -0.27 0.94
-3.96 -0.26 0.92
-6.52 -0.34 0.43
-6.52 -0.32 0.43
-8.27 -0.25 0.56
-8.19 -0.23 0.58
-8.08 -0.20 0.60
-8.34 -0.19 0.54
-8.12 -0.17 0.59
-8.44 -0.15 0.53
-8.29 -0.13 0.55
-8.48 -0.11 0.52
-8.19 -0.09 0.57
-8.38 -0.07 0.54
-8.47 -0.05 0.52
-8.51 -0.03 0.51
-8.59 -0.01 0.49
-1.05 0.00 1.46
-0.93 0.01 1.48
-1.14 0.02 1.44
-1.10 0.03 1.45
-1.00 0.03 1.47
-1.13 0.04 1.44
-4.69 0.11 0.72
-4.55 0.12 0.75
-5.67 0.18 0.52
-1.21 0.09 1.42
-1.21 0.10 1.42
-6.27 0.26 0.40
-4.62 0.23 0.74
-4.85 0.25 0.69
-5.25 0.28 0.61
-4.48 0.27 0.76
-1.23 0.16 1.42
-2.81 0.25 1.10
-6.55 0.34 0.83
-5.57 0.30 1.03
-5.56 0.32 1.03
-5.46 0.32 1.05
-5.71 0.35 1.00
-5.75 0.37 0.99
-5.62 0.38 1.02
-6.22 0.43 0.90
-6.45 0.49 0.85
-6.14 0.50 0.91
-5.76 0.48 0.99
-5.87 0.51 0.97
-5.77 0.53 0.99
-3.92 0.38 1.36
-4.26 0.42 1.29
-4.12 0.42 1.32
-4.27 0.45 1.29
-4.25 0.45 1.29
-3.96 0.43 1.35
-4.06 0.45 1.33
-4.05 0.46 1.33
-4.17 0.49 1.31
-3.72 0.45 1.40
-3.70 0.45 1.40
-4.20 0.52 1.30
-3.61 0.46 1.42
-3.70 0.48 1.40
-3.50 0.49 1.44
-3.90 0.56 1.36
-3.63 0.53 1.41
-3.31 0.68 1.47
-5.17 1.16 1.08
-4.53 1.44 1.18
-4.41 -1.33 0.77
-6.19 -1.57 0.41
-6.34 -1.58 0.38
-6.17 -1.53 0.42
-6.18 -1.51 0.41
-5.88 -1.44 0.48
-5.90 -1.42 0.47
-5.91 -1.40 0.47
-5.70 -1.35 0.51
-1.89 -0.71 1.29
-5.88 -1.31 0.48
-2.10 -0.71 1.25
-1.91 -0.67 1.29
-2.27 -0.71 1.21
-1.87 -0.64 1.30
-2.08 -0.66 1.25
-2.16 -0.67 1.24
-2.05 -0.64 1.26
-2.21 -0.65 1.23
-2.30 -0.65 1.21
-2.52 -0.67 1.16
-2.64 -0.67 1.14
-2.18 -0.60 1.23
-2.35 -0.61 1.20
-2.54 -0.62 1.16
-2.19 -0.57 1.23
-2.29 -0.57 1.21
-2.49 -0.58 1.17
-2.46 -0.57 1.18
-2.57 -0.57 1.15
-2.53 -0.55 1.16
-2.50 -0.53 1.17
-2.48 -0.52 1.17
-2.66 -0.53 1.14
-2.26 -0.45 1.22
-3.63 -0.54 0.94
-2.81 -0.44 1.11
-2.70 -0.42 1.13
-4.56 -0.52 0.75
-5.25 -0.55 0.61
-3.93 -0.44 0.88
-3.77 -0.42 0.91
-4.07 -0.42 0.85
-3.44 -0.37 0.98
-3.59 -0.36 0.95
-3.32 -0.33 1.00
-3.93 -0.35 0.88
-3.84 -0.33 0.90
-3.61 -0.30 0.94
-3.47 -0.28 0.97
-3.49 -0.27 0.97
-3.52 -0.25 0.96
-3.55 -0.24 0.96
-4.26 -0.25 0.81
-3.64 -0.22 0.94
-3.36 -0.19 0.99
-3.63 -0.19 0.94
-3.75 -0.18 0.92
-3.74 -0.16 0.92
-3.70 -0.14 0.93
-4.00 -0.14 0.87
-3.96 -0.12 0.87
-4.19 -0.11 0.83
-1.16 -0.05 1.44
-1.11 -0.04 1.45
-0.94 -0.03 1.48
-0.84 -0.02 1.50
-1.04 -0.02 1.46
-1.18 -0.01 1.43
-7.06 0.01 0.66
-8.23 0.03 0.41
-8.38 0.05 0.38
-5.47 0.05 1.00
-5.31 0.06 1.03
-5.58 0.08 0.97
-5.52 0.09 0.99
-5.42 0.10 1.01
-5.18 0.11 1.06
-8.28 0.19 0.40
-8.12 0.21 0.43
-8.12 0.23 0.43
-8.18 0.25 0.42
-6.20 0.20 0.84
-6.20 0.22 0.84
-5.91 0.22 0.90
-5.32 0.21 1.02
-5.67 0.24 0.95
-6.20 0.28 0.84
-5.86 0.28 0.91
-5.83 0.29 0.91
-5.66 0.30 0.95
-8.06 0.44 0.44
-7.88 0.45 0.48
-7.87 0.47 0.48
-6.12 0.38 0.85
-5.74 0.37 0.93
-5.93 0.40 0.89
-6.00 0.42 0.88
-5.85 0.42 0.91
-5.88 0.44 0.90
-5.78 0.44 0.92
-5.88 0.47 0.90
-5.83 0.48 0.91
-5.82 0.49 0.91
-5.97 0.52 0.88
-5.84 0.52 0.91
-5.91 0.56 0.89
-5.86 0.57 0.90
-6.04 0.60 0.86
-5.96 0.62 0.88
-6.32 0.67 0.80
-5.50 0.60 0.97
-5.80 0.66 0.91
-5.73 0.67 0.92
-5.78 0.69 0.91
-7.74 0.95 0.49
-6.14 0.78 0.83
-6.15 0.79 0.83
-4.45 0.60 1.19
-6.21 0.85 0.82
-5.69 0.79 0.93
-6.27 0.88 0.80
-6.20 0.89 0.82
-6.71 1.00 0.71
-6.21 0.94 0.81
-8.04 1.33 0.42
-7.94 1.33 0.44
-7.81 1.35 0.46
-7.70 1.35 0.48
-7.82 1.39 0.46
-7.86 1.42 0.45
-7.93 1.47 0.43
-7.64 1.44 0.49
-5.46 1.05 0.96
-7.83 1.53 0.45
-5.19 1.04 1.02
-7.80 1.57 0.45
-5.21 1.17 1.01
-5.20 1.18 1.01
-4.35 -1.55 0.70
-4.60 -1.57 0.65
-4.27 -1.48 0.72
-3.94 -1.39 0.79
-4.57 -1.50 0.66
-4.09 -1.38 0.76
-4.31 -1.41 0.72
-3.88 -1.30 0.81
-3.93 -1.30 0.80
-4.60 -1.41 0.66
-4.22 -1.32 0.74
-5.55 -1.57 0.45
-1.83 -0.78 1.25
-5.93 -1.49 0.38
-5.52 -1.36 0.47
-5.59 -1.36 0.45
-5.46 -1.31 0.48
-5.28 -1.26 0.52
-2.06 -0.73 1.21
-5.41 -1.25 0.49
-2.33 -0.75 1.15
-2.17 -0.72 1.18
-2.40 -0.72 1.13
-2.38 -0.70 1.14
-2.63 -0.68 1.08
-5.38 -1.01 0.50
-2.75 -0.67 1.06
-5.14 -0.95 0.55
-3.07 -0.68 0.99
-3.00 -0.66 1.01
-2.65 -0.60 1.08
-2.68 -0.57 1.07
-4.81 -0.77 0.62
-5.73 -0.84 0.43
-5.85 -0.78 0.41
-5.48 -0.72 0.48
-5.41 -0.70 0.50
-5.38 -0.67 0.50
-4.43 -0.54 0.71
-4.49 -0.53 0.69
-4.24 -0.50 0.75
-4.16 -0.46 0.76
-4.31 -0.45 0.73
-4.32 -0.44 0.73
-4.09 -0.41 0.78
-3.70 -0.37 0.86
-3.64 -0.35 0.87
-6.31 -0.34 0.82
-8.28 -0.43 0.40
-7.90 -0.33 0.49
-6.64 -0.26 0.75
-7.83 -0.29 0.50
-7.84 -0.27 0.50
-8.11 -0.24 0.44
-8.16 -0.23 0.43
-8.06 -0.20 0.45
-8.00 -0.18 0.46
-7.96 -0.16 0.47
-8.15 -0.15 0.43
-7.89 -0.12 0.49
-7.79 -0.10 0.51
-8.00 -0.09 0.46
-7.98 -0.07 0.47
-7.33 -0.04 0.60
-7.79 -0.03 0.51
-7.98 -0.01 0.47
-4.95 0.00 0.53
-4.70 0.02 0.58
-4.77 0.04 0.57
-4.59 0.05 0.60
-5.02 0.05 1.05
-5.04 0.07 1.04
-4.98 0.08 1.05
-5.17 0.09 1.01
-5.21 0.11 1.00
-5.20 0.12 1.00
-5.46 0.14 0.95
-5.46 0.15 0.95
-5.75 0.17 0.88
-6.14 0.20 0.80
-5.58 0.20 0.92
-5.73 0.22 0.89
-5.65 0.23 0.90
-5.64 0.24 0.91
-5.67 0.25 0.90
-5.68 0.27 0.90
-5.93 0.30 0.84
-5.65 0.29 0.90
-5.56 0.30 0.92
-5.57 0.32 0.92
-5.50 0.33 0.94
-5.55 0.34 0.92
-5.56 0.36 0.92
-5.67 0.38 0.90
-5.69 0.39 0.89
-5.45 0.39 0.94
-5.55 0.41 0.92
-5.57 0.43 0.92
-5.51 0.44 0.93
-5.56 0.45 0.92
-5.66 0.47 0.90
-5.78 0.50 0.87
-5.87 0.52 0.85
-5.60 0.51 0.91
-5.67 0.53 0.89
-5.56 0.54 0.91
-5.64 0.56 0.90
-5.58 0.57 0.91
-5.59 0.58 0.91
-5.43 0.58 0.94
-5.47 0.59 0.93
-5.34 0.59 0.96
-5.12 0.58 1.01
-5.46 0.63 0.93
-5.10 0.61 1.01
-4.97 0.60 1.04
-4.45 0.55 1.16
-4.77 0.60 1.08
-5.74 0.74 0.87
-4.73 0.62 1.09
-4.19 0.56 1.21
-4.28 0.59 1.19
-4.11 0.58 1.23
-4.50 0.64 1.14
-4.53 0.66 1.13
-7.39 1.07 0.49
-4.49 0.67 1.14
-4.34 0.66 1.17
-4.29 0.67 1.19
-7.56 1.19 0.45
-3.76 0.61 1.30
-3.63 0.60 1.33
-7.80 1.31 0.39
-3.45 0.60 1.37
-3.72 0.66 1.31
-7.77 1.36 0.40
-7.57 1.36 0.44
-7.79 1.44 0.39
-4.91 1.01 1.03
-3.59 -1.28 0.82
-3.71 -1.29 0.79
-3.70 -1.28 0.79
-3.85 -1.29 0.76
-3.77 -1.26 0.78
-4.07 -1.30 0.71
-4.07 -1.29 0.71
-4.80 -1.41 0.55
-1.50 -0.75 1.29
-3.96 -1.19 0.74
-1.71 -0.76 1.24
-1.64 -0.74 1.26
-1.87 -0.77 1.21
-1.78 -0.75 1.23
-1.69 -0.72 1.25
-2.06 -0.77 1.16
-5.32 -1.29 0.44
-5.46 -1.25 0.41
-2.07 -0.71 1.16
-2.62 -0.78 1.04
-2.48 -0.68 1.07
-3.05 -0.73 0.95
-2.95 -0.70 0.97
-2.65 -0.65 1.04
-5.43 -0.96 0.42
-2.68 -0.62 1.03
-2.61 -0.60 1.05
-2.74 -0.60 1.02
-2.48 -0.56 1.07
-2.51 -0.55 1.07
-2.68 -0.56 1.03
-5.26 -0.75 0.46
-4.11 -0.58 0.71
-4.27 -0.58 0.68
-3.90 -0.53 0.76
-3.95 -0.52 0.75
-4.16 -0.52 0.70
-4.01 -0.49 0.74
-3.88 -0.47 0.77
-3.95 -0.46 0.75
-3.71 -0.43 0.80
-3.80 -0.42 0.78
-3.49 -0.38 0.85
-3.76 -0.39 0.79
-3.57 -0.36 0.83
-3.54 -0.34 0.84
-3.47 -0.33 0.85
-3.94 -0.34 0.75
-3.71 -0.31 0.80
-3.44 -0.28 0.86
-3.39 -0.26 0.87
-3.37 -0.25 0.88
-3.65 -0.25 0.81
-3.89 -0.24 0.76
-3.75 -0.22 0.79
-3.86 -0.21 0.77
-3.80 -0.19 0.78
-3.87 -0.18 0.77
-4.02 -0.15 0.73
-4.22 -0.09 0.69
-4.25 -0.08 0.68
-6.07 0.18 0.75
-6.35 0.21 0.68
-6.30 0.22 0.70
-6.54 0.25 0.64
-7.48 0.37 0.42
-7.24 0.38 0.47
-7.07 0.39 0.51
-7.04 0.40 0.52
-7.27 0.43 0.46
-7.17 0.44 0.49
-7.29 0.47 0.46
-7.49 0.50 0.41
-6.06 0.45 0.74
-6.15 0.47 0.72
-5.70 0.45 0.83
-5.91 0.48 0.78
-6.04 0.51 0.75
-5.85 0.51 0.79
-5.98 0.53 0.76
-6.50 0.59 0.64
-6.05 0.57 0.74
-5.86 0.56 0.79
-5.97 0.59 0.76
-6.53 0.66 0.63
-6.75 0.70 0.58
-7.17 0.76 0.48
-6.11 0.66 0.72
-7.38 0.82 0.43
-6.41 0.73 0.65
-6.89 0.80 0.54
-7.34 0.96 0.43
-7.20 0.96 0.46
-7.34 1.08 0.43
-5.15 0.79 0.94
-3.55 -1.20 0.76
-5.08 -1.19 0.41
-5.04 -0.79 0.43
-4.52 -0.63 0.55
-4.38 -0.61 0.58
-4.10 -0.56 0.65
-3.90 -0.53 0.69
-4.14 -0.54 0.64
-4.02 -0.51 0.67
-3.95 -0.49 0.68
-4.01 -0.48 0.67
-4.11 -0.47 0.65
-3.93 -0.44 0.69
-3.89 -0.43 0.70
-3.96 -0.41 0.68
-3.63 -0.38 0.76
-3.59 -0.36 0.77
-3.76 -0.36 0.73
-3.70 -0.34 0.74
-3.75 -0.33 0.73
-3.54 -0.27 0.78
-3.82 -0.27 0.71
-3.72 -0.25 0.74
-4.11 -0.16 0.65
-3.97 -0.14 0.68
-3.84 -0.12 0.71
-3.55 -0.10 0.77
-0.63 -1.58 1.15
-2.07 0.91 0.66
-2.67 1.66 0.73
-3.82 0.24 0.69
-4.20 0.47 0.69
-4.14 0.65 0.65
-3.14 0.61 0.60
-3.12 0.67 0.57
-2.23 0.88 0.54
-0.76 -0.95 0.55
-3.20 0.65 0.55
-4.25 0.57 0.40
-3.54 0.36 0.39
-3.93 0.67 0.37
-2.90 0.58 0.41
-4.20 0.47 0.27
-3.38 0.44 0.30
-3.24 0.50 0.31
-3.20 0.54 0.31
-2.85 0.66 0.33
-3.40 0.39 0.27
-3.42 0.45 0.27
-3.34 0.48 0.28
-3.11 0.67 0.27
-3.05 0.46 0.26
-2.81 0.45 0.28
-2.98 0.52 0.26
-2.78 0.48 0.29
-2.37 0.54 0.33
-3.21 0.43 0.22
-3.03 0.43 0.24
-2.58 0.42 0.29
-2.73 0.50 0.27
-2.40 0.49 0.31
-2.52 0.60 0.29
-2.47 0.61 0.30
-2.30 0.56 0.32
-3.04 0.43 0.22
-2.90 0.42 0.24
-3.01 0.49 0.22
-2.98 0.52 0.22
-2.76 0.48 0.25
-2.73 0.50 0.26
-2.68 0.51 0.26
-2.47 0.47 0.29
-2.45 0.50 0.29
-2.41 0.51 0.29
-2.56 0.58 0.27
-2.51 0.58 0.28
-2.47 0.60 0.28
-2.25 0.66 0.30
-2.05 0.60 0.33
-1.96 0.61 0.34
-2.87 0.39 0.22
-2.97 0.46 0.21
-2.96 0.49 0.21
-2.76 0.48 0.23
-2.71 0.48 0.24
-2.43 0.48 0.28
-2.41 0.51 0.28
-2.36 0.52 0.29
-2.34 0.55 0.29
-2.29 0.56 0.29
-2.25 0.55 0.30
-2.35 0.67 0.28
-2.17 0.58 0.31
-2.13 0.58 0.31
-2.09 0.59 0.32
-2.10 0.63 0.31
-2.05 0.61 0.32
-2.00 0.60 0.32
-1.96 0.62 0.33
-2.88 0.40 0.20
-2.80 0.45 0.21
-2.77 0.48 0.22
-2.72 0.48 0.22
-2.72 0.50 0.22
-2.67 0.50 0.23
-2.47 0.47 0.26
-2.44 0.49 0.26
-2.40 0.50 0.27
-2.36 0.50 0.27
-2.37 0.52 0.27
-2.25 0.55 0.28
-2.40 0.66 0.26
-2.21 0.58 0.29
-2.17 0.58 0.29
-2.13 0.58 0.30
-2.25 0.67 0.28
-2.09 0.59 0.30
-2.23 0.72 0.28
-2.05 0.62 0.31
-2.00 0.61 0.31
-1.96 0.61 0.32
-2.75 0.46 0.20
-2.73 0.50 0.20
-2.67 0.50 0.21
-2.53 0.47 0.23
-2.47 0.47 0.24
-2.44 0.49 0.25
-2.45 0.51 0.24
-2.40 0.50 0.25
-2.37 0.52 0.26
-2.21 0.57 0.28
-2.17 0.58 0.28
-2.13 0.58 0.29
-2.13 0.62 0.28
-2.09 0.60 0.29
-2.04 0.60 0.30
-2.01 0.63 0.30
-1.96 0.61 0.31
-1.92 0.60 0.31
-1.92 0.63 0.31
-2.55 0.43 0.22
-2.52 0.47 0.22
-2.63 0.52 0.20
-2.43 0.47 0.23
-2.44 0.49 0.23
-2.39 0.48 0.24
-2.32 0.51 0.25
-2.33 0.53 0.25
-2.24 0.55 0.26
-2.27 0.59 0.25
-2.21 0.58 0.26
-2.17 0.58 0.27
-2.30 0.67 0.24
-2.13 0.59 0.27
-2.09 0.59 0.28
-2.05 0.62 0.28
-2.01 0.60 0.29
-1.97 0.61 0.29
-1.92 0.63 0.30
-2.43 0.47 0.22
-2.35 0.50 0.23
-2.16 0.44 0.27
-2.33 0.53 0.23
-2.29 0.56 0.24
-2.24 0.55 0.25
-2.39 0.64 0.21
-2.21 0.57 0.25
-2.36 0.67 0.22
-2.36 0.69 0.22
-2.09 0.60 0.27
-2.04 0.59 0.27
-2.00 0.60 0.28
-2.00 0.63 0.28
-1.97 0.63 0.28
-1.92 0.62 0.29
-2.29 0.54 0.22
-2.30 0.56 0.22
-2.25 0.55 0.23
-2.26 0.57 0.23
-2.21 0.58 0.24
-2.21 0.59 0.23
-2.17 0.58 0.24
-2.09 0.59 0.26
-2.15 0.64 0.24
-2.04 0.60 0.26
-2.00 0.60 0.27
-1.96 0.64 0.27
-1.92 0.65 0.28
-0.64 -0.72 0.32
-0.65 -0.73 0.32
-0.67 -0.75 0.32
-0.73 -0.84 0.31
-0.98 -0.94 0.31
-1.02 -0.88 0.31
-1.07 -1.17 0.27
-1.13 -0.96 0.30
-2.28 0.54 0.21
-2.30 0.56 0.21
-2.25 0.57 0.22
-2.20 0.56 0.23
-2.18 0.60 0.23
-2.14 0.60 0.23
-2.13 0.62 0.23
-2.09 0.60 0.24
-2.05 0.59 0.25
-2.01 0.60 0.26
-1.97 0.62 0.26
-1.92 0.63 0.27
-0.71 -0.84 0.30
-1.02 -0.89 0.30
-1.17 -0.95 0.29
-2.25 0.57 0.20
-2.09 0.60 0.23
-2.05 0.60 0.24
-2.00 0.59 0.25
-1.96 0.61 0.25
-0.66 -0.73 0.30
-1.02 -0.94 0.28
-2.13 0.60 0.21
-2.09 0.59 0.22
-2.09 0.62 0.22
-2.04 0.60 0.23
-1.96 0.59 0.24
-1.92 0.63 0.25
-1.92 0.65 0.24
-1.93 0.74 0.23
-0.67 -0.45 0.34
-0.65 -0.52 0.33
-0.62 -0.71 0.29
-0.64 -0.72 0.29
-0.66 -0.70 0.30
-0.63 -0.85 0.27
-0.66 -0.96 0.25
-2.04 0.60 0.21
-2.01 0.60 0.22
-1.96 0.58 0.23
-1.92 0.63 0.23
-1.98 0.72 0.21
-0.64 -0.71 0.29
-0.69 -0.69 0.29
-0.67 -0.74 0.28
-0.70 -0.70 0.29
-0.72 -0.69 0.30
-0.67 -0.86 0.26
-0.70 -0.83 0.27
-0.74 -0.83 0.27
-1.08 -0.90 0.27
-2.05 0.60 0.20
-2.00 0.61 0.21
-1.96 0.62 0.22
-1.92 0.63 0.22
-0.67 -0.53 0.31
-0.69 -0.52 0.32
-0.61 -0.70 0.28
-0.63 -0.71 0.28
-0.62 -0.74 0.27
-0.66 -0.70 0.28
-0.68 -0.70 0.28
-0.70 -0.70 0.29
-0.79 -0.82 0.27
-0.84 -0.73 0.29
-0.86 -0.71 0.30
-2.00 0.59 0.20
-1.96 0.61 0.21
-1.92 0.62 0.21
-0.68 -0.56 0.30
-0.64 -0.69 0.27
-0.70 -0.69 0.28
-0.69 -0.71 0.27
-0.80 -0.91 0.24
-0.83 -0.87 0.25
-1.92 0.60 0.21
-0.69 -0.55 0.29
-0.66 -0.62 0.28
-0.62 -0.73 0.25
-0.67 -0.71 0.26
-0.69 -0.71 0.26
-0.82 -0.74 0.27
-0.65 -0.55 0.28
-0.63 -0.59 0.27
-0.67 -0.55 0.28
-0.68 -0.55 0.29
-0.68 -0.56 0.28
-0.63 -0.72 0.24
-0.65 -0.71 0.25
-0.69 -0.71 0.25
-0.81 -0.89 0.23
-0.85 -0.84 0.24
-0.68 -0.43 0.30
-0.66 -0.52 0.28
-0.64 -0.70 0.24
-0.66 -0.72 0.24
-0.68 -0.73 0.24
-0.63 -0.85 0.21
-0.81 -0.76 0.25
-0.95 -0.79 0.25
-1.61 -0.77 0.21
-0.61 -0.58 0.25
-0.67 -0.52 0.27
-0.66 -0.56 0.27
-0.76 -0.49 0.29
-0.63 -0.72 0.22
-0.66 -0.70 0.23
-0.66 -0.71 0.23
-0.67 -0.71 0.23
-0.71 -0.71 0.24
-0.79 -0.59 0.28
-0.91 -0.79 0.24
-1.21 -0.93 0.20
-1.39 -0.78 0.23
-0.68 -0.42 0.29
-0.68 -0.56 0.26
-0.62 -0.72 0.21
-0.63 -0.72 0.21
-0.64 -0.72 0.22
-0.70 -0.67 0.24
-0.73 -0.64 0.25
-0.68 -0.73 0.22
-0.69 -0.73 0.22
-0.71 -0.80 0.20
-0.81 -0.73 0.24
-0.81 -0.76 0.23
-0.85 -0.70 0.25
-0.65 -0.71 0.21
-0.66 -0.71 0.21
-0.68 -0.69 0.22
-0.68 -0.72 0.21
-0.65 -0.49 0.25
-0.77 -0.51 0.27
-0.66 -0.71 0.20
-0.82 -0.74 0.21
-0.69 -0.68 0.21
-0.72 -0.71 0.20
-0.58 -0.30 0.25
-0.61 -0.55 0.21
-0.67 -0.52 0.23
-0.74 -0.68 0.20
-0.87 -0.62 0.24
-0.85 -0.69 0.21
-0.87 -0.69 0.21
-0.67 -0.50 0.21
-0.75 -0.17 0.26
-14.12 -0.97 1.51
-14.32 -0.98 1.36
-14.23 -0.90 1.30
-12.60 -0.70 1.38
-14.20 -0.70 1.30
-12.11 -0.79 1.34
-14.10 -0.69 1.22
-14.16 -0.66 1.22
-13.98 -0.61 1.23
-14.12 -0.18 1.35
-14.03 -0.15 1.35
-14.92 -0.27 1.09
-15.30 -0.19 1.07
-12.16 -0.93 1.19
-12.06 -0.89 1.20
-11.91 -0.54 1.21
-13.87 -0.38 1.23
-14.22 -0.35 1.20
-14.29 -0.32 1.20
-15.95 -0.28 1.09
-15.41 0.06 0.88
-12.14 -0.65 1.12
-14.40 -0.63 0.95
-14.48 -0.59 0.95
-15.74 0.02 0.92
-12.56 -1.46 1.00
-10.99 -1.02 1.12
-10.66 -0.96 1.15
-10.53 -0.89 1.16
-10.58 -0.83 1.16
-5.64 -0.50 1.54
-11.12 -0.80 1.11
-12.05 -0.82 1.04
-13.15 -0.61 1.13
-12.98 -0.57 1.15
-13.15 -0.55 1.13
-13.04 -0.51 1.14
-14.37 -0.53 1.04
-14.60 -0.50 1.02
-13.61 -0.37 1.10
-15.20 -0.31 0.97
-9.16 -1.13 1.21
-10.89 -1.01 1.06
-12.64 -1.10 0.92
-10.98 -0.92 1.06
-6.43 -0.57 1.44
-10.68 -0.80 1.08
-12.29 -0.87 0.95
-12.03 -0.75 0.97
-12.26 -0.69 0.95
-14.90 -0.77 0.73
-12.24 -0.62 0.95
-12.41 -0.59 0.94
-12.38 -0.55 0.94
-12.06 -0.51 0.97
-11.91 -0.47 0.98
-13.15 -0.47 0.88
-11.74 -0.26 0.99
-11.70 -0.22 1.00
-11.41 -0.15 1.02
-11.36 1.69 1.12
-12.63 -1.18 0.82
-10.68 -0.99 1.00
-12.46 -1.09 0.84
-12.61 -1.07 0.82
-12.84 -1.04 0.80
-11.34 -0.91 0.94
-10.53 -0.83 1.01
-12.54 -0.92 0.83
-12.25 -0.83 0.85
-12.51 -0.81 0.83
-12.11 -0.75 0.87
-12.20 -0.72 0.86
-8.09 -0.50 1.23
-7.93 -0.46 1.24
-12.20 -0.62 0.86
-12.28 -0.58 0.85
-12.58 -0.56 0.83
-12.73 -0.53 0.81
-13.05 -0.50 0.78
-8.70 -0.34 1.17
-12.94 -0.43 0.79
-12.59 -0.34 0.82
-11.24 0.04 0.87
-15.91 0.19 0.42
-15.77 0.24 0.44
-11.17 0.24 0.87
-9.27 -1.45 1.05
-9.04 -1.39 1.08
-9.65 -1.29 1.02
-9.47 -1.24 1.04
-10.67 -0.99 0.92
-12.79 -1.11 0.72
-10.66 -0.90 0.92
-12.20 -0.97 0.78
-12.09 -0.92 0.79
-12.15 -0.89 0.78
-12.33 -0.87 0.77
-12.45 -0.84 0.75
-12.16 -0.79 0.78
-8.38 -0.56 1.14
-12.19 -0.72 0.78
-12.24 -0.69 0.77
-12.62 -0.67 0.74
-12.30 -0.62 0.77
-12.18 -0.58 0.78
-12.21 -0.55 0.78
-13.06 -0.54 0.70
-12.83 -0.50 0.72
-12.84 -0.46 0.72
-12.56 -0.42 0.74
-13.07 -0.39 0.70
-11.64 -0.29 0.83
-11.28 -0.22 0.87
-11.70 -0.19 0.83
-11.44 -0.15 0.85
-13.96 0.12 0.74
-15.73 0.51 0.55
-12.05 1.29 0.92
-9.17 -1.53 0.99
-9.62 -1.55 0.94
-9.12 -1.46 0.99
-9.36 -1.46 0.97
-9.95 -1.45 0.91
-9.45 -1.36 0.96
-9.84 -1.38 0.92
-9.80 -1.34 0.93
-9.70 -1.30 0.94
-9.38 -1.24 0.97
-9.41 -1.18 0.97
-12.64 -1.21 0.64
-12.38 -1.16 0.66
-12.74 -1.15 0.63
-13.57 -1.17 0.54
-12.48 -1.06 0.65
-8.12 -0.73 1.10
-8.16 -0.70 1.09
-12.83 -0.94 0.62
-12.27 -0.87 0.68
-12.18 -0.83 0.69
-11.97 -0.78 0.71
-12.20 -0.76 0.68
-12.28 -0.73 0.67
-8.41 -0.51 1.07
-12.09 -0.61 0.69
-12.22 -0.58 0.68
-12.24 -0.55 0.68
-12.34 -0.52 0.67
-10.11 -0.33 1.13
-13.62 -0.41 0.77
-13.37 -0.37 0.80
-13.19 -0.33 0.82
-9.39 -0.21 1.21
-13.07 -0.26 0.83
-13.77 -0.24 0.76
-14.44 -0.22 0.69
-12.52 -0.16 0.89
-13.64 -0.15 0.77
-12.16 -0.10 0.92
-10.43 0.04 0.78
-13.19 0.09 0.48
-13.34 0.13 0.46
-9.60 -1.26 0.87
-10.48 -0.92 0.77
-8.32 -0.74 1.01
-12.96 -1.02 0.50
-12.95 -0.94 0.51
-13.08 -0.91 0.49
-13.18 -0.84 0.48
-12.27 -0.69 0.58
-12.55 -0.67 0.55
-12.56 -0.63 0.55
-13.48 -0.63 0.45
-11.93 -0.54 0.62
-12.22 -0.51 0.59
-11.90 -0.47 0.62
-11.81 -0.40 0.63
-13.91 -0.41 0.40
-11.08 -0.21 0.71
-14.28 0.16 0.51
-11.59 0.63 0.82
-14.98 0.99 0.42
-8.86 -1.40 0.87
-9.03 -1.40 0.85
-9.81 -1.46 0.76
-9.73 -1.39 0.77
-9.57 -1.32 0.79
-9.58 -1.29 0.79
-9.24 -1.22 0.82
-12.95 -1.24 0.40
-13.33 -1.19 0.36
-8.36 -0.77 0.93
-8.16 -0.73 0.95
-8.21 -0.71 0.94
-13.09 -0.95 0.38
-8.06 -0.62 0.96
-13.73 -0.91 0.31
-13.30 -0.71 0.63
-13.46 -0.69 0.61
-13.60 -0.67 0.59
-12.95 -0.60 0.67
-13.14 -0.58 0.65
-9.24 -0.39 1.10
-13.13 -0.52 0.65
-9.12 -0.34 1.11
-9.48 -0.33 1.07
-13.24 -0.43 0.63
-12.96 -0.39 0.67
-12.91 -0.35 0.67
-12.93 -0.32 0.67
-12.80 -0.29 0.69
-12.41 -0.25 0.73
-13.16 -0.23 0.64
-12.72 -0.20 0.69
-9.95 -0.13 1.02
-9.72 -0.10 1.04
-12.12 -0.10 0.76
-7.52 -0.01 1.30
-9.95 0.04 0.66
-14.14 0.15 0.43
-14.83 0.27 0.35
-15.16 0.31 0.31
-10.75 0.27 0.85
-11.43 0.62 0.76
-11.58 0.82 0.74
-9.76 1.12 0.96
-13.12 1.60 0.54
-12.92 1.64 0.56
-13.08 1.69 0.54
-10.88 1.60 0.81
-9.95 -1.68 0.66
-9.92 -1.65 0.66
-6.69 -1.20 1.06
-9.70 -1.56 0.69
-9.82 -1.52 0.67
-9.72 -1.45 0.69
-9.33 -1.37 0.73
-9.37 -1.35 0.73
-8.97 -1.28 0.78
-9.21 -1.27 0.75
-8.30 -0.79 0.86
-8.20 -0.76 0.88
-8.20 -0.73 0.88
-12.61 -0.99 0.34
-8.31 -0.69 0.86
-8.41 -0.67 0.85
-8.25 -0.61 0.87
