# .PCD v0.7 - Point Cloud Data file format
VERSION 0.7
FIELDS x y z
SIZE 4 4 4
TYPE F F F
COUNT 1 1 1
WIDTH 2863
HEIGHT 1
VIEWPOINT 0 0 0 1 0 0 0
POINTS 2863
DATA ASCII
-15.44 1.58 1.12
-15.33 1.64 1.12
-15.17 1.66 1.14
-12.34 -1.69 1.18
-12.61 -1.54 1.16
-12.84 -1.53 1.14
-12.66 -1.47 1.16
-12.95 -1.39 1.14
-12.98 -1.35 1.14
-12.86 -1.31 1.14
-12.65 -1.18 1.16
-13.06 -1.17 1.13
-7.00 -0.70 1.54
-13.30 -1.12 1.11
-13.28 -1.08 1.12
-13.46 -1.05 1.10
-13.56 -0.98 1.10
-13.94 -0.96 1.07
-14.31 -0.95 1.05
-8.04 -0.24 1.63
-8.52 -0.24 1.60
-15.48 -0.24 1.13
-15.02 -0.13 1.16
-15.02 -0.09 1.16
-15.23 -0.06 1.14
-7.48 0.01 1.45
-7.66 0.03 1.44
-7.52 0.06 1.45
-7.52 0.08 1.45
-7.57 0.10 1.45
-7.47 0.13 1.45
-7.58 0.15 1.44
-7.48 0.17 1.45
-14.20 0.37 0.96
-13.69 0.44 1.00
-14.54 0.58 0.94
-14.44 0.66 0.94
-14.50 0.70 0.94
-14.55 0.75 0.93
-14.46 0.78 0.94
-15.30 0.75 1.05
-15.39 0.79 1.04
-15.52 0.83 1.04
-15.55 0.87 1.03
-15.51 0.91 1.04
-15.55 0.95 1.03
-9.05 0.60 1.51
-15.19 1.03 1.06
-9.02 0.64 1.51
-15.59 1.13 1.03
-13.71 1.03 1.17
-15.56 1.21 1.03
-9.20 0.74 1.50
-15.24 1.26 1.05
-15.44 1.31 1.04
-15.44 1.35 1.04
-15.05 1.35 1.07
-15.12 1.39 1.06
-15.39 1.46 1.04
-14.88 1.44 1.08
-15.10 1.50 1.06
-1.34 -0.84 1.90
-12.65 -1.58 1.08
-12.70 -1.54 1.07
-12.60 -1.50 1.08
-12.73 -1.47 1.07
-12.68 -1.43 1.07
-12.73 -1.40 1.07
-12.71 -1.36 1.07
-12.56 -1.28 1.08
-12.78 -1.26 1.07
-12.95 -1.13 1.05
-13.52 -1.05 1.01
-13.35 -0.97 1.03
-15.39 -0.96 0.88
-4.78 -0.27 1.65
-7.40 -0.30 1.46
-11.43 -0.39 1.17
-11.27 -0.22 1.18
-7.39 -0.04 1.46
-7.43 -0.02 1.46
-8.25 0.01 1.52
-5.05 0.02 1.78
-4.94 0.03 1.79
-14.95 0.12 1.00
-8.70 0.09 1.49
-8.51 0.11 1.50
-8.45 0.13 1.51
-8.23 0.15 1.52
-8.17 0.17 1.53
-8.16 0.19 1.53
-8.43 0.21 1.51
-8.38 0.23 1.51
-8.46 0.25 1.51
-8.46 0.28 1.51
-8.39 0.29 1.51
-8.56 0.32 1.50
-8.66 0.34 1.49
-8.73 0.37 1.48
-15.03 0.66 0.99
-8.77 0.41 1.48
-8.66 0.43 1.49
-8.91 0.46 1.47
-8.83 0.48 1.48
-8.84 0.50 1.47
-8.91 0.53 1.47
-9.31 0.57 1.44
-9.34 0.60 1.43
-9.00 0.60 1.46
-8.94 0.61 1.47
-9.04 0.64 1.46
-9.34 0.69 1.43
-9.00 0.68 1.46
-9.17 0.72 1.45
-9.29 0.75 1.44
-10.12 0.84 1.37
-8.99 0.77 1.46
-9.42 0.83 1.42
-15.01 1.35 0.98
-9.43 0.88 1.42
-9.59 0.91 1.41
-15.30 1.49 0.96
-14.71 1.50 1.00
-15.28 1.60 0.96
-15.38 1.64 0.95
-8.42 1.56 1.49
-8.25 1.59 1.50
-8.27 1.61 1.50
-8.35 1.65 1.50
-8.32 1.69 1.50
-1.40 -0.77 1.87
-12.30 -1.69 1.02
-12.48 -1.67 1.00
-12.43 -1.63 1.01
-4.09 -0.71 1.66
-12.20 -1.53 1.02
-12.46 -1.52 1.00
-12.59 -1.50 0.99
-12.62 -1.47 0.99
-12.81 -1.45 0.98
-12.63 -1.40 0.99
-3.45 -0.53 1.71
-12.17 -1.25 1.03
-10.22 -0.99 1.18
-10.15 -0.96 1.19
-6.89 -0.69 1.44
-6.62 -0.65 1.46
-10.13 -0.87 1.19
-7.04 -0.59 1.43
-10.19 -0.75 1.18
-13.16 -0.71 1.14
-11.85 -0.58 1.24
-12.03 -0.56 1.23
-11.70 -0.52 1.25
-12.12 -0.51 1.22
-8.29 -0.29 1.52
-7.94 -0.26 1.55
-8.04 -0.24 1.54
-12.37 -0.34 1.20
-7.77 -0.20 1.56
-7.99 -0.16 1.54
-8.11 -0.15 1.54
-7.96 -0.12 1.55
-7.93 -0.11 1.55
-8.20 -0.09 1.53
-8.24 -0.07 1.53
-15.08 -0.09 0.99
-8.59 -0.03 1.50
-5.44 -0.01 1.75
-7.55 0.01 1.34
-7.23 0.03 1.37
-7.36 0.05 1.35
-8.37 0.09 1.47
-8.55 0.11 1.46
-8.42 0.13 1.47
-8.39 0.15 1.47
-8.28 0.17 1.48
-8.27 0.19 1.48
-8.34 0.21 1.47
-8.55 0.24 1.46
-8.55 0.26 1.46
-8.52 0.28 1.46
-8.63 0.30 1.45
-8.65 0.32 1.45
-8.63 0.34 1.45
-8.51 0.36 1.46
-13.65 0.60 1.03
-8.98 0.42 1.42
-8.93 0.44 1.42
-8.69 0.45 1.44
-8.70 0.47 1.44
-8.91 0.50 1.42
-8.97 0.53 1.42
-9.31 0.57 1.39
-9.01 0.57 1.42
-9.65 0.64 1.36
-9.15 0.63 1.40
-9.12 0.65 1.41
-9.02 0.66 1.41
-9.09 0.69 1.41
-9.21 0.72 1.40
-9.17 0.74 1.40
-9.30 0.77 1.39
-9.65 0.82 1.36
-15.00 1.31 0.91
-9.35 0.85 1.38
-14.84 1.37 0.92
-15.02 1.42 0.90
-14.95 1.52 0.91
-15.30 1.59 0.88
-14.58 1.63 0.94
-8.48 1.65 1.44
-8.30 1.64 1.46
-12.23 -1.67 0.95
-12.49 -1.67 0.92
-11.90 -1.57 0.97
-12.45 -1.59 0.93
-5.76 -0.86 1.49
-12.58 -1.53 0.92
-12.48 -1.49 0.93
-12.09 -1.41 0.96
-12.32 -1.40 0.94
-12.13 -1.35 0.96
-11.98 -1.30 0.97
-12.42 -1.27 0.93
-6.82 -0.73 1.40
-7.05 -0.72 1.38
-10.30 -0.94 1.11
-6.88 -0.67 1.40
-9.97 -0.85 1.14
-9.94 -0.82 1.14
-6.71 -0.59 1.41
-6.91 -0.55 1.39
-15.23 -1.00 0.70
-15.05 -0.90 0.71
-15.22 -0.87 0.70
-6.99 -0.45 1.39
-15.62 -0.80 0.67
-4.38 -0.23 1.61
-7.22 -0.29 1.37
-4.39 -0.19 1.60
-4.44 -0.18 1.60
-4.50 -0.16 1.59
-7.41 -0.21 1.35
-4.50 -0.13 1.59
-7.40 -0.13 1.35
-7.33 -0.09 1.36
-7.58 -0.06 1.34
-7.46 -0.04 1.35
-7.55 -0.02 1.34
-8.21 0.01 1.43
-8.15 0.03 1.44
-5.21 0.03 1.70
-8.15 0.07 1.44
-8.27 0.09 1.43
-8.23 0.11 1.43
-8.32 0.13 1.42
-8.22 0.15 1.43
-8.23 0.17 1.43
-8.27 0.19 1.43
-8.33 0.21 1.42
-8.42 0.23 1.41
-8.55 0.26 1.40
-8.54 0.28 1.40
-8.61 0.30 1.39
-8.70 0.32 1.39
-8.57 0.34 1.40
-8.58 0.36 1.40
-8.73 0.39 1.38
-8.50 0.40 1.40
-8.72 0.43 1.38
-9.11 0.47 1.35
-8.76 0.47 1.38
-9.07 0.51 1.35
-8.84 0.52 1.37
-8.93 0.55 1.36
-9.00 0.57 1.36
-9.06 0.60 1.35
-9.48 0.65 1.31
-9.02 0.64 1.35
-10.61 0.78 1.21
-9.27 0.70 1.33
-9.23 0.72 1.33
-9.20 0.74 1.34
-9.33 0.77 1.33
-9.30 0.79 1.33
-9.23 0.81 1.33
-9.25 0.84 1.33
-9.95 0.92 1.27
-9.79 0.93 1.28
-9.90 1.01 1.27
-8.26 1.57 1.41
-8.48 1.63 1.39
-8.49 1.65 1.38
-8.37 1.67 1.40
-8.36 1.69 1.40
-4.90 -1.08 1.51
-4.62 -0.97 1.54
-4.01 -0.85 1.59
-6.12 -1.02 1.40
-6.51 -1.05 1.37
-11.66 -1.61 0.90
-11.65 -1.58 0.90
-11.92 -1.57 0.88
-11.91 -1.54 0.88
-11.90 -1.50 0.88
-6.36 -0.90 1.38
-12.03 -1.44 0.87
-11.87 -1.39 0.89
-11.95 -1.37 0.88
-11.83 -1.32 0.89
-4.52 -0.63 1.55
-12.02 -1.27 0.87
-6.51 -0.77 1.37
-6.76 -0.77 1.35
-6.85 -0.75 1.34
-4.43 -0.54 1.56
-10.22 -0.96 1.04
-10.07 -0.89 1.05
-6.68 -0.63 1.35
-13.04 -1.02 0.78
-9.78 -0.78 1.08
-13.27 -0.96 0.76
-6.97 -0.56 1.33
-6.71 -0.50 1.35
-6.98 -0.49 1.33
-5.41 -0.39 1.47
-4.61 -0.34 1.54
-13.09 -0.69 0.78
-4.98 -0.32 1.51
-4.47 -0.28 1.55
-15.38 -0.67 0.57
-15.02 -0.61 0.60
-5.31 -0.26 1.48
-4.35 -0.21 1.56
-4.40 -0.19 1.56
-4.37 -0.18 1.56
-4.27 -0.16 1.57
-4.26 -0.14 1.57
-4.59 -0.13 1.54
-4.13 -0.11 1.58
-8.14 -0.11 1.44
-8.26 -0.09 1.43
-8.11 -0.07 1.44
-8.23 -0.05 1.43
-5.36 -0.02 1.69
-8.27 -0.01 1.43
-7.41 0.01 1.23
-7.74 0.03 1.20
-7.38 0.05 1.23
-7.60 0.08 1.21
-7.91 0.11 1.18
-7.75 0.13 1.20
-7.47 0.15 1.23
-7.55 0.17 1.22
-7.38 0.20 1.23
-7.40 0.22 1.23
-7.34 0.24 1.24
-8.38 0.23 1.37
-8.45 0.25 1.36
-8.42 0.27 1.37
-8.48 0.29 1.36
-8.57 0.32 1.35
-8.45 0.33 1.36
-8.31 0.35 1.38
-8.42 0.37 1.37
-8.66 0.41 1.34
-8.40 0.41 1.37
-8.82 0.46 1.33
-9.00 0.49 1.31
-8.99 0.51 1.31
-8.85 0.52 1.32
-9.09 0.56 1.30
-8.98 0.57 1.31
-9.23 0.61 1.29
-9.31 0.64 1.28
-9.39 0.67 1.27
-10.06 0.74 1.20
-9.82 0.74 1.23
-9.79 0.76 1.23
-9.87 0.79 1.22
-9.67 0.80 1.24
-9.91 0.85 1.22
-9.73 0.85 1.23
-9.98 0.90 1.21
-10.03 0.93 1.21
-10.03 0.95 1.21
-9.95 0.97 1.21
-9.77 1.00 1.23
-8.49 1.57 1.34
-8.52 1.59 1.34
-8.81 1.67 1.31
-8.39 1.61 1.35
-8.43 1.64 1.34
-4.41 -1.59 1.51
-5.00 -1.18 1.46
-6.33 -1.11 1.33
-6.46 -1.06 1.32
-6.60 -1.06 1.31
-11.75 -1.62 0.82
-6.51 -1.00 1.32
-6.27 -0.96 1.34
-12.02 -1.55 0.79
-6.20 -0.91 1.35
-6.29 -0.90 1.34
-6.30 -0.88 1.34
-6.95 -0.92 1.28
-6.41 -0.84 1.33
-6.56 -0.82 1.31
-6.41 -0.78 1.33
-6.91 -0.80 1.28
-6.45 -0.74 1.33
-6.39 -0.71 1.33
-6.54 -0.71 1.32
-6.48 -0.68 1.32
-9.88 -0.90 1.00
-7.00 -0.65 1.27
-7.05 -0.63 1.27
-6.79 -0.59 1.29
-6.69 -0.56 1.30
-5.26 -0.46 1.44
-6.98 -0.54 1.27
-6.98 -0.51 1.27
-4.73 -0.38 1.49
-7.28 -0.48 1.25
-4.72 -0.34 1.49
-12.38 -0.66 0.76
-15.24 -0.75 0.49
-15.34 -0.71 0.48
-4.69 -0.27 1.49
-10.60 -0.46 0.93
-4.22 -0.22 1.54
-4.52 -0.21 1.51
-4.19 -0.19 1.54
-4.41 -0.18 1.52
-8.00 -0.24 1.18
-13.88 -0.34 0.62
-7.66 -0.19 1.21
-7.62 -0.16 1.21
-7.39 -0.13 1.23
-7.26 -0.11 1.25
-7.44 -0.09 1.23
-7.38 -0.06 1.24
-7.38 -0.04 1.24
-7.32 -0.02 1.24
-8.21 0.01 1.33
-8.22 0.03 1.33
-8.27 0.05 1.33
-8.20 0.07 1.33
-4.95 0.05 1.67
-8.16 0.11 1.34
-8.09 0.13 1.34
-8.18 0.15 1.33
-8.23 0.17 1.33
-8.22 0.19 1.33
-8.31 0.21 1.32
-8.39 0.23 1.31
-8.13 0.24 1.34
-8.31 0.27 1.32
-8.23 0.29 1.33
-8.40 0.31 1.31
-8.20 0.33 1.33
-8.25 0.35 1.33
-8.59 0.38 1.29
-8.55 0.40 1.29
-8.52 0.42 1.30
-8.82 0.46 1.27
-8.88 0.48 1.26
-8.77 0.50 1.27
-9.05 0.53 1.24
-9.26 0.57 1.22
-9.77 0.62 1.17
-9.69 0.64 1.18
-9.98 0.68 1.15
-9.63 0.68 1.18
-9.93 0.73 1.15
-5.48 0.42 1.61
-9.92 0.78 1.15
-9.88 0.80 1.16
-9.70 0.80 1.17
-9.93 0.85 1.15
-10.05 0.88 1.14
-10.06 0.91 1.13
-9.83 0.91 1.16
-9.93 0.95 1.15
-10.06 0.98 1.13
-9.94 1.00 1.15
-9.74 1.02 1.17
-8.67 1.51 1.26
-8.58 1.52 1.27
-8.45 1.52 1.29
-8.67 1.58 1.26
-8.40 1.55 1.29
-8.73 1.63 1.26
-8.86 1.68 1.24
-3.94 1.45 1.73
-2.43 -1.10 1.67
-4.22 -1.13 1.49
-4.70 -1.07 1.44
-4.43 -0.99 1.47
-8.24 -1.51 1.08
-4.23 -0.93 1.49
-4.52 -0.92 1.46
-6.32 -1.13 1.28
-6.13 -1.07 1.30
-5.86 -1.02 1.33
-4.57 -0.84 1.46
-6.25 -1.02 1.29
-11.76 -1.62 0.72
-6.42 -1.00 1.27
-4.71 -0.79 1.44
-6.35 -0.95 1.28
-6.26 -0.92 1.28
-6.17 -0.89 1.29
-6.26 -0.88 1.29
-6.07 -0.84 1.30
-6.09 -0.82 1.30
-5.95 -0.78 1.32
-6.19 -0.78 1.29
-5.81 -0.73 1.33
-5.71 -0.70 1.34
-5.97 -0.70 1.32
-6.57 -0.73 1.25
-11.78 -1.11 0.72
-6.30 -0.67 1.28
-6.96 -0.70 1.21
-7.58 -0.72 1.15
-6.87 -0.64 1.22
-6.81 -0.62 1.23
-6.78 -0.59 1.23
-5.54 -0.50 1.36
-5.01 -0.44 1.41
-5.09 -0.43 1.40
-7.00 -0.52 1.21
-6.68 -0.48 1.24
-4.97 -0.37 1.42
-4.57 -0.33 1.46
-4.70 -0.32 1.44
-4.52 -0.30 1.46
-4.43 -0.28 1.47
-5.78 -0.31 1.33
-5.05 -0.18 1.66
-8.13 -0.26 1.34
-5.68 -0.17 1.59
-10.27 -0.28 1.12
-10.22 -0.26 1.13
-8.15 -0.19 1.34
-5.21 -0.11 1.64
-8.27 -0.15 1.33
-8.37 -0.13 1.32
-8.47 -0.11 1.31
-8.27 -0.09 1.33
-8.02 -0.07 1.35
-8.14 -0.05 1.34
-8.27 -0.03 1.33
-8.19 -0.01 1.34
-7.77 0.01 1.06
-9.40 0.04 0.89
-7.41 0.05 1.10
-8.05 0.08 1.03
-7.51 0.10 1.09
-7.48 0.13 1.10
-7.73 0.15 1.07
-7.70 0.18 1.07
-7.51 0.20 1.09
-7.66 0.23 1.08
-7.62 0.25 1.08
-7.60 0.27 1.08
-7.57 0.30 1.08
-7.83 0.33 1.06
-8.38 0.37 1.00
-8.55 0.40 0.98
-6.09 0.35 1.24
-8.79 0.49 0.95
-8.84 0.52 0.94
-8.98 0.44 1.19
-9.18 0.47 1.17
-9.19 0.50 1.17
-8.98 0.51 1.19
-10.09 0.62 1.07
-10.41 0.68 1.04
-10.02 0.68 1.08
-9.78 0.69 1.10
-9.96 0.73 1.08
-10.07 0.76 1.07
-10.30 0.83 1.04
-10.25 0.85 1.05
-10.27 0.88 1.05
-11.69 -1.68 0.64
-11.84 -1.66 0.62
-11.80 -1.62 0.63
-11.91 -1.60 0.61
-11.62 -1.54 0.64
-11.59 -1.50 0.65
-6.16 -0.90 1.24
-11.90 -1.46 0.62
-11.80 -1.42 0.63
-12.12 -1.42 0.59
-6.25 -0.83 1.23
-11.78 -1.32 0.63
-11.98 -1.30 0.61
-11.84 -1.25 0.62
-5.12 -0.65 1.35
-10.16 -1.05 0.81
-12.13 -1.17 0.59
-11.50 -1.09 0.66
-7.12 -0.66 1.14
-6.27 -0.58 1.23
-4.62 -0.40 1.41
-4.73 -0.39 1.40
-11.63 -0.63 0.65
-14.55 -0.67 0.33
-10.70 -0.49 0.75
-14.45 -0.59 0.34
-14.28 -0.54 0.36
-7.84 -0.31 1.06
-8.10 -0.30 1.03
-14.85 -0.44 0.30
-14.05 -0.38 0.38
-9.39 -0.25 0.89
-8.12 -0.19 1.03
-7.96 -0.17 1.04
-7.57 -0.14 1.09
-8.12 -0.12 1.03
-7.61 -0.09 1.08
-7.62 -0.07 1.08
-7.54 -0.04 1.09
-7.45 -0.02 1.10
-8.70 0.01 1.17
-8.78 0.03 1.16
-8.88 0.05 1.14
-9.77 0.08 1.04
-8.76 0.09 1.16
-8.55 0.11 1.18
-9.38 0.15 1.09
-9.38 0.17 1.09
-8.62 0.18 1.17
-9.71 0.22 1.05
-10.11 0.25 1.00
-9.02 0.25 1.13
-8.79 0.26 1.15
-8.59 0.28 1.18
-8.66 0.30 1.17
-8.97 0.33 1.13
-8.76 0.35 1.16
-8.73 0.37 1.16
-8.96 0.40 1.13
-9.23 0.43 1.10
-9.16 0.45 1.11
-9.42 0.49 1.08
-9.14 0.50 1.11
-9.48 0.54 1.07
-9.38 0.55 1.08
-9.95 0.61 1.02
-10.09 0.64 1.00
-10.37 0.69 0.97
-10.03 0.69 1.00
-5.09 0.37 1.58
-10.21 0.75 0.98
-10.05 0.76 1.00
-10.11 0.79 0.99
-10.21 0.82 0.98
-10.31 0.86 0.97
-10.30 0.88 0.97
-10.23 0.90 0.98
-10.38 0.94 0.96
-9.98 0.93 1.01
-10.20 0.97 0.98
-9.84 0.96 1.02
-10.20 1.02 0.98
-9.36 0.96 1.08
-10.01 1.05 1.00
-10.71 1.15 0.92
-10.27 1.13 0.97
-9.89 1.11 1.01
-10.55 1.21 0.94
-10.01 1.17 1.00
-10.31 1.39 0.96
-8.29 1.41 1.19
-8.51 1.53 1.16
-9.02 1.66 1.10
-8.46 1.59 1.17
-8.46 1.63 1.16
-8.68 1.69 1.14
-8.41 1.66 1.17
-8.41 1.69 1.17
-3.04 1.37 1.77
-4.06 -1.10 1.42
-4.25 -1.10 1.40
-4.04 -0.97 1.42
-6.29 -1.11 1.16
-11.55 -1.63 0.55
-6.13 -0.99 1.18
-4.75 -0.81 1.34
-4.66 -0.79 1.35
-4.70 -0.77 1.35
-4.49 -0.73 1.37
-4.73 -0.74 1.34
-4.52 -0.70 1.37
-5.38 -0.77 1.27
-4.73 -0.69 1.34
-5.14 -0.71 1.29
-5.13 -0.69 1.30
-5.34 -0.69 1.27
-4.93 -0.64 1.32
-4.98 -0.62 1.31
-5.08 -0.61 1.30
-6.76 -0.73 1.11
-4.80 -0.56 1.34
-6.59 -0.67 1.13
-4.50 -0.50 1.37
-4.56 -0.49 1.36
-4.50 -0.47 1.37
-4.70 -0.46 1.35
-4.70 -0.45 1.35
-4.61 -0.42 1.36
-4.62 -0.41 1.36
-13.54 -0.73 0.61
-4.74 -0.25 1.62
-7.79 -0.38 1.27
-7.62 -0.36 1.29
-5.46 -0.24 1.54
-5.24 -0.22 1.57
-5.48 -0.22 1.54
-8.27 -0.31 1.22
-5.09 -0.18 1.58
-8.28 -0.27 1.21
-4.99 -0.15 1.60
-5.02 -0.14 1.59
-4.87 -0.12 1.61
-8.27 -0.19 1.22
-8.27 -0.17 1.22
-8.38 -0.15 1.20
-8.32 -0.13 1.21
-8.46 -0.11 1.19
-8.18 -0.09 1.23
-8.21 -0.07 1.22
-8.42 -0.05 1.20
-9.94 -0.04 1.02
-8.51 -0.01 1.19
-7.30 0.01 0.98
-7.40 0.03 0.97
-7.19 0.05 0.99
-9.66 0.08 0.99
-9.20 0.10 1.05
-9.33 0.12 1.03
-9.27 0.17 1.04
-9.67 0.20 0.99
-9.45 0.21 1.02
-9.52 0.24 1.01
-9.34 0.26 1.03
-9.14 0.27 1.05
-9.02 0.29 1.07
-9.09 0.34 1.06
-8.98 0.36 1.07
-9.18 0.38 1.05
-8.92 0.40 1.08
-8.96 0.42 1.07
-9.03 0.44 1.06
-8.91 0.46 1.08
-9.45 0.51 1.01
-10.12 0.59 0.93
-10.22 0.62 0.92
-9.65 0.61 0.99
-10.52 0.69 0.88
-10.37 0.71 0.90
-10.30 0.73 0.90
-10.07 0.76 0.93
-10.20 0.80 0.92
-10.23 0.82 0.91
-10.21 0.85 0.91
-10.66 0.91 0.86
-7.10 0.63 1.30
-10.23 0.92 0.91
-7.33 0.70 1.27
-10.29 1.00 0.90
-10.29 1.03 0.90
-10.28 1.05 0.90
-10.38 1.09 0.89
-10.50 1.13 0.87
-10.47 1.15 0.88
-10.89 1.25 0.82
-10.56 1.24 0.86
-10.65 1.27 0.85
-10.78 1.31 0.84
-10.59 1.32 0.86
-10.48 1.33 0.87
-10.18 1.32 0.91
-10.54 1.44 0.86
-10.73 1.49 0.84
-10.20 1.44 0.90
-8.39 1.42 1.12
-8.36 1.50 1.12
-9.32 1.69 1.00
-8.66 1.62 1.08
-8.45 1.69 1.11
-8.59 -1.56 0.82
-8.36 -1.50 0.85
-8.26 -1.43 0.86
-6.53 -1.14 1.07
-4.53 -0.87 1.32
-4.50 -0.83 1.32
-4.56 -0.82 1.32
-4.47 -0.80 1.33
-4.93 -0.81 1.27
-6.09 -0.92 1.13
-6.11 -0.90 1.13
-4.84 -0.73 1.28
-5.33 -0.76 1.22
-5.24 -0.74 1.23
-5.27 -0.70 1.23
-5.18 -0.67 1.24
-5.39 -0.67 1.22
-5.45 -0.64 1.21
-6.82 -0.73 1.04
-5.12 -0.58 1.25
-4.93 -0.53 1.27
-4.88 -0.51 1.28
-4.79 -0.48 1.29
-5.31 -0.48 1.23
-4.98 -0.44 1.27
-4.74 -0.41 1.29
-11.88 -0.74 0.43
-4.09 -0.33 1.37
-4.34 -0.32 1.34
-9.97 -0.53 0.66
-9.91 -0.49 0.66
-9.92 -0.46 0.66
-3.96 -0.21 1.39
-4.00 -0.20 1.38
-4.20 -0.19 1.36
-3.76 -0.15 1.41
-3.83 -0.13 1.41
-7.78 -0.19 0.92
-7.27 -0.16 0.99
-7.07 -0.13 1.01
-3.66 -0.07 1.43
-7.20 -0.09 0.99
-7.32 -0.04 0.98
-7.38 -0.02 0.97
-8.73 0.01 1.04
-8.95 0.03 1.01
-8.87 0.05 1.02
-4.99 0.04 1.52
-8.55 0.09 1.06
-8.55 0.11 1.06
-8.90 0.14 1.02
-9.18 0.16 0.98
-9.36 0.19 0.96
-9.16 0.21 0.98
-9.10 0.23 0.99
-9.27 0.25 0.97
-9.23 0.28 0.97
-9.14 0.30 0.98
-9.05 0.31 1.00
-8.99 0.33 1.00
-8.77 0.35 1.03
-8.86 0.37 1.02
-5.59 0.25 1.44
-9.12 0.43 0.99
-9.09 0.45 0.99
-9.27 0.48 0.97
-9.52 0.51 0.93
-9.36 0.53 0.95
-9.36 0.55 0.95
-10.11 0.62 0.86
-10.15 0.65 0.85
-10.31 0.68 0.83
-10.10 0.69 0.86
-10.15 0.72 0.85
-10.12 0.74 0.85
-10.24 0.78 0.84
-10.30 0.80 0.83
-10.46 0.84 0.81
-10.39 0.86 0.81
-10.36 0.88 0.82
-10.66 0.94 0.78
-10.72 0.97 0.77
-10.24 0.95 0.83
-10.19 0.97 0.84
-10.06 0.98 0.85
-9.94 0.99 0.87
-9.77 1.00 0.89
-10.02 1.05 0.86
-10.04 1.08 0.86
-10.05 1.10 0.85
-9.13 1.03 0.97
-10.25 1.17 0.83
-10.50 1.23 0.79
-10.49 1.25 0.79
-10.45 1.27 0.80
-10.68 1.33 0.77
-10.70 1.36 0.77
-10.77 1.39 0.76
-10.71 1.41 0.76
-9.99 1.34 0.86
-10.00 1.37 0.85
-10.64 1.48 0.77
-10.52 1.49 0.79
-9.85 1.45 0.87
-8.39 1.28 1.06
-9.06 1.40 0.97
-8.27 1.32 1.08
-8.85 1.43 1.00
-8.89 1.46 0.99
-8.64 1.44 1.03
-8.79 1.49 1.01
-8.98 1.54 0.98
-8.39 1.46 1.06
-8.48 1.50 1.04
-8.38 1.50 1.06
-8.30 1.51 1.07
-8.61 1.59 1.03
-8.16 1.53 1.08
-8.77 1.68 1.00
-8.67 1.69 1.02
-8.41 1.66 1.05
-8.41 1.68 1.05
-4.36 -1.67 1.28
-4.20 -1.32 1.30
-4.06 -1.27 1.32
-4.10 -1.22 1.32
-4.07 -1.19 1.32
-4.07 -1.18 1.32
-3.98 -1.15 1.34
-4.01 -1.14 1.33
-3.93 -1.11 1.34
-3.94 -1.09 1.34
-4.00 -1.09 1.33
-3.98 -1.07 1.34
-3.95 -1.05 1.34
-4.14 -1.06 1.32
-4.18 -1.05 1.31
-4.18 -1.04 1.31
-4.03 -1.00 1.33
-4.02 -0.98 1.33
-3.88 -0.95 1.35
-3.96 -0.94 1.34
-3.86 -0.91 1.35
-3.85 -0.89 1.36
-3.84 -0.88 1.36
-4.09 -0.90 1.32
-4.38 -0.90 1.29
-4.45 -0.89 1.28
-4.29 -0.86 1.30
-4.39 -0.85 1.29
-4.40 -0.84 1.28
-4.49 -0.83 1.27
-4.31 -0.79 1.30
-4.70 -0.82 1.25
-4.67 -0.80 1.25
-5.91 -0.92 1.09
-5.96 -0.91 1.08
-5.83 -0.87 1.10
-5.97 -0.87 1.08
-5.89 -0.84 1.09
-5.59 -0.79 1.13
-5.67 -0.78 1.12
-5.37 -0.73 1.16
-5.11 -0.69 1.19
-4.99 -0.66 1.21
-4.95 -0.64 1.21
-4.88 -0.61 1.22
-5.03 -0.61 1.20
-4.77 -0.57 1.24
-4.72 -0.55 1.24
-4.68 -0.53 1.25
-4.78 -0.52 1.24
-4.74 -0.50 1.24
-4.83 -0.49 1.23
-4.79 -0.47 1.24
-4.72 -0.45 1.24
-6.45 -0.53 1.02
-4.94 -0.42 1.22
-4.33 -0.37 1.29
-5.27 -0.40 1.17
-3.88 -0.32 1.35
-4.11 -0.31 1.32
-4.04 -0.29 1.33
-4.54 -0.30 1.27
-4.57 -0.28 1.26
-4.12 -0.25 1.32
-4.29 -0.24 1.30
-4.40 -0.23 1.29
-3.98 -0.20 1.34
-4.09 -0.19 1.33
-4.22 -0.17 1.31
-4.11 -0.16 1.32
-4.22 -0.14 1.31
-3.98 -0.12 1.34
-3.84 -0.10 1.36
-9.51 -0.13 0.94
-10.06 -0.11 0.87
-10.13 -0.09 0.86
-9.77 -0.06 0.91
-9.41 -0.04 0.95
-10.37 -0.01 0.83
-7.13 0.01 0.86
-6.95 0.03 0.89
-6.78 0.05 0.91
-7.26 0.08 0.84
-7.64 0.10 0.79
-7.35 0.12 0.83
-7.14 0.14 0.86
-6.67 0.16 0.92
-6.04 0.17 1.01
-7.27 0.22 0.84
-7.27 0.24 0.84
-7.43 0.27 0.82
-9.10 0.27 0.92
-9.07 0.29 0.93
-8.98 0.31 0.94
-9.25 0.34 0.90
-9.15 0.36 0.92
-9.12 0.38 0.92
-9.35 0.41 0.89
-9.00 0.42 0.94
-9.38 0.46 0.88
-9.27 0.48 0.90
-10.14 0.55 0.78
-9.48 0.53 0.87
-7.15 0.42 1.19
-6.91 0.43 1.22
-10.97 0.70 0.67
-10.07 0.66 0.79
-10.07 0.69 0.79
-7.19 0.51 1.18
-10.44 0.76 0.74
-10.39 0.79 0.74
-10.51 0.82 0.73
-10.36 0.83 0.74
-10.43 0.86 0.74
-10.36 0.88 0.74
-10.11 0.89 0.78
-9.90 0.89 0.81
-9.89 0.92 0.81
-10.02 0.95 0.79
-6.93 0.68 1.21
-10.07 1.00 0.78
-9.99 1.02 0.79
-9.88 1.03 0.81
-9.88 1.06 0.81
-10.08 1.10 0.78
-9.95 1.12 0.80
-10.05 1.15 0.78
-10.11 1.18 0.77
-10.30 1.23 0.75
-10.12 1.23 0.77
-10.21 1.27 0.76
-10.83 1.37 0.67
-10.62 1.37 0.70
-11.24 1.48 0.61
-10.52 1.41 0.71
-10.64 1.45 0.69
-10.92 1.52 0.66
-11.75 1.66 0.54
-11.73 1.68 0.54
-10.04 1.47 0.77
-9.33 1.41 0.87
-9.76 1.50 0.81
-9.33 1.50 0.87
-8.52 1.40 0.98
-8.50 1.42 0.98
-8.80 1.49 0.94
-9.23 1.58 0.88
-8.34 1.45 1.00
-8.36 1.48 1.00
-8.66 1.55 0.96
-8.59 1.56 0.97
-8.55 1.60 0.97
-8.76 1.68 0.94
-8.65 1.68 0.95
-3.20 1.27 1.68
-4.23 -1.53 1.25
-4.00 -1.24 1.29
-3.81 -1.12 1.31
-3.56 -1.03 1.35
-4.09 -1.10 1.28
-4.09 -1.08 1.28
-3.95 -1.05 1.29
-4.07 -1.05 1.28
-4.15 -1.05 1.27
-3.93 -1.00 1.30
-4.09 -1.00 1.28
-4.08 -0.99 1.28
-4.11 -0.98 1.27
-3.98 -0.94 1.29
-3.81 -0.90 1.32
-3.80 -0.89 1.32
-3.97 -0.89 1.29
-4.11 -0.90 1.27
-3.98 -0.86 1.29
-4.32 -0.89 1.25
-4.17 -0.86 1.27
-4.23 -0.85 1.26
-4.50 -0.87 1.22
-4.77 -0.88 1.19
-4.86 -0.87 1.17
-4.54 -0.82 1.22
-5.36 -0.90 1.10
-4.64 -0.80 1.20
-4.56 -0.77 1.21
-6.41 -0.95 0.96
-5.90 -0.88 1.03
-5.91 -0.86 1.03
-5.59 -0.81 1.07
-5.82 -0.81 1.04
-5.63 -0.77 1.07
-5.61 -0.75 1.07
-5.48 -0.72 1.09
-5.09 -0.67 1.14
-4.90 -0.63 1.17
-4.62 -0.59 1.21
-4.88 -0.59 1.17
-4.66 -0.56 1.20
-4.98 -0.57 1.16
-4.79 -0.54 1.18
-6.67 -0.65 0.93
-6.71 -0.63 0.92
-6.71 -0.61 0.92
-6.77 -0.59 0.91
-9.54 -0.74 0.54
-9.64 -0.71 0.52
-4.48 -0.40 1.23
-6.62 -0.50 0.93
-6.44 -0.46 0.96
-4.73 -0.36 1.19
-4.17 -0.31 1.27
-4.53 -0.32 1.22
-4.64 -0.30 1.20
-4.54 -0.28 1.22
-4.46 -0.26 1.23
-4.62 -0.25 1.21
-4.40 -0.23 1.24
-4.20 -0.20 1.26
-4.27 -0.19 1.25
-4.21 -0.17 1.26
-3.71 -0.15 1.33
-4.07 -0.14 1.28
-3.83 -0.12 1.31
-7.48 -0.16 0.82
-3.87 -0.09 1.31
-7.36 -0.11 0.83
-7.34 -0.09 0.83
-7.46 -0.06 0.82
-7.55 -0.04 0.81
-7.09 -0.02 0.87
-8.45 0.01 0.95
-8.49 0.03 0.94
-8.56 0.05 0.93
-8.74 0.07 0.91
-4.85 0.05 1.47
-8.82 0.12 0.89
-8.78 0.14 0.90
-8.83 0.16 0.89
-8.86 0.18 0.89
-8.72 0.20 0.91
-8.48 0.21 0.94
-8.60 0.24 0.92
-8.30 0.25 0.97
-8.25 0.27 0.98
-8.25 0.29 0.98
-8.23 0.31 0.98
-8.44 0.33 0.95
-9.15 0.38 0.84
-9.26 0.41 0.83
-8.59 0.40 0.92
-9.10 0.45 0.85
-9.27 0.48 0.83
-9.28 0.50 0.82
-7.02 0.40 1.15
-9.36 0.55 0.81
-9.56 0.59 0.78
-9.42 0.60 0.80
-9.34 0.62 0.81
-9.88 0.68 0.73
-9.13 0.65 0.84
-8.99 0.66 0.86
-8.94 0.68 0.87
-9.02 0.71 0.86
-7.21 0.58 1.12
-7.09 0.59 1.14
-7.08 0.61 1.14
-7.21 0.64 1.12
-6.99 0.64 1.15
-7.05 0.66 1.14
-7.04 0.67 1.14
-7.05 0.69 1.14
-7.03 0.71 1.14
-9.76 1.00 0.75
-10.03 1.05 0.71
-10.26 1.10 0.67
-9.97 1.09 0.71
-10.04 1.13 0.70
-9.97 1.14 0.71
-9.91 1.16 0.72
-10.07 1.20 0.70
-10.01 1.22 0.71
-10.09 1.26 0.69
-10.09 1.28 0.69
-10.15 1.31 0.68
-10.20 1.34 0.67
-10.11 1.36 0.69
-10.09 1.38 0.69
-10.20 1.42 0.67
-10.21 1.45 0.67
-10.38 1.50 0.64
-10.20 1.50 0.67
-9.97 1.49 0.70
-9.38 1.42 0.79
-8.73 1.35 0.88
-8.84 1.43 0.86
-8.40 1.38 0.93
-8.48 1.42 0.92
-8.55 1.45 0.91
-9.52 1.63 0.76
-8.44 1.47 0.92
-8.35 1.48 0.93
-8.45 1.52 0.92
-8.77 1.60 0.87
-8.58 1.58 0.90
-8.62 1.61 0.89
-8.70 1.65 0.88
-8.77 1.69 0.87
-3.68 1.22 1.59
-4.36 -1.54 1.18
-4.45 -1.54 1.16
-4.39 -1.51 1.17
-4.38 -1.49 1.17
-4.45 -1.49 1.16
-4.41 -1.46 1.17
-4.04 -1.37 1.22
-4.10 -1.36 1.22
-4.11 -1.35 1.21
-4.13 -1.34 1.21
-4.19 -1.33 1.20
-4.11 -1.30 1.22
-3.96 -1.26 1.24
-4.31 -1.31 1.19
-3.98 -1.23 1.24
-4.14 -1.24 1.21
-3.84 -1.17 1.26
-3.81 -1.15 1.26
-4.02 -1.17 1.23
-3.80 -1.12 1.26
-3.65 -1.05 1.29
-3.79 -1.05 1.27
-3.64 -1.02 1.29
-3.86 -1.04 1.25
-3.84 -1.02 1.26
-3.93 -1.02 1.25
-3.99 -1.01 1.24
-4.01 -1.00 1.23
-4.01 -0.98 1.23
-3.98 -0.96 1.24
-4.00 -0.95 1.24
-4.14 -0.95 1.22
-3.99 -0.92 1.24
-4.10 -0.92 1.22
-4.04 -0.89 1.23
-4.07 -0.88 1.23
-4.07 -0.86 1.23
-4.27 -0.87 1.20
-4.21 -0.85 1.21
-4.51 -0.87 1.16
-4.30 -0.83 1.20
-4.32 -0.81 1.19
-4.74 -0.85 1.13
-4.39 -0.79 1.18
-4.55 -0.79 1.16
-5.21 -0.84 1.06
-5.73 -0.88 0.99
-5.58 -0.85 1.01
-5.81 -0.85 0.98
-5.82 -0.83 0.98
-5.48 -0.78 1.02
-5.58 -0.77 1.01
-5.69 -0.76 1.00
-5.76 -0.75 0.99
-5.07 -0.67 1.08
-5.09 -0.65 1.08
-4.61 -0.59 1.15
-4.61 -0.58 1.15
-4.56 -0.55 1.16
-5.34 -0.60 1.05
-5.32 -0.58 1.05
-4.61 -0.51 1.15
-4.45 -0.48 1.17
-4.87 -0.49 1.11
-4.39 -0.44 1.18
-6.89 -0.58 0.82
-6.47 -0.53 0.88
-6.52 -0.51 0.88
-6.60 -0.50 0.87
-6.55 -0.47 0.87
-4.48 -0.35 1.17
-4.95 -0.35 1.10
-4.62 -0.32 1.15
-4.62 -0.30 1.15
-4.53 -0.28 1.16
-4.59 -0.27 1.15
-4.49 -0.25 1.17
-5.96 -0.19 1.31
-6.05 -0.18 1.30
-6.25 -0.17 1.27
-6.07 -0.15 1.29
-6.31 -0.15 1.26
-6.20 -0.13 1.27
-6.25 -0.11 1.27
-11.41 -0.18 0.52
-8.46 -0.11 0.95
-8.88 -0.10 0.89
-8.45 -0.07 0.95
-8.66 -0.05 0.92
-8.78 -0.03 0.90
-8.62 -0.01 0.92
-7.61 0.01 0.64
-7.22 0.03 0.70
-7.26 0.05 0.70
-6.96 0.07 0.74
-7.76 0.10 0.62
-8.05 0.13 0.58
-8.81 0.17 0.46
-8.59 0.22 0.49
-8.37 0.27 0.53
-8.73 0.30 0.47
-7.98 0.31 0.58
-8.20 0.34 0.55
-8.28 0.37 0.54
-8.19 0.39 0.55
-8.07 0.41 0.57
-8.44 0.45 0.51
-7.98 0.46 0.58
-7.88 0.48 0.60
-8.48 0.42 0.88
-9.09 0.47 0.78
-8.59 0.46 0.86
-8.86 0.50 0.82
-8.80 0.52 0.83
-8.88 0.54 0.82
-9.23 0.59 0.76
-8.73 0.58 0.84
-9.10 0.62 0.78
-9.52 0.67 0.72
-8.88 0.65 0.81
-9.15 0.69 0.77
-9.11 0.71 0.78
-9.10 0.73 0.78
-8.84 0.73 0.82
-9.14 0.78 0.77
-9.20 0.81 0.76
-9.20 0.83 0.76
-9.04 0.84 0.79
-9.06 0.86 0.78
-9.62 0.94 0.69
-7.05 0.71 1.09
-9.58 0.98 0.70
-9.70 1.01 0.68
-10.09 1.08 0.62
-10.83 1.18 0.51
-10.59 1.18 0.54
-10.20 1.17 0.60
-10.41 1.21 0.57
-9.84 1.17 0.66
-10.02 1.22 0.63
-10.31 1.28 0.58
-10.17 1.29 0.60
-10.26 1.32 0.59
-10.01 1.32 0.63
-11.56 1.55 0.39
-9.99 1.36 0.63
-11.61 1.61 0.38
-10.13 1.43 0.61
-10.41 1.50 0.56
-10.67 1.56 0.52
-7.34 -1.00 0.68
-9.67 -1.04 0.33
-9.97 -1.00 0.29
-9.47 -0.93 0.36
-9.16 -0.74 0.41
-9.59 -0.68 0.34
-7.43 -0.51 0.67
-9.60 -0.57 0.34
-9.88 -0.52 0.30
-6.47 -0.36 0.82
-6.72 -0.32 0.78
-6.68 -0.30 0.79
-8.80 -0.34 0.46
-7.48 -0.25 0.66
-8.26 -0.25 0.55
-8.19 -0.22 0.56
-6.87 -0.13 0.76
-7.04 -0.11 0.73
-7.48 -0.09 0.66
-7.41 -0.07 0.67
-6.91 -0.04 0.75
-7.18 -0.02 0.71
-8.39 0.01 0.82
-8.30 0.03 0.84
-8.59 0.05 0.79
-4.79 0.04 1.40
-8.69 0.09 0.78
-8.33 0.11 0.83
-8.44 0.13 0.82
-8.79 0.16 0.76
-8.57 0.17 0.79
-8.47 0.19 0.81
-8.24 0.21 0.85
-8.01 0.22 0.88
-8.02 0.24 0.88
-8.02 0.26 0.88
-8.09 0.28 0.87
-8.06 0.30 0.87
-8.05 0.32 0.88
-8.34 0.35 0.83
-8.08 0.36 0.87
-8.48 0.40 0.81
-8.30 0.41 0.83
-8.38 0.43 0.82
-8.71 0.47 0.77
-8.44 0.48 0.81
-8.32 0.49 0.83
-8.49 0.52 0.80
-8.42 0.54 0.81
-8.44 0.56 0.81
-8.51 0.58 0.80
-8.45 0.60 0.81
-8.74 0.64 0.76
-8.94 0.68 0.73
-8.80 0.69 0.75
-8.86 0.72 0.74
-8.75 0.73 0.76
-9.01 0.77 0.71
-8.98 0.79 0.72
-8.98 0.81 0.72
-9.05 0.84 0.71
-8.96 0.85 0.72
-9.48 0.93 0.64
-9.09 0.91 0.70
-9.39 0.96 0.65
-9.31 0.98 0.66
-9.30 1.00 0.66
-9.55 1.05 0.62
-9.61 1.08 0.61
-10.17 1.17 0.52
-9.88 1.16 0.57
-9.79 1.17 0.58
-9.94 1.21 0.56
-10.03 1.25 0.54
-10.05 1.28 0.54
-10.21 1.32 0.51
-10.36 1.37 0.49
-10.31 1.39 0.49
-10.39 1.42 0.48
-10.32 1.44 0.49
-11.17 1.58 0.35
-11.21 1.61 0.35
-5.76 0.86 1.22
-10.10 1.53 0.52
-9.71 1.50 0.58
-9.66 1.51 0.59
-8.58 1.37 0.77
-9.20 1.49 0.66
-9.21 1.52 0.66
-8.68 1.45 0.75
-8.66 1.47 0.75
-8.71 1.50 0.74
-8.86 1.57 0.71
-8.50 1.55 0.77
-8.98 1.68 0.69
-2.89 1.65 1.61
-4.75 -1.64 1.00
-4.65 -1.60 1.02
-4.50 -1.55 1.04
-4.39 -1.51 1.06
-4.50 -1.52 1.04
-4.51 -1.50 1.04
-4.40 -1.46 1.06
-4.27 -1.42 1.08
-4.41 -1.43 1.06
-4.41 -1.41 1.06
-4.28 -1.37 1.08
-4.45 -1.39 1.05
-3.72 -1.06 1.18
-3.79 -1.06 1.17
-3.71 -1.03 1.18
-3.75 -1.02 1.17
-3.81 -1.01 1.16
-3.97 -1.02 1.14
-4.05 -1.00 1.12
-4.05 -0.99 1.12
-3.83 -0.94 1.16
-3.83 -0.93 1.16
-3.78 -0.90 1.17
-3.82 -0.89 1.16
-3.95 -0.90 1.14
-4.30 -0.93 1.09
-4.18 -0.90 1.10
-4.39 -0.91 1.07
-4.55 -0.91 1.05
-4.40 -0.88 1.07
-4.95 -0.93 0.98
-4.19 -0.82 1.10
-4.25 -0.81 1.10
-4.15 -0.78 1.11
-4.07 -0.75 1.12
-4.00 -0.73 1.13
-4.55 -0.78 1.05
-4.95 -0.80 0.98
-4.79 -0.77 1.01
-5.77 -0.85 0.85
-5.21 -0.77 0.94
-6.22 -0.85 0.78
-6.30 -0.84 0.77
-5.96 -0.79 0.82
-4.59 -0.64 1.04
-5.49 -0.71 0.90
-4.65 -0.61 1.03
-5.25 -0.65 0.94
-4.73 -0.59 1.02
-4.21 -0.53 1.10
-4.62 -0.54 1.04
-5.85 -0.62 0.84
-4.22 -0.48 1.10
-4.97 -0.52 0.98
-4.67 -0.48 1.03
-5.21 -0.49 0.94
-4.98 -0.46 0.98
-4.41 -0.41 1.07
-5.92 -0.48 0.83
-5.91 -0.46 0.83
-6.34 -0.33 1.15
-6.29 -0.31 1.16
-6.21 -0.29 1.18
-5.98 -0.27 1.21
-5.95 -0.25 1.22
-6.00 -0.24 1.21
-6.02 -0.23 1.21
-6.29 -0.22 1.16
-6.18 -0.20 1.18
-6.30 -0.19 1.16
-6.04 -0.17 1.20
-7.02 -0.18 1.05
-5.78 -0.13 1.24
-6.70 -0.14 1.10
-8.40 -0.15 0.82
-8.50 -0.13 0.81
-8.12 -0.11 0.87
-8.25 -0.09 0.85
-8.14 -0.07 0.87
-8.16 -0.05 0.86
-8.20 -0.03 0.86
-8.17 -0.01 0.86
-6.88 0.00 0.60
-5.03 0.02 0.91
-5.15 0.04 0.89
-8.23 0.07 0.79
-8.30 0.09 0.77
-8.48 0.11 0.74
-8.57 0.13 0.73
-8.84 0.16 0.68
-8.11 0.16 0.81
-8.65 0.20 0.71
-8.08 0.20 0.81
-7.96 0.22 0.83
-7.86 0.24 0.85
-7.93 0.26 0.83
-7.82 0.27 0.85
-8.06 0.30 0.81
-7.87 0.31 0.84
-8.01 0.34 0.82
-8.11 0.36 0.80
-7.95 0.37 0.83
-7.98 0.39 0.82
-7.95 0.41 0.83
-4.57 0.25 1.40
-7.93 0.45 0.83
-7.89 0.47 0.84
-8.09 0.50 0.80
-8.13 0.52 0.80
-8.33 0.55 0.76
-8.40 0.58 0.75
-8.74 0.62 0.69
-8.72 0.64 0.70
-8.97 0.68 0.65
-8.96 0.70 0.65
-8.87 0.71 0.67
-8.89 0.74 0.67
-8.66 0.74 0.70
-8.70 0.76 0.70
-8.75 0.79 0.69
-8.88 0.82 0.67
-8.95 0.85 0.65
-9.17 0.90 0.61
-8.90 0.89 0.66
-9.19 0.94 0.61
-9.04 0.95 0.63
-9.23 0.99 0.60
-9.40 1.03 0.57
-9.37 1.05 0.58
-9.63 1.10 0.53
-9.74 1.14 0.51
-9.77 1.17 0.51
-10.05 1.22 0.46
-9.94 1.23 0.48
-10.03 1.27 0.46
-10.27 1.33 0.42
-10.41 1.37 0.39
-10.59 1.52 0.36
-10.45 1.53 0.38
-10.53 1.57 0.37
-9.83 1.51 0.49
-9.19 1.44 0.60
-9.15 1.46 0.60
-9.52 1.54 0.54
-9.16 1.50 0.60
-8.78 1.46 0.66
-8.75 1.48 0.67
-9.01 1.55 0.62
-9.38 1.63 0.56
-8.47 1.50 0.71
-8.45 1.52 0.71
-8.53 1.64 0.70
-3.44 1.53 1.51
-3.39 1.52 1.52
-2.81 1.59 1.60
-4.64 -1.68 0.96
-4.59 -1.65 0.97
-4.46 -1.61 0.99
-4.50 -1.60 0.99
-4.46 -1.57 0.99
-4.47 -1.56 0.99
-4.43 -1.53 1.00
-4.49 -1.53 0.99
-4.61 -1.54 0.97
-4.52 -1.50 0.99
-4.50 -1.48 0.99
-4.52 -1.46 0.99
-4.41 -1.42 1.01
-4.49 -1.42 0.99
-4.33 -1.38 1.02
-4.47 -1.39 1.00
-4.04 -1.28 1.07
-3.97 -1.26 1.08
-3.96 -1.24 1.09
-4.18 -1.26 1.05
-3.86 -1.19 1.10
-4.07 -1.16 1.07
-4.21 -1.17 1.04
-4.20 -1.15 1.05
-3.80 -1.07 1.11
-3.91 -1.07 1.10
-3.57 -1.00 1.16
-3.70 -1.01 1.13
-3.82 -1.01 1.11
-4.11 -1.04 1.06
-4.12 -1.03 1.06
-4.11 -1.01 1.07
-3.94 -0.97 1.09
-4.09 -0.97 1.07
-4.02 -0.95 1.08
-3.97 -0.93 1.09
-4.11 -0.93 1.07
-4.42 -0.96 1.01
-4.43 -0.94 1.01
-4.28 -0.91 1.04
-4.91 -0.97 0.93
-4.75 -0.93 0.96
-4.34 -0.87 1.03
-4.53 -0.87 1.00
-4.36 -0.83 1.03
-4.50 -0.83 1.00
-4.43 -0.81 1.01
-4.02 -0.75 1.08
-3.86 -0.71 1.11
-4.29 -0.74 1.04
-4.32 -0.73 1.03
-4.71 -0.75 0.97
-5.93 -0.86 0.76
-4.36 -0.69 1.03
-6.54 -0.88 0.66
-4.71 -0.69 0.97
-6.02 -0.79 0.75
-5.96 -0.76 0.76
-4.57 -0.62 0.99
-4.37 -0.59 1.02
-4.39 -0.57 1.02
-4.64 -0.58 0.98
-4.73 -0.57 0.96
-4.12 -0.50 1.07
-4.14 -0.49 1.06
-4.64 -0.51 0.98
-4.19 -0.46 1.06
-4.31 -0.45 1.04
-4.25 -0.43 1.04
-5.60 -0.50 0.82
-4.16 -0.40 1.06
-6.62 -0.52 0.65
-6.16 -0.47 0.72
-5.11 -0.40 0.90
-6.46 -0.44 0.67
-6.95 -0.45 0.59
-5.79 -0.37 0.79
-5.45 -0.34 0.84
-5.50 -0.32 0.83
-5.75 -0.31 0.79
-5.48 -0.28 0.84
-6.00 -0.28 0.75
-5.19 -0.24 0.89
-5.00 -0.21 0.92
-7.79 -0.26 0.45
-4.89 -0.17 0.94
-4.57 -0.15 0.99
-4.52 -0.13 1.00
-4.65 -0.10 0.98
-4.71 -0.08 0.97
-4.84 -0.07 0.94
-6.26 -0.06 0.71
-8.32 -0.04 0.36
-6.68 -0.02 0.64
-8.06 0.01 0.75
-7.98 0.03 0.76
-7.98 0.05 0.76
-7.71 0.06 0.81
-7.67 0.08 0.81
-7.75 0.10 0.80
-8.71 0.13 0.63
-9.00 0.16 0.58
-9.05 0.18 0.57
-8.90 0.20 0.60
-8.86 0.22 0.60
-8.93 0.25 0.59
-8.86 0.26 0.60
-8.65 0.28 0.64
-7.86 0.27 0.78
-9.16 0.34 0.55
-7.97 0.31 0.76
-7.84 0.33 0.78
-7.80 0.35 0.79
-7.74 0.36 0.80
-7.98 0.39 0.75
-7.77 0.40 0.79
-7.91 0.43 0.77
-7.70 0.44 0.80
-7.72 0.46 0.80
-7.92 0.49 0.76
-7.91 0.50 0.76
-8.38 0.55 0.68
-8.35 0.57 0.69
-8.45 0.60 0.67
-8.66 0.64 0.63
-9.06 0.69 0.56
-8.96 0.70 0.58
-7.06 0.57 0.91
-9.00 0.75 0.57
-8.89 0.76 0.59
-8.96 0.79 0.58
-8.75 0.79 0.61
-8.85 0.82 0.59
-8.80 0.84 0.60
-9.37 0.92 0.50
-8.66 0.87 0.63
-8.97 0.92 0.57
-9.12 0.96 0.54
-9.21 0.99 0.53
-9.16 1.01 0.53
-9.30 1.04 0.51
-9.48 1.09 0.48
-9.41 1.10 0.49
-9.82 1.17 0.41
-9.91 1.21 0.40
-10.34 1.29 0.32
-10.39 1.32 0.31
-9.91 1.43 0.39
-8.82 1.34 0.58
-8.70 1.34 0.60
-9.47 1.48 0.47
-9.18 1.46 0.52
-8.78 1.42 0.59
-8.55 1.41 0.63
-8.56 1.43 0.62
-8.62 1.46 0.61
-8.79 1.51 0.58
-8.34 1.46 0.66
-8.55 1.51 0.62
-8.57 1.54 0.62
-9.03 1.64 0.54
-9.12 1.68 0.52
-8.65 1.62 0.60
-3.94 0.86 1.44
-4.54 -1.62 0.92
-4.50 -1.60 0.93
-4.51 -1.58 0.93
-4.20 -1.50 0.98
-4.29 -1.50 0.97
-4.30 -1.49 0.97
-4.40 -1.49 0.95
-4.39 -1.47 0.95
-4.28 -1.42 0.97
-4.29 -1.40 0.97
-4.23 -1.37 0.98
-4.20 -1.35 0.99
-4.23 -1.34 0.98
-4.10 -1.30 1.00
-4.19 -1.30 0.99
-4.20 -1.29 0.99
-4.27 -1.28 0.98
-4.35 -1.28 0.96
-4.13 -1.22 1.00
-4.44 -1.26 0.95
-4.50 -1.26 0.94
-4.38 -1.22 0.96
-4.20 -1.17 0.99
-4.14 -1.14 1.00
-4.29 -1.15 0.97
-4.19 -1.12 0.99
-4.20 -1.11 0.99
-4.31 -1.11 0.97
-4.12 -1.06 1.00
-4.25 -1.07 0.98
-4.21 -1.04 0.99
-4.22 -1.03 0.99
-4.32 -1.03 0.97
-4.43 -1.03 0.95
-4.28 -0.99 0.98
-4.34 -0.98 0.97
-4.26 -0.95 0.98
-4.52 -0.97 0.94
-4.45 -0.95 0.95
-4.20 -0.90 0.99
-4.44 -0.91 0.95
-4.68 -0.92 0.91
-4.75 -0.92 0.90
-4.59 -0.88 0.93
-4.66 -0.87 0.91
-4.45 -0.83 0.95
-4.49 -0.82 0.94
-4.26 -0.77 0.98
-3.95 -0.72 1.04
-3.78 -0.69 1.07
-3.94 -0.69 1.04
-4.07 -0.69 1.02
-4.00 -0.67 1.03
-4.24 -0.68 0.99
-4.01 -0.64 1.03
-4.30 -0.65 0.98
-4.53 -0.65 0.94
-4.56 -0.64 0.93
-4.59 -0.62 0.93
-4.51 -0.60 0.94
-4.88 -0.61 0.88
-4.60 -0.57 0.93
-4.68 -0.56 0.91
-4.25 -0.52 0.99
-5.07 -0.56 0.84
-4.27 -0.48 0.98
-4.16 -0.46 1.00
-4.20 -0.45 1.00
-4.28 -0.44 0.98
-4.38 -0.42 0.96
-4.64 -0.42 0.92
-6.15 -0.49 0.65
-6.09 -0.47 0.66
-6.20 -0.45 0.65
-6.49 -0.45 0.59
-6.54 -0.43 0.59
-6.62 -0.41 0.57
-6.25 -0.37 0.63
-5.82 -0.33 0.71
-6.87 -0.35 0.53
-6.94 -0.33 0.51
-6.21 -0.29 0.64
-6.44 -0.27 0.60
-6.36 -0.25 0.62
-6.37 -0.23 0.61
-6.43 -0.21 0.60
-4.84 -0.15 0.88
-5.32 -0.15 0.80
-6.09 -0.14 0.66
-7.88 -0.10 0.78
-7.94 -0.09 0.77
-7.91 -0.07 0.77
-7.89 -0.05 0.78
-7.75 -0.03 0.80
-7.94 -0.01 0.77
-6.47 0.00 0.52
-6.06 0.03 0.59
-6.22 0.05 0.56
-6.18 0.07 0.57
-6.20 0.09 0.57
-6.12 0.11 0.58
-6.40 0.13 0.53
-6.46 0.16 0.52
-6.64 0.18 0.48
-6.51 0.20 0.51
-6.65 0.22 0.48
-6.52 0.24 0.51
-8.96 0.27 0.51
-8.93 0.29 0.51
-8.67 0.30 0.56
-8.69 0.32 0.56
-8.77 0.35 0.54
-9.23 0.39 0.46
-7.95 0.35 0.69
-8.05 0.38 0.67
-8.38 0.41 0.61
-8.22 0.42 0.64
-7.83 0.42 0.71
-7.99 0.45 0.68
-7.95 0.47 0.69
-8.12 0.50 0.66
-8.31 0.53 0.62
-8.13 0.54 0.65
-8.10 0.55 0.66
-8.28 0.59 0.63
-8.08 0.59 0.66
-8.65 0.65 0.56
-8.37 0.65 0.61
-8.73 0.70 0.54
-8.94 0.74 0.50
-8.59 0.73 0.57
-8.84 0.78 0.52
-8.82 0.80 0.52
-8.78 0.81 0.53
-8.75 0.83 0.53
-8.91 0.87 0.50
-8.95 0.89 0.50
-9.12 0.93 0.46
-8.91 0.93 0.50
-9.14 0.98 0.46
-9.34 1.02 0.42
-9.14 1.02 0.46
-9.47 1.08 0.39
-9.69 1.13 0.35
-9.66 1.15 0.36
-9.48 1.39 0.38
-9.17 1.37 0.44
-4.09 0.63 1.39
-9.07 1.40 0.46
-9.11 1.43 0.45
-8.86 1.41 0.50
-8.84 1.43 0.50
-8.56 1.41 0.55
-8.43 1.40 0.57
-9.02 1.52 0.46
-8.58 1.47 0.54
-8.40 1.46 0.58
-9.32 1.64 0.40
-8.53 1.53 0.55
-8.38 1.54 0.58
-4.20 0.81 1.36
-0.89 -1.09 1.54
-4.42 -1.63 0.88
-4.45 -1.60 0.88
-4.45 -1.58 0.88
-4.43 -1.56 0.88
-4.29 -1.51 0.91
-4.38 -1.52 0.89
-4.27 -1.48 0.91
-4.28 -1.46 0.91
-4.40 -1.47 0.89
-4.36 -1.45 0.90
-4.18 -1.39 0.93
-4.30 -1.30 0.91
-4.23 -1.27 0.92
-4.27 -1.26 0.92
-4.27 -1.25 0.92
-4.36 -1.25 0.90
-4.31 -1.22 0.91
-4.39 -1.22 0.90
-4.31 -1.19 0.91
-4.66 -1.23 0.85
-4.39 -1.17 0.90
-4.35 -1.14 0.91
-4.36 -1.13 0.90
-5.79 -1.34 0.64
-4.60 -1.13 0.86
-5.71 -1.29 0.65
-4.48 -1.08 0.88
-4.45 -1.06 0.89
-4.84 -1.10 0.82
-4.25 -1.00 0.92
-4.59 -1.03 0.86
-4.93 -1.06 0.80
-5.68 -1.15 0.66
-4.65 -0.99 0.85
-5.45 -1.08 0.70
-4.63 -0.95 0.86
-4.46 -0.91 0.89
-4.12 -0.85 0.95
-4.04 -0.83 0.97
-4.00 -0.81 0.97
-4.21 -0.81 0.94
-4.19 -0.80 0.94
-4.01 -0.76 0.97
-4.09 -0.75 0.96
-3.90 -0.72 0.99
-4.14 -0.73 0.95
-3.90 -0.68 0.99
-4.06 -0.69 0.96
-3.81 -0.65 1.01
-4.06 -0.66 0.96
-4.09 -0.64 0.96
-4.20 -0.64 0.94
-4.00 -0.60 0.98
-4.02 -0.59 0.97
-4.02 -0.57 0.97
-4.18 -0.57 0.94
-4.11 -0.55 0.96
-4.62 -0.58 0.86
-4.25 -0.53 0.93
-4.17 -0.51 0.94
-4.48 -0.51 0.89
-3.90 -0.46 0.99
-3.96 -0.45 0.98
-4.13 -0.44 0.95
-4.09 -0.42 0.96
-4.24 -0.42 0.93
-3.82 -0.38 1.01
-3.70 -0.35 1.03
-3.87 -0.35 1.00
-6.66 -0.48 0.48
-4.21 -0.33 0.94
-4.02 -0.31 0.97
-3.85 -0.29 1.00
-6.70 -0.39 0.48
-6.86 -0.37 0.45
-6.86 -0.35 0.45
-7.05 -0.34 0.41
-6.82 -0.31 0.45
-6.84 -0.28 0.45
-5.82 -0.23 0.64
-4.92 -0.19 0.80
-6.52 -0.21 0.51
-6.41 -0.19 0.53
-5.71 -0.15 0.66
-5.55 -0.13 0.69
-5.49 -0.11 0.70
-6.18 -0.10 0.57
-6.02 -0.08 0.60
-6.73 -0.06 0.47
-6.20 -0.04 0.57
-6.58 -0.02 0.50
-7.45 0.01 0.72
-7.41 0.04 0.73
-7.11 0.08 0.79
-7.56 0.12 0.70
-7.63 0.16 0.68
-9.08 0.23 0.40
-8.09 0.24 0.59
-8.03 0.28 0.60
-8.91 0.35 0.44
-7.89 0.35 0.63
-7.63 0.38 0.68
-7.88 0.43 0.63
-7.87 0.46 0.63
-7.88 0.50 0.63
-8.02 0.55 0.60
-8.12 0.60 0.58
-8.15 0.64 0.57
-8.61 0.72 0.48
-8.34 0.74 0.53
-8.69 0.81 0.47
-8.77 0.86 0.45
-8.99 0.92 0.40
-9.08 0.98 0.39
-7.92 1.09 0.61
-8.62 1.23 0.47
-8.78 1.29 0.43
-8.48 1.29 0.49
-8.64 1.36 0.46
-8.59 1.39 0.47
-8.49 1.42 0.48
-8.16 1.41 0.55
-8.16 1.45 0.54
-8.24 1.50 0.53
-8.30 1.64 0.51
-4.49 -1.65 0.80
-4.59 -1.64 0.78
-4.30 -1.54 0.84
-4.34 -1.51 0.83
-4.34 -1.48 0.83
-4.37 -1.45 0.83
-4.43 -1.45 0.82
-4.49 -1.45 0.81
-4.34 -1.38 0.84
-4.41 -1.36 0.83
-4.38 -1.32 0.83
-4.42 -1.31 0.82
-4.40 -1.29 0.83
-4.21 -1.22 0.87
-4.81 -1.30 0.75
-4.50 -1.21 0.81
-4.45 -1.18 0.82
-4.55 -1.18 0.80
-4.59 -1.15 0.80
-4.50 -1.11 0.81
-4.39 -1.06 0.83
-4.58 -1.05 0.80
-4.95 -1.07 0.73
-4.52 -0.97 0.81
-4.66 -0.96 0.78
-4.78 -0.96 0.76
-4.52 -0.91 0.81
-6.79 -1.15 0.37
-4.40 -0.82 0.84
-4.72 -0.83 0.77
-4.11 -0.74 0.89
-4.35 -0.75 0.85
-4.11 -0.69 0.89
-4.32 -0.68 0.85
-4.30 -0.65 0.86
-4.42 -0.64 0.83
-4.36 -0.62 0.85
-4.44 -0.60 0.83
-4.95 -0.60 0.73
-4.97 -0.57 0.73
-5.96 -0.62 0.54
-6.01 -0.61 0.53
-4.36 -0.46 0.85
-4.19 -0.41 0.88
-5.01 -0.43 0.72
-6.11 -0.47 0.51
-6.34 -0.46 0.46
-4.95 -0.35 0.73
-6.52 -0.38 0.43
-4.75 -0.27 0.77
-9.27 -0.30 0.37
-7.98 -0.22 0.62
-6.14 -0.14 0.98
-7.85 -0.14 0.65
-6.34 -0.08 0.94
-7.72 -0.07 0.67
-7.39 -0.03 0.73
-5.92 0.00 0.48
-6.38 0.05 0.38
-3.89 0.28 0.88
-7.36 0.36 0.67
-7.98 0.41 0.55
-8.02 0.43 0.54
-7.98 0.45 0.55
-8.23 0.48 0.50
-8.17 0.50 0.51
-8.40 0.53 0.46
-8.12 0.54 0.52
-8.19 0.56 0.50
-7.96 0.56 0.55
-7.54 0.55 0.63
-7.64 0.58 0.61
-8.28 0.65 0.48
-8.41 0.68 0.45
-8.63 0.72 0.41
-8.89 0.87 0.35
-7.95 0.93 0.54
-7.84 0.94 0.56
-7.49 0.92 0.63
-7.96 0.99 0.54
-8.03 1.02 0.52
-8.42 1.42 0.43
-4.46 -1.55 0.75
-3.90 -1.33 0.87
-3.92 -1.16 0.87
-4.60 -1.25 0.73
-4.64 -1.24 0.73
-4.44 -1.14 0.77
-5.10 -1.21 0.63
-4.63 -1.12 0.73
-4.54 -1.09 0.75
-4.84 -1.12 0.69
-4.41 -1.04 0.78
-4.51 -1.04 0.76
-4.51 -1.02 0.76
-5.46 -1.14 0.56
-4.78 -1.02 0.70
-3.45 -0.82 0.97
-4.61 -0.96 0.74
-4.52 -0.94 0.76
-4.30 -0.89 0.80
-4.00 -0.82 0.86
-4.00 -0.80 0.86
-3.78 -0.76 0.91
-3.88 -0.76 0.89
-3.43 -0.69 0.98
-3.54 -0.69 0.96
-3.58 -0.68 0.95
-3.99 -0.71 0.87
-3.56 -0.65 0.95
-1.42 -0.40 1.38
-1.81 -0.43 1.31
-4.07 -0.64 0.85
-3.82 -0.60 0.90
-3.83 -0.59 0.90
-4.31 -0.61 0.80
-2.11 -0.41 1.25
-1.59 -0.35 1.35
-4.39 -0.57 0.79
-3.46 -0.44 0.97
-3.40 -0.42 0.98
-3.58 -0.42 0.95
-3.37 -0.39 0.99
-3.82 -0.40 0.90
-3.97 -0.40 0.87
-3.73 -0.37 0.92
-6.21 -0.45 0.42
-4.76 -0.34 0.71
-4.19 -0.30 0.83
-5.63 -0.34 0.53
-4.58 -0.28 0.75
-4.52 -0.26 0.76
-4.56 -0.25 0.75
-4.60 -0.23 0.74
-4.56 -0.22 0.75
-4.73 -0.20 0.72
-5.68 -0.19 0.52
-5.46 -0.17 0.57
-5.31 -0.15 0.60
-5.53 -0.13 0.55
-5.57 -0.11 0.55
-5.71 -0.04 0.52
-6.61 0.01 0.76
-6.74 0.02 0.73
-7.38 0.04 0.60
-7.48 0.06 0.58
-7.48 0.08 0.58
-7.46 0.10 0.58
-7.52 0.12 0.57
-7.64 0.14 0.54
-7.55 0.15 0.56
-7.79 0.18 0.51
-7.67 0.19 0.53
-7.94 0.22 0.48
-7.80 0.23 0.51
-7.82 0.27 0.50
-8.04 0.30 0.45
-8.12 0.32 0.44
-8.17 0.34 0.43
-8.02 0.36 0.46
-7.88 0.37 0.49
-7.97 0.39 0.47
-8.01 0.41 0.46
-7.87 0.43 0.49
-7.94 0.45 0.47
-8.05 0.48 0.45
-8.09 0.50 0.44
-8.17 0.52 0.42
-8.27 0.55 0.40
-8.27 0.57 0.40
-8.34 0.59 0.39
-8.28 0.61 0.40
-8.29 0.63 0.39
-8.25 0.71 0.40
-8.64 0.76 0.32
-8.80 0.80 0.28
-8.72 0.81 0.30
-9.08 0.87 0.22
-9.09 0.89 0.22
-7.86 0.91 0.47
-7.60 0.90 0.53
-7.93 0.95 0.46
-7.56 0.93 0.54
-7.94 0.99 0.46
-5.25 0.68 1.03
-5.11 0.67 1.06
-7.80 1.03 0.48
-4.96 0.68 1.09
-5.18 0.72 1.04
-4.96 0.70 1.09
-5.10 0.74 1.06
-4.89 0.72 1.10
-4.89 0.73 1.10
-4.81 0.73 1.12
-4.55 0.93 1.16
-4.41 -1.67 0.69
-4.45 -1.64 0.68
-4.55 -1.65 0.66
-4.39 -1.60 0.69
-4.47 -1.60 0.68
-4.19 -1.52 0.74
-4.20 -1.50 0.74
-4.12 -1.47 0.75
-4.07 -1.44 0.77
-4.33 -1.48 0.71
-4.21 -1.44 0.74
-4.32 -1.44 0.71
-4.26 -1.42 0.73
-4.29 -1.41 0.72
-4.34 -1.40 0.71
-4.33 -1.38 0.71
-4.30 -1.36 0.72
-4.31 -1.34 0.72
-4.43 -1.35 0.69
-4.20 -1.29 0.74
-4.24 -1.28 0.73
-4.35 -1.28 0.71
-4.30 -1.26 0.72
-4.71 -1.32 0.63
-4.96 -1.34 0.58
-5.45 -1.41 0.48
-4.93 -1.30 0.59
-4.77 -1.26 0.62
-4.85 -1.25 0.61
-4.88 -1.24 0.60
-4.88 -1.22 0.60
-4.75 -1.18 0.63
-4.80 -1.17 0.62
-4.88 -1.17 0.60
-4.58 -1.10 0.67
-4.68 -1.10 0.65
-4.48 -1.05 0.69
-4.59 -1.05 0.66
-4.44 -1.01 0.70
-4.44 -1.00 0.70
-4.38 -0.97 0.71
-4.54 -0.98 0.68
-4.46 -0.95 0.69
-4.15 -0.89 0.76
-4.28 -0.89 0.73
-4.22 -0.87 0.75
-4.08 -0.83 0.78
-3.95 -0.80 0.80
-3.70 -0.76 0.86
-3.96 -0.77 0.80
-3.75 -0.73 0.85
-3.88 -0.73 0.82
-3.98 -0.73 0.80
-3.79 -0.69 0.84
-3.76 -0.67 0.85
-3.88 -0.67 0.82
-3.92 -0.66 0.81
-3.96 -0.65 0.80
-4.39 -0.68 0.71
-3.92 -0.61 0.81
-4.59 -0.66 0.67
-4.42 -0.63 0.71
-4.27 -0.60 0.74
-4.51 -0.60 0.69
-4.19 -0.56 0.75
-4.43 -0.56 0.70
-4.20 -0.53 0.75
-4.25 -0.52 0.74
-4.26 -0.50 0.74
-4.81 -0.52 0.62
-4.56 -0.49 0.68
-4.83 -0.49 0.62
-4.82 -0.47 0.62
-4.61 -0.44 0.67
-4.74 -0.43 0.64
-4.80 -0.42 0.63
-5.41 -0.29 1.02
-5.48 -0.29 1.00
-5.54 -0.28 0.99
-5.72 -0.27 0.95
-5.72 -0.26 0.95
-6.11 -0.26 0.87
-5.68 -0.23 0.96
-7.63 -0.27 0.55
-8.12 -0.23 0.44
-7.85 -0.20 0.50
-7.93 -0.18 0.48
-7.98 -0.17 0.47
-8.23 -0.13 0.42
-6.41 -0.09 0.80
-6.61 -0.06 0.76
-6.29 -0.04 0.83
-6.93 -0.03 0.69
-7.30 -0.01 0.62
-6.95 0.06 0.62
-7.15 0.08 0.58
-7.33 0.10 0.54
-7.52 0.12 0.50
-7.46 0.13 0.51
-7.70 0.16 0.46
-7.55 0.17 0.49
-7.73 0.19 0.45
-7.88 0.22 0.42
-7.86 0.24 0.42
-7.92 0.26 0.41
-7.86 0.37 0.42
-7.83 0.38 0.42
-8.09 0.42 0.37
-8.74 0.49 0.22
-8.70 0.51 0.23
-8.77 0.54 0.21
-4.94 0.32 1.06
-5.23 0.41 0.99
-4.95 0.40 1.06
-5.03 0.42 1.04
-5.06 0.44 1.03
-5.06 0.45 1.03
-5.01 0.46 1.04
-5.20 0.49 1.00
-5.03 0.48 1.04
-4.97 0.49 1.05
-4.78 0.48 1.09
-4.89 0.51 1.06
-5.02 0.53 1.04
-4.94 0.54 1.05
-5.07 0.56 1.02
-4.97 0.57 1.05
-4.77 0.55 1.09
-3.83 0.46 1.30
-4.95 0.60 1.05
-4.76 0.59 1.09
-7.61 0.95 0.46
-5.02 0.65 1.03
-4.97 0.65 1.04
-5.00 0.67 1.03
-4.94 0.67 1.05
-5.00 0.69 1.03
-4.91 0.69 1.05
-4.95 0.71 1.04
-4.91 0.72 1.05
-4.85 0.72 1.06
-7.88 1.18 0.39
-4.13 0.64 1.22
-6.60 1.11 0.67
-4.12 0.71 1.22
-6.28 1.09 0.74
-6.30 1.11 0.73
-6.27 1.12 0.74
-6.33 1.14 0.72
-6.28 1.15 0.73
-6.29 1.17 0.73
-6.43 1.21 0.70
-6.29 1.20 0.73
-6.45 1.25 0.69
-6.45 1.26 0.69
-6.18 1.23 0.75
-6.37 1.28 0.71
-6.34 1.29 0.71
-2.47 1.49 1.49
-4.27 -1.44 0.66
-4.30 -1.44 0.65
-4.37 -1.43 0.64
-4.15 -1.37 0.69
-4.36 -1.40 0.64
-4.35 -1.38 0.65
-4.53 -1.40 0.61
-4.32 -1.34 0.65
-4.45 -1.35 0.62
-4.42 -1.33 0.63
-4.58 -1.34 0.60
-4.45 -1.30 0.63
-4.51 -1.29 0.61
-4.52 -1.28 0.61
-4.55 -1.26 0.61
-4.55 -1.25 0.60
-4.48 -1.22 0.62
-4.61 -1.22 0.59
-4.65 -1.21 0.58
-1.38 -0.65 1.31
-1.53 -0.67 1.28
-4.82 -1.19 0.55
-4.41 -1.11 0.64
-5.07 -1.19 0.49
-5.05 -1.17 0.50
-4.87 -1.13 0.54
-4.56 -1.05 0.61
-4.15 -0.97 0.70
-3.63 -0.88 0.81
-3.74 -0.88 0.79
-3.62 -0.85 0.82
-3.52 -0.82 0.84
-3.62 -0.82 0.82
-1.27 -0.50 1.34
-1.29 -0.49 1.34
-3.63 -0.78 0.82
-3.72 -0.77 0.80
-3.68 -0.75 0.81
-3.63 -0.73 0.82
-3.58 -0.71 0.83
-3.39 -0.67 0.87
-3.57 -0.68 0.83
-3.36 -0.64 0.88
-3.46 -0.64 0.86
-3.81 -0.66 0.78
-1.05 -0.37 1.39
-3.48 -0.60 0.85
-3.96 -0.63 0.75
-4.52 -0.67 0.62
-4.30 -0.63 0.67
-4.37 -0.62 0.65
-4.53 -0.62 0.62
-4.24 -0.58 0.68
-5.21 -0.64 0.47
-4.85 -0.59 0.55
-3.94 -0.50 0.75
-3.43 -0.45 0.86
-3.89 -0.47 0.76
-4.91 -0.53 0.53
-4.83 -0.50 0.55
-4.89 -0.49 0.54
-4.74 -0.46 0.57
-4.59 -0.44 0.61
-4.68 -0.43 0.58
-4.75 -0.41 0.57
-4.98 -0.41 0.52
-4.77 -0.38 0.57
-4.39 -0.34 0.65
-4.65 -0.34 0.59
-4.74 -0.33 0.57
-4.67 -0.31 0.59
-4.68 -0.29 0.58
-4.77 -0.28 0.57
-4.82 -0.26 0.55
-4.76 -0.24 0.57
-4.86 -0.23 0.55
-5.02 -0.21 0.51
-5.33 -0.20 0.44
-5.30 -0.18 0.45
-5.33 -0.17 0.44
-5.55 -0.15 0.39
-5.43 -0.13 0.42
-5.39 -0.11 0.43
-5.52 -0.02 0.40
-7.43 0.10 0.44
-7.51 0.12 0.42
-7.68 0.17 0.38
-8.03 0.53 0.29
-5.09 0.45 0.97
-4.95 0.48 1.00
-4.98 0.49 0.99
-5.11 0.52 0.96
-5.11 0.53 0.96
-5.06 0.54 0.97
-4.89 0.53 1.01
-4.96 0.55 1.00
-4.82 0.55 1.03
-4.88 0.57 1.01
-4.90 0.58 1.01
-4.89 0.59 1.01
-5.01 0.62 0.98
-5.08 0.64 0.96
-4.96 0.64 0.99
-4.95 0.65 0.99
-4.92 0.66 1.00
-4.93 0.67 1.00
-5.04 0.70 0.97
-4.97 0.70 0.99
-4.96 0.71 0.99
-5.11 0.75 0.95
-5.11 0.76 0.95
-5.46 0.83 0.87
-7.14 1.16 0.47
-6.50 1.08 0.62
-6.45 1.08 0.63
-6.54 1.12 0.61
-6.54 1.13 0.61
-6.27 1.10 0.67
-6.38 1.14 0.64
-6.27 1.13 0.67
-6.34 1.16 0.65
-6.29 1.17 0.67
-6.39 1.20 0.64
-6.32 1.21 0.65
-6.54 1.28 0.60
-6.41 1.29 0.63
-4.41 -1.36 0.56
-4.54 -1.37 0.53
-4.56 -1.36 0.53
-4.66 -1.36 0.50
-4.64 -1.33 0.51
-4.75 -1.34 0.48
-4.96 -1.36 0.44
-4.79 -1.31 0.48
-4.84 -1.30 0.46
-4.48 -1.22 0.55
-4.61 -1.23 0.52
-4.70 -1.22 0.50
-4.63 -1.20 0.51
-4.86 -1.21 0.46
-4.80 -1.19 0.48
-4.77 -1.17 0.48
-4.82 -1.16 0.47
-4.73 -1.12 0.49
-4.97 -1.14 0.44
-3.96 -0.82 0.68
-3.78 -0.78 0.72
-3.55 -0.74 0.77
-3.78 -0.75 0.72
-3.81 -0.74 0.71
-5.04 -0.41 0.43
-4.78 -0.33 0.49
-4.89 -0.28 0.46
-4.81 -0.26 0.48
-4.72 -0.24 0.50
-4.55 -0.22 0.54
-4.86 -0.21 0.47
-4.99 -0.19 0.44
-5.18 -0.18 0.40
-5.12 -0.16 0.41
-5.09 -0.12 0.42
-7.22 -0.08 0.49
-7.48 -0.06 0.43
-2.18 1.36 1.50
-3.16 1.49 1.04
-3.10 1.47 1.06
-3.68 0.49 0.73
-3.67 0.55 0.71
-1.16 -0.48 0.52
-4.23 0.50 0.56
-3.84 0.61 0.55
-3.68 0.81 0.55
-3.56 0.66 0.46
-1.23 -0.42 0.47
-4.25 0.51 0.43
-3.47 0.61 0.44
-3.59 0.67 0.41
-1.02 -1.15 0.47
-3.56 0.66 0.39
-3.56 0.66 0.36
-3.62 0.79 0.36
-4.13 0.65 0.24
-3.72 0.67 0.27
-4.00 0.62 0.22
-3.96 0.67 0.22
-3.61 0.62 0.25
-2.73 -0.19 0.33
-3.64 0.62 0.22
-1.05 -0.81 0.41
-1.02 -0.84 0.32
-0.99 -0.91 0.30
-1.03 -0.89 0.31
-1.17 -0.89 0.29
-1.19 -0.91 0.28
-1.00 -0.92 0.27
-1.16 -0.93 0.27
-1.21 -0.87 0.26
-1.11 -0.77 0.27
-1.16 -0.49 0.25
-1.02 -0.53 0.21
-14.98 0.39 1.41
-15.45 1.05 1.27
-14.28 0.01 1.13
-14.20 0.17 1.14
-14.27 0.25 1.13
-14.19 0.37 1.14
-15.09 0.52 1.23
-14.91 0.55 1.24
-14.88 0.44 1.16
-14.83 0.48 1.17
-14.95 0.52 1.16
-15.30 0.60 1.13
-15.39 0.64 1.13
-15.06 0.66 1.15
-14.84 0.69 1.17
-15.62 1.10 1.11
-15.61 1.14 1.11
-15.62 1.25 1.11
-14.27 0.05 0.96
-14.34 0.10 0.95
-14.31 0.13 0.95
-14.31 0.17 0.95
-15.70 1.03 1.02
-15.02 1.06 1.07
-15.75 1.26 1.01
-15.73 -1.11 0.85
-14.25 -0.03 0.96
-15.12 0.02 0.98
-8.42 0.03 1.51
-8.10 0.05 1.54
-14.95 0.16 1.00
-14.95 0.19 1.00
-14.76 0.23 1.01
-14.95 0.27 0.99
-14.57 0.33 1.02
-15.00 0.38 0.99
-14.89 0.41 1.00
-14.84 0.44 1.00
-14.97 0.48 0.99
-15.02 0.52 0.99
-14.92 0.55 1.00
-15.33 0.60 0.96
-15.22 0.63 0.97
-15.11 0.70 0.98
-15.74 0.77 0.93
-15.77 0.81 0.93
-15.79 0.85 0.92
-15.94 0.89 0.91
-15.84 0.93 0.92
-15.89 0.97 0.92
-15.91 1.01 0.91
-15.45 1.05 0.95
-15.50 1.09 0.95
-15.79 1.15 0.92
-14.99 1.13 0.99
-15.48 1.20 0.95
-15.69 1.26 0.93
-15.47 1.28 0.95
-15.05 1.28 0.98
-15.59 1.36 0.94
-14.91 1.38 0.99
-14.78 1.40 1.00
-12.76 -1.63 0.98
-12.38 -1.30 1.01
-12.88 -1.20 0.97
-13.00 -1.13 0.96
-10.46 -0.92 1.16
-15.36 -1.05 0.78
-14.66 -0.72 1.02
-15.87 -0.55 0.92
-12.08 -0.30 1.22
-15.22 -0.31 0.98
-15.17 -0.27 0.98
-10.13 -0.13 1.38
-15.21 -0.17 0.98
-15.09 -0.13 0.99
-15.16 -0.06 0.98
-15.02 -0.02 0.99
-14.41 0.01 0.77
-15.06 0.16 0.91
-15.07 0.20 0.91
-15.02 0.23 0.91
-14.82 0.44 0.93
-15.31 0.49 0.89
-14.97 0.52 0.92
-15.06 0.56 0.91
-15.86 0.62 0.84
-15.28 0.64 0.89
-15.76 0.73 0.85
-15.84 0.77 0.84
-15.84 0.81 0.84
-15.49 0.83 0.87
-15.98 0.90 0.83
-15.90 0.93 0.84
-15.96 0.97 0.83
-15.97 1.01 0.83
-15.62 1.03 0.86
-15.72 1.07 0.85
-15.23 1.07 0.89
-15.73 1.15 0.85
-15.52 1.17 0.86
-15.34 1.19 0.88
-14.86 1.23 0.92
-15.09 1.28 0.90
-15.18 1.36 0.89
-12.27 -1.54 0.94
-9.88 -0.79 1.15
-7.36 -0.32 1.36
-7.39 -0.28 1.35
-7.41 -0.25 1.35
-7.46 -0.23 1.35
-15.05 0.01 0.81
-8.20 0.05 1.43
-14.79 0.12 0.84
-14.48 0.15 0.87
-14.30 0.19 0.88
-14.77 0.26 0.84
-14.63 0.30 0.85
-14.86 0.33 0.83
-14.56 0.40 0.86
-14.44 0.43 0.87
-14.70 0.47 0.84
-14.84 0.51 0.83
-15.38 0.57 0.78
-15.48 0.61 0.77
-15.55 0.65 0.77
-15.87 0.70 0.74
-15.80 0.73 0.74
-15.75 0.77 0.75
-15.45 0.79 0.77
-15.56 0.83 0.76
-12.92 0.73 1.00
-15.75 0.92 0.75
-15.67 0.96 0.75
-14.84 0.94 0.83
-15.69 1.03 0.75
-13.17 0.90 0.98
-15.16 1.07 0.80
-15.55 1.13 0.76
-14.86 1.12 0.82
-15.02 1.17 0.81
-15.13 1.21 0.80
-14.95 1.23 0.82
-14.89 1.26 0.82
-11.72 -1.65 0.90
-12.22 -1.50 0.85
-12.09 -1.31 0.87
-12.09 -1.24 0.87
-10.15 -1.02 1.04
-12.97 -0.98 0.79
-13.10 -0.77 0.78
-6.91 -0.44 1.33
-15.01 -0.78 0.60
-7.06 -0.40 1.32
-7.05 -0.38 1.32
-11.55 -0.46 0.92
-14.48 -0.51 0.65
-7.37 -0.28 1.29
-7.44 -0.25 1.29
-7.43 -0.23 1.29
-14.17 -0.34 0.68
-7.20 -0.16 1.31
-14.70 -0.19 0.85
-14.76 -0.16 0.84
-15.19 -0.13 0.80
-8.13 -0.03 1.44
-14.30 0.01 0.57
-11.80 0.32 0.81
-13.29 0.39 0.67
-14.32 0.39 0.80
-14.82 0.44 0.75
-15.62 0.50 0.67
-15.88 0.55 0.65
-15.59 0.57 0.68
-15.85 0.62 0.65
-15.52 0.65 0.68
-15.88 0.70 0.65
-15.91 0.74 0.65
-15.84 0.77 0.65
-15.77 0.81 0.66
-15.73 0.88 0.66
-15.95 0.93 0.64
-13.01 0.79 0.92
-12.98 0.82 0.92
-15.77 1.04 0.66
-15.06 1.10 0.72
-15.08 1.13 0.72
-14.75 1.15 0.75
-14.87 1.19 0.74
-14.90 1.23 0.74
-14.80 1.26 0.75
-15.03 1.31 0.72
-15.16 1.36 0.71
-12.91 1.22 0.93
-11.71 -1.65 0.82
-11.71 -1.58 0.82
-12.00 -1.58 0.79
-11.98 -1.51 0.79
-11.80 -1.45 0.81
-11.62 -1.40 0.83
-11.76 -1.38 0.82
-11.94 -1.36 0.80
-12.02 -1.30 0.79
-12.13 -1.28 0.78
-12.00 -1.23 0.79
-11.84 -1.18 0.81
-12.42 -1.20 0.75
-10.30 -1.00 0.96
-9.88 -0.93 1.00
-13.02 -1.02 0.70
-10.26 -0.81 0.96
-10.02 -0.77 0.98
-12.55 -0.81 0.74
-7.03 -0.49 1.27
-15.10 -0.78 0.50
-15.26 -0.66 0.48
-15.26 -0.62 0.48
-14.72 -0.52 0.54
-7.81 -0.29 1.20
-15.73 -0.38 0.44
-14.37 -0.31 0.57
-9.98 -0.20 0.99
-9.95 -0.17 0.99
-10.12 -0.11 0.97
-9.26 -0.08 1.06
-13.73 -0.06 0.63
-9.99 0.01 1.15
-10.05 0.04 1.15
-15.53 0.09 0.58
-8.20 0.09 1.33
-14.18 0.22 0.72
-14.57 0.26 0.68
