# .PCD v0.7 - Point Cloud Data file format
VERSION 0.7
FIELDS x y z
SIZE 4 4 4
TYPE F F F
COUNT 1 1 1
WIDTH 2851
HEIGHT 1
VIEWPOINT 0 0 0 1 0 0 0
POINTS 2851
DATA ASCII
-9.91 0.16 1.28
-9.98 0.18 1.27
-9.84 0.20 1.29
-9.70 0.22 1.30
-9.77 0.25 1.29
-9.84 0.27 1.29
-9.88 0.30 1.28
-10.09 0.33 1.26
-10.12 0.36 1.26
-10.08 0.38 1.26
-10.10 0.40 1.26
-10.30 0.44 1.24
-10.58 0.47 1.22
-9.99 0.47 1.27
-8.44 0.42 1.41
-9.25 0.48 1.34
-10.89 0.59 1.19
-8.53 0.51 1.40
-8.44 0.52 1.41
-8.52 0.55 1.40
-8.55 0.57 1.40
-8.47 0.58 1.41
-8.47 0.61 1.41
-8.48 0.63 1.40
-8.83 0.67 1.37
-8.67 0.68 1.39
-8.49 0.69 1.40
-8.59 0.72 1.39
-11.66 1.00 1.11
-11.77 1.07 1.10
-11.90 1.10 1.09
-12.23 1.37 1.06
-10.70 1.33 1.20
-10.23 1.30 1.24
-10.02 1.30 1.26
-10.22 1.50 1.24
-10.19 1.55 1.24
-10.47 1.62 1.21
-4.82 1.17 1.72
-3.36 1.16 1.84
-4.36 1.53 1.75
-5.85 -1.47 1.42
-5.71 -1.43 1.43
-6.45 -1.54 1.37
-5.89 -1.40 1.42
-5.85 -1.37 1.42
-5.67 -1.33 1.44
-5.37 -1.26 1.47
-5.51 -1.26 1.45
-5.69 -1.27 1.44
-5.48 -1.22 1.46
-5.43 -1.19 1.46
-5.49 -1.18 1.46
-5.51 -1.14 1.45
-5.83 -1.17 1.42
-5.63 -1.12 1.44
-5.27 -1.05 1.48
-5.25 -1.03 1.48
-5.70 -1.07 1.44
-5.62 -1.04 1.45
-5.77 -1.04 1.43
-5.80 -1.02 1.43
-5.68 -0.99 1.44
-5.72 -0.97 1.44
-5.92 -0.98 1.42
-5.75 -0.92 1.43
-5.96 -0.92 1.42
-6.13 -0.92 1.40
-5.84 -0.87 1.42
-5.73 -0.84 1.44
-5.88 -0.83 1.42
-5.71 -0.80 1.44
-5.81 -0.79 1.43
-5.77 -0.76 1.43
-5.78 -0.74 1.43
-5.47 -0.70 1.46
-5.94 -0.72 1.42
-5.55 -0.67 1.45
-6.60 -0.73 1.36
-7.45 -0.77 1.28
-6.34 -0.67 1.38
-4.98 -0.55 1.50
-4.91 -0.52 1.51
-5.23 -0.53 1.48
-5.76 -0.54 1.43
-5.69 -0.52 1.44
-6.47 -0.55 1.37
-5.86 -0.49 1.42
-5.91 -0.47 1.42
-5.85 -0.45 1.42
-6.11 -0.44 1.40
-5.83 -0.41 1.43
-5.97 -0.40 1.41
-11.25 -0.61 0.94
-11.89 -0.60 0.88
-14.72 -0.64 0.62
-5.68 -0.29 1.44
-5.45 -0.26 1.46
-5.47 -0.24 1.46
-5.62 -0.22 1.45
-5.46 -0.20 1.46
-5.46 -0.18 1.46
-5.41 -0.16 1.46
-5.37 -0.14 1.47
-5.34 -0.12 1.47
-6.84 -0.09 1.56
-9.71 -0.10 1.30
-9.94 -0.08 1.28
-9.77 -0.05 1.29
-9.70 -0.03 1.30
-9.78 -0.01 1.29
-8.80 0.01 1.10
-7.25 0.03 1.24
-7.17 0.06 1.25
-7.17 0.08 1.25
-7.13 0.10 1.25
-7.13 0.12 1.25
-7.11 0.15 1.26
-7.14 0.17 1.25
-7.05 0.19 1.26
-7.54 0.23 1.21
-7.40 0.25 1.23
-10.02 0.28 1.21
-10.17 0.31 1.20
-10.34 0.34 1.18
-10.12 0.36 1.20
-10.30 0.39 1.19
-10.35 0.41 1.18
-10.73 0.45 1.14
-10.41 0.46 1.17
-8.31 0.39 1.38
-8.34 0.42 1.37
-8.38 0.44 1.37
-8.88 0.48 1.32
-8.48 0.48 1.36
-8.65 0.51 1.34
-8.57 0.53 1.35
-8.55 0.55 1.35
-8.57 0.57 1.35
-8.48 0.58 1.36
-8.48 0.60 1.36
-8.48 0.62 1.36
-8.65 0.66 1.34
-8.55 0.67 1.35
-8.62 0.70 1.34
-8.58 0.72 1.35
-4.20 0.37 1.77
-11.67 1.03 1.05
-11.41 1.03 1.07
-12.35 1.15 0.98
-11.95 1.14 1.02
-12.27 1.20 0.99
-12.09 1.21 1.01
-12.09 1.24 1.01
-12.20 1.28 0.99
-12.27 1.32 0.99
-10.02 1.10 1.20
-12.27 1.38 0.99
-10.79 1.24 1.13
-10.60 1.24 1.15
-4.18 0.67 1.76
-4.74 1.04 1.70
-3.96 1.30 1.76
-5.99 -1.60 1.36
-5.89 -1.52 1.37
-5.85 -1.49 1.38
-5.77 -1.42 1.38
-5.94 -1.43 1.37
-5.94 -1.41 1.37
-5.59 -1.33 1.40
-5.57 -1.30 1.40
-5.51 -1.28 1.41
-5.55 -1.26 1.41
-5.21 -1.19 1.44
-5.54 -1.22 1.41
-5.44 -1.19 1.42
-5.49 -1.18 1.41
-5.36 -1.14 1.42
-5.93 -1.20 1.37
-5.86 -1.17 1.38
-5.97 -1.10 1.37
-6.04 -1.09 1.36
-6.04 -1.07 1.36
-6.01 -1.05 1.36
-5.93 -1.02 1.37
-6.03 -1.01 1.36
-6.17 -1.01 1.35
-6.30 -1.00 1.34
-6.07 -0.95 1.36
-5.85 -0.91 1.38
-6.00 -0.90 1.36
-5.94 -0.88 1.37
-5.89 -0.85 1.38
-5.89 -0.83 1.38
-5.61 -0.79 1.40
-5.63 -0.77 1.40
-5.64 -0.75 1.40
-5.77 -0.74 1.39
-5.69 -0.71 1.39
-5.80 -0.71 1.38
-6.82 -0.77 1.29
-5.89 -0.67 1.38
-7.61 -0.79 1.21
-4.88 -0.56 1.47
-6.54 -0.66 1.31
-6.11 -0.61 1.35
-6.57 -0.62 1.31
-11.23 -0.90 0.86
-9.09 -0.73 1.07
-5.90 -0.51 1.38
-6.40 -0.52 1.33
-5.96 -0.47 1.37
-5.84 -0.45 1.38
-5.55 -0.42 1.41
-5.89 -0.41 1.38
-11.16 -0.60 0.87
-11.38 -0.58 0.85
-5.55 -0.32 1.41
-5.80 -0.29 1.38
-5.15 -0.25 1.45
-1.81 -0.13 1.77
-5.22 -0.21 1.44
-5.20 -0.20 1.44
-5.29 -0.18 1.43
-8.99 -0.23 1.08
-8.90 -0.21 1.09
-8.80 -0.18 1.10
-8.64 -0.15 1.11
-8.54 -0.12 1.12
-6.91 -0.08 1.28
-7.12 -0.06 1.26
-7.09 -0.04 1.26
-7.34 -0.01 1.24
-9.84 0.01 1.17
-9.88 0.04 1.16
-10.11 0.06 1.14
-9.81 0.08 1.17
-9.97 0.11 1.15
-9.91 0.13 1.16
-9.78 0.16 1.17
-9.69 0.18 1.18
-9.85 0.20 1.17
-9.80 0.23 1.17
-9.88 0.25 1.16
-9.94 0.28 1.16
-10.09 0.31 1.14
-10.07 0.33 1.14
-10.06 0.35 1.14
-10.26 0.38 1.12
-8.38 0.33 1.31
-8.45 0.36 1.31
-10.60 0.47 1.09
-11.05 0.52 1.04
-10.35 0.51 1.11
-8.67 0.45 1.28
-8.46 0.46 1.30
-8.47 0.48 1.30
-8.77 0.52 1.27
-8.66 0.54 1.28
-8.67 0.56 1.28
-8.65 0.58 1.28
-8.66 0.60 1.28
-8.51 0.61 1.30
-8.66 0.64 1.28
-8.48 0.65 1.30
-8.48 0.67 1.30
-8.79 0.71 1.27
-8.62 0.72 1.29
-11.62 1.00 0.98
-11.77 1.04 0.96
-11.69 1.06 0.97
-11.68 1.09 0.97
-11.64 1.11 0.97
-11.85 1.16 0.95
-11.96 1.20 0.94
-11.89 1.22 0.95
-11.87 1.25 0.95
-12.02 1.29 0.93
-12.16 1.33 0.92
-12.42 1.39 0.89
-12.43 1.42 0.89
-12.62 1.48 0.87
-12.20 1.46 0.91
-10.18 1.57 1.11
-10.55 1.66 1.08
-10.17 1.62 1.11
-4.88 1.01 1.66
-5.02 1.14 1.64
-4.27 1.16 1.71
-4.57 1.58 1.67
-5.89 -1.57 1.31
-5.84 -1.54 1.32
-5.75 -1.50 1.33
-5.73 -1.48 1.33
-6.05 -1.51 1.30
-5.96 -1.48 1.31
-5.99 -1.46 1.30
-5.66 -1.38 1.34
-5.66 -1.36 1.34
-5.59 -1.33 1.35
-5.57 -1.31 1.35
-5.49 -1.28 1.36
-5.47 -1.25 1.36
-5.54 -1.25 1.35
-5.44 -1.21 1.36
-5.48 -1.20 1.36
-5.50 -1.18 1.36
-5.90 -1.22 1.32
-5.91 -1.20 1.32
-5.81 -1.17 1.33
-5.98 -1.17 1.31
-5.73 -1.12 1.33
-6.09 -1.14 1.30
-5.93 -1.10 1.31
-5.96 -1.08 1.31
-6.04 -1.08 1.30
-6.10 -1.06 1.30
-7.06 -1.16 1.20
-5.89 -1.00 1.32
-5.82 -0.97 1.33
-6.13 -0.98 1.29
-5.91 -0.94 1.32
-5.90 -0.92 1.32
-5.79 -0.88 1.33
-5.84 -0.87 1.32
-5.35 -0.80 1.38
-5.54 -0.80 1.35
-5.91 -0.82 1.32
-5.83 -0.79 1.33
-6.00 -0.79 1.31
-6.18 -0.78 1.29
-5.80 -0.73 1.33
-5.55 -0.68 1.35
-5.85 -0.69 1.32
-5.66 -0.66 1.34
-6.68 -0.71 1.24
-6.78 -0.70 1.23
-4.82 -0.54 1.43
-5.49 -0.57 1.36
-5.79 -0.57 1.33
-5.84 -0.55 1.32
-5.93 -0.54 1.32
-5.64 -0.50 1.35
-5.86 -0.49 1.32
-5.88 -0.47 1.32
-5.68 -0.44 1.34
-5.78 -0.43 1.33
-5.73 -0.41 1.34
-5.42 -0.37 1.37
-5.70 -0.36 1.34
-5.76 -0.35 1.33
-5.46 -0.32 1.36
-5.88 -0.31 1.32
-6.68 -0.23 1.49
-6.75 -0.22 1.48
-6.93 -0.21 1.47
-13.41 -0.33 0.80
-6.45 -0.14 1.51
-11.74 -0.24 0.97
-6.77 -0.12 1.48
-9.91 -0.15 1.16
-9.76 -0.13 1.18
-6.41 -0.07 1.52
-10.01 -0.08 1.15
-9.96 -0.06 1.16
-9.89 -0.03 1.16
-9.79 -0.01 1.17
-6.98 0.03 1.15
-7.88 0.06 1.05
-8.98 0.09 0.93
-7.12 0.10 1.13
-7.02 0.12 1.14
-7.32 0.15 1.11
-8.98 0.20 0.93
-7.48 0.20 1.09
-7.42 0.22 1.10
-8.95 0.29 0.93
-9.16 0.32 0.91
-9.30 0.35 0.89
-9.08 0.37 0.92
-8.70 0.39 0.96
-9.31 0.44 0.89
-7.48 0.39 1.09
-7.65 0.42 1.07
-7.58 0.44 1.08
-7.81 0.48 1.05
-11.07 0.55 0.97
-10.38 0.54 1.04
-11.09 0.60 0.96
-8.82 0.50 1.21
-9.17 0.54 1.17
-9.09 0.56 1.18
-8.88 0.57 1.20
-8.95 0.59 1.20
-9.05 0.62 1.19
-8.69 0.62 1.22
-8.73 0.64 1.22
-8.79 0.67 1.21
-8.67 0.68 1.22
-11.88 0.96 0.87
-11.67 0.97 0.90
-11.84 1.01 0.88
-11.63 1.02 0.90
-11.86 1.07 0.87
-11.93 1.11 0.87
-11.60 1.10 0.90
-11.73 1.14 0.89
-11.98 1.20 0.86
-11.97 1.23 0.86
-11.90 1.25 0.87
-12.01 1.29 0.86
-12.12 1.33 0.84
-12.05 1.35 0.85
-12.02 1.38 0.85
-12.20 1.43 0.83
-12.26 1.46 0.83
-12.02 1.46 0.85
-10.98 1.66 0.96
-5.96 -1.49 1.25
-5.86 -1.41 1.27
-5.80 -1.38 1.27
-5.75 -1.35 1.28
-5.68 -1.30 1.29
-5.55 -1.22 1.30
-5.67 -1.22 1.29
-6.11 -1.22 1.24
-5.98 -1.19 1.25
-6.09 -1.12 1.24
-6.15 -1.11 1.24
-6.11 -1.08 1.24
-5.95 -1.04 1.26
-6.22 -1.03 1.23
-6.00 -0.96 1.25
-6.06 -0.95 1.25
-5.75 -0.88 1.28
-13.47 -1.66 0.44
-13.51 -1.62 0.44
-13.24 -1.56 0.46
-13.14 -1.51 0.48
-13.29 -1.49 0.46
-13.20 -1.44 0.47
-5.93 -0.76 1.26
-4.88 -0.62 1.38
-13.15 -1.25 0.48
-13.72 -1.26 0.41
-13.31 -1.19 0.46
-13.41 -1.12 0.45
-13.95 -1.08 0.39
-10.79 -0.84 0.73
-10.85 -0.81 0.73
-5.98 -0.50 1.26
-5.98 -0.48 1.26
-5.83 -0.45 1.27
-11.70 -0.59 0.63
-11.55 -0.52 0.65
-8.99 -0.40 0.93
-8.77 -0.36 0.95
-8.48 -0.33 0.98
-8.65 -0.31 0.97
-6.72 -0.23 1.18
-6.76 -0.21 1.17
-6.76 -0.19 1.17
-6.70 -0.17 1.18
-6.79 -0.15 1.17
-6.96 -0.13 1.15
-7.05 -0.10 1.14
-9.04 -0.10 0.92
-8.90 -0.07 0.94
-8.75 -0.04 0.95
-8.82 -0.01 0.95
-9.98 0.01 1.02
-10.80 0.04 0.92
-10.11 0.06 1.00
-10.11 0.09 1.00
-9.57 0.11 1.06
-9.75 0.13 1.04
-9.72 0.15 1.05
-9.84 0.18 1.03
-9.73 0.20 1.04
-9.76 0.23 1.04
-8.20 0.21 1.22
-8.13 0.23 1.23
-8.14 0.25 1.23
-8.23 0.27 1.22
-8.30 0.29 1.21
-8.27 0.31 1.21
-8.46 0.34 1.19
-8.39 0.36 1.20
-8.70 0.39 1.16
-8.39 0.40 1.20
-8.48 0.42 1.19
-9.69 0.50 1.05
-9.16 0.50 1.11
-9.97 0.57 1.01
-11.22 0.66 0.87
-8.86 0.55 1.14
-8.81 0.57 1.15
-9.03 0.60 1.12
-11.17 0.77 0.87
-9.17 0.66 1.11
-8.65 0.64 1.17
-8.59 0.66 1.17
-8.48 0.67 1.18
-11.11 0.90 0.88
-11.21 0.93 0.87
-8.61 0.74 1.17
-11.27 0.99 0.86
-8.21 0.75 1.21
-11.78 1.09 0.80
-11.48 1.10 0.83
-11.49 1.12 0.83
-11.55 1.16 0.82
-11.80 1.21 0.80
-11.87 1.25 0.79
-11.75 1.26 0.80
-11.78 1.30 0.80
-10.54 1.19 0.94
-10.81 1.24 0.91
-11.98 1.41 0.77
-11.85 1.42 0.79
-11.85 1.45 0.79
-12.02 1.50 0.77
-11.73 1.49 0.80
-11.43 1.48 0.83
-10.63 1.43 0.92
-10.51 1.44 0.94
-10.34 1.45 0.96
-10.37 1.47 0.95
-10.18 1.47 0.98
-10.52 1.60 0.93
-10.59 1.64 0.92
-4.15 0.67 1.68
-4.29 0.93 1.65
-4.41 1.14 1.63
-3.96 1.40 1.67
-4.23 1.53 1.64
-4.09 1.64 1.65
-5.86 -1.58 1.20
-6.24 -1.61 1.16
-6.32 -1.60 1.15
-6.08 -1.54 1.18
-6.23 -1.54 1.16
-6.39 -1.55 1.14
-6.10 -1.48 1.18
-6.05 -1.45 1.18
-5.92 -1.39 1.20
-5.86 -1.36 1.21
-5.70 -1.31 1.22
-5.73 -1.30 1.22
-5.71 -1.27 1.22
-5.55 -1.23 1.24
-5.67 -1.23 1.23
-5.82 -1.23 1.21
-5.81 -1.21 1.21
-5.51 -1.15 1.25
-5.63 -1.14 1.23
-5.68 -1.13 1.23
-5.77 -1.12 1.22
-5.77 -1.10 1.22
-5.84 -1.09 1.21
-5.90 -1.08 1.20
-5.97 -1.07 1.20
-5.91 -1.04 1.20
-5.97 -1.03 1.20
-5.88 -1.00 1.21
-5.91 -0.98 1.20
-5.97 -0.96 1.20
-5.68 -0.91 1.23
-5.69 -0.89 1.23
-5.60 -0.87 1.24
-5.75 -0.86 1.22
-5.66 -0.83 1.23
-5.71 -0.82 1.23
-5.61 -0.79 1.24
-5.30 -0.74 1.27
-5.84 -0.77 1.21
-5.70 -0.74 1.23
-5.80 -0.73 1.22
-6.06 -0.73 1.19
-6.79 -0.77 1.10
-6.79 -0.75 1.10
-5.05 -0.59 1.30
-5.23 -0.58 1.28
-4.70 -0.53 1.34
-4.77 -0.52 1.34
-4.81 -0.50 1.33
-5.07 -0.50 1.30
-4.95 -0.47 1.32
-5.43 -0.49 1.26
-5.31 -0.46 1.27
-5.64 -0.46 1.24
-7.38 -0.40 1.32
-7.07 -0.36 1.36
-7.16 -0.35 1.34
-7.05 -0.33 1.36
-6.77 -0.30 1.39
-6.98 -0.29 1.37
-6.79 -0.27 1.39
-6.93 -0.26 1.37
-13.30 -0.46 0.64
-9.87 -0.32 1.03
-6.56 -0.20 1.41
-6.57 -0.18 1.41
-6.48 -0.16 1.42
-11.91 -0.27 0.80
-6.72 -0.13 1.40
-6.61 -0.12 1.41
-6.29 -0.10 1.45
-6.44 -0.08 1.43
-6.38 -0.07 1.43
-9.78 -0.08 1.04
-6.41 -0.04 1.43
-9.83 -0.03 1.04
-9.78 -0.01 1.04
-7.34 0.01 0.97
-9.26 0.04 0.74
-9.80 0.08 0.97
-9.73 0.13 0.98
-9.73 0.15 0.98
-9.66 0.18 0.99
-9.78 0.20 0.98
-9.55 0.22 1.00
-9.43 0.24 1.02
-8.16 0.23 1.17
-8.17 0.25 1.17
-8.23 0.29 1.16
-8.20 0.31 1.17
-8.28 0.33 1.16
-8.28 0.37 1.16
-8.31 0.39 1.15
-8.38 0.42 1.14
-8.59 0.47 1.12
-8.55 0.49 1.12
-8.53 0.51 1.12
-8.58 0.55 1.12
-10.96 0.73 0.83
-8.53 0.59 1.12
-8.58 0.63 1.12
-8.52 0.65 1.12
-11.38 0.89 0.77
-11.06 0.92 0.81
-11.00 0.94 0.82
-10.91 0.96 0.83
-11.12 1.03 0.80
-10.98 1.05 0.82
-11.41 1.12 0.77
-3.77 0.40 1.70
-11.78 1.24 0.72
-11.87 1.27 0.71
-11.76 1.32 0.72
-11.85 1.36 0.71
-11.97 1.40 0.69
-12.15 1.48 0.67
-11.97 1.49 0.69
-10.30 1.39 0.89
-10.15 1.39 0.91
-10.26 1.46 0.90
-10.30 1.49 0.89
-9.91 1.46 0.94
-4.38 0.69 1.62
-4.12 0.73 1.65
-3.91 0.79 1.68
-3.99 0.85 1.66
-4.30 0.98 1.62
-4.12 1.14 1.64
-4.49 1.53 1.58
-4.45 1.66 1.58
-6.39 -1.61 1.08
-6.46 -1.60 1.07
-6.59 -1.60 1.06
-6.32 -1.53 1.09
-6.41 -1.53 1.08
-6.44 -1.51 1.08
-6.46 -1.49 1.08
-6.65 -1.50 1.05
-6.02 -1.38 1.13
-5.71 -1.31 1.17
-5.93 -1.32 1.14
-5.64 -1.26 1.18
-6.19 -1.32 1.11
-5.97 -1.27 1.14
-5.87 -1.24 1.15
-5.88 -1.22 1.15
-5.86 -1.19 1.15
-5.87 -1.17 1.15
-5.68 -1.13 1.17
-5.75 -1.12 1.17
-5.71 -1.09 1.17
-5.98 -1.11 1.14
-5.91 -1.06 1.15
-5.96 -1.04 1.14
-6.07 -1.04 1.13
-6.12 -1.02 1.12
-5.94 -0.98 1.14
-5.86 -0.95 1.15
-5.63 -0.91 1.18
-5.97 -0.90 1.14
-5.84 -0.87 1.16
-5.73 -0.84 1.17
-5.65 -0.81 1.18
-5.57 -0.78 1.19
-5.45 -0.75 1.21
-5.63 -0.75 1.18
-7.48 -0.87 0.96
-1.97 -0.38 1.63
-5.94 -0.70 1.15
-5.37 -0.63 1.22
-4.96 -0.58 1.27
-5.00 -0.57 1.26
-5.21 -0.56 1.24
-5.29 -0.53 1.23
-4.88 -0.49 1.28
-4.62 -0.45 1.31
-5.25 -0.47 1.23
-5.16 -0.45 1.24
-5.36 -0.44 1.22
-5.65 -0.44 1.18
-5.45 -0.39 1.21
-5.30 -0.37 1.22
-5.95 -0.37 1.14
-5.94 -0.35 1.15
-5.98 -0.33 1.14
-6.21 -0.32 1.11
-6.49 -0.31 1.08
-6.48 -0.27 1.08
-6.56 -0.25 1.07
-6.48 -0.23 1.08
-5.91 -0.19 1.15
-5.95 -0.17 1.14
-9.15 -0.21 0.75
-6.49 -0.14 1.08
-8.27 -0.12 0.86
-8.69 -0.09 0.81
-8.28 -0.07 0.86
-8.02 -0.04 0.89
-7.77 -0.01 0.92
-9.57 0.01 0.93
-9.70 0.04 0.91
-9.45 0.06 0.95
-9.83 0.08 0.90
-9.73 0.11 0.91
-9.75 0.13 0.91
-9.62 0.15 0.92
-9.47 0.17 0.94
-9.45 0.20 0.95
-9.44 0.22 0.95
-10.16 0.26 0.85
-8.68 0.24 1.05
-8.52 0.26 1.06
-8.17 0.27 1.11
-8.12 0.29 1.12
-8.17 0.31 1.11
-8.09 0.32 1.12
-8.16 0.35 1.11
-8.38 0.38 1.08
-8.54 0.40 1.06
-8.38 0.42 1.08
-10.55 0.55 0.80
-10.42 0.57 0.82
-8.88 0.51 1.02
-8.70 0.52 1.04
-8.49 0.53 1.07
-8.66 0.55 1.04
-8.47 0.56 1.07
-10.52 0.72 0.80
-10.65 0.76 0.79
-11.02 0.81 0.74
-11.05 0.84 0.73
-10.99 0.86 0.74
-10.92 0.88 0.75
-10.70 0.89 0.78
-10.72 0.92 0.77
-10.66 0.94 0.78
-10.80 0.98 0.76
-10.94 1.02 0.74
-10.91 1.04 0.75
-10.86 1.06 0.75
-10.95 1.10 0.74
-10.98 1.13 0.73
-11.06 1.16 0.72
-11.06 1.19 0.72
-11.47 1.26 0.67
-11.48 1.29 0.67
-11.58 1.33 0.66
-11.73 1.37 0.64
-11.63 1.39 0.65
-11.94 1.46 0.61
-11.92 1.48 0.61
-11.96 1.52 0.60
-10.26 1.33 0.82
-10.45 1.38 0.80
-10.43 1.40 0.80
-10.54 1.44 0.79
-10.23 1.43 0.83
-10.39 1.47 0.80
-10.67 1.54 0.77
-10.52 1.54 0.79
-10.48 1.57 0.79
-10.50 1.59 0.79
-4.60 0.93 1.55
-4.49 1.06 1.56
-6.09 -1.58 1.06
-6.30 -1.60 1.03
-6.20 -1.56 1.04
-6.54 -1.60 1.00
-6.36 -1.54 1.02
-6.46 -1.54 1.01
-6.40 -1.51 1.02
-6.32 -1.47 1.03
-6.21 -1.43 1.04
-6.03 -1.38 1.07
-5.46 -1.27 1.14
-6.08 -1.35 1.06
-5.85 -1.29 1.09
-5.77 -1.26 1.10
-5.93 -1.26 1.08
-5.72 -1.21 1.11
-5.81 -1.21 1.10
-5.74 -1.18 1.11
-6.06 -1.20 1.06
-6.07 -1.18 1.06
-5.85 -1.13 1.09
-5.79 -1.10 1.10
-5.75 -1.08 1.11
-5.72 -1.05 1.11
-5.66 -1.03 1.12
-5.70 -1.01 1.11
-6.10 -1.04 1.06
-5.96 -1.00 1.08
-5.99 -0.99 1.08
-5.70 -0.93 1.11
-5.89 -0.94 1.09
-5.83 -0.91 1.10
-5.60 -0.86 1.13
-5.35 -0.82 1.16
-5.62 -0.83 1.12
-5.77 -0.82 1.10
-5.26 -0.75 1.17
-5.69 -0.77 1.12
-6.75 -0.85 0.98
-6.11 -0.77 1.06
-5.81 -0.73 1.10
-5.42 -0.67 1.15
-5.48 -0.66 1.14
-4.95 -0.60 1.21
-5.19 -0.60 1.18
-4.89 -0.56 1.22
-4.81 -0.54 1.23
-4.89 -0.52 1.22
-4.89 -0.50 1.22
-4.87 -0.49 1.22
-4.86 -0.47 1.22
-4.84 -0.45 1.23
-4.86 -0.43 1.22
-5.45 -0.45 1.15
-5.36 -0.43 1.16
-4.96 -0.39 1.21
-5.05 -0.37 1.20
-5.07 -0.35 1.20
-5.90 -0.37 1.09
-5.90 -0.35 1.09
-5.93 -0.33 1.08
-5.85 -0.31 1.09
-5.82 -0.29 1.10
-5.99 -0.28 1.08
-6.08 -0.26 1.06
-6.33 -0.24 1.03
-6.12 -0.22 1.06
-6.27 -0.20 1.04
-6.35 -0.18 1.03
-6.25 -0.16 1.04
-6.46 -0.14 1.02
-9.72 -0.12 0.91
-6.35 -0.07 1.35
-6.19 -0.05 1.37
-6.12 -0.03 1.38
-9.76 -0.03 0.91
-9.43 -0.01 0.95
-6.57 0.01 0.94
-6.56 0.03 0.94
-7.99 0.06 0.74
-7.59 0.08 0.80
-6.91 0.10 0.89
-6.85 0.12 0.90
-6.96 0.15 0.88
-7.74 0.18 0.77
-9.27 0.24 0.57
-9.35 0.27 0.55
-9.47 0.30 0.54
-9.14 0.32 0.58
-8.40 0.25 1.02
-8.09 0.26 1.06
-9.98 0.35 0.80
-8.23 0.31 1.04
-9.58 0.38 0.86
-9.88 0.42 0.82
-9.92 0.44 0.81
-8.21 0.39 1.05
-10.11 0.50 0.78
-10.03 0.52 0.80
-8.22 0.45 1.04
-10.40 0.59 0.75
-10.38 0.61 0.75
-10.55 0.65 0.72
-8.80 0.56 0.96
-10.55 0.70 0.72
-10.55 0.73 0.72
-10.45 0.74 0.74
-10.38 0.76 0.74
-10.49 0.80 0.73
-10.60 0.83 0.71
-10.54 0.85 0.72
-10.52 0.88 0.72
-10.59 0.91 0.71
-10.73 0.94 0.69
-10.65 0.96 0.71
-10.70 0.99 0.70
-10.86 1.04 0.67
-11.02 1.08 0.65
-11.23 1.12 0.62
-11.30 1.16 0.61
-10.98 1.15 0.66
-11.27 1.21 0.62
-11.61 1.27 0.57
-11.39 1.28 0.60
-11.47 1.31 0.59
-11.63 1.36 0.56
-11.75 1.40 0.55
-11.98 1.46 0.51
-12.18 1.51 0.49
-11.95 1.51 0.52
-11.34 1.47 0.60
-10.77 1.42 0.68
-3.94 0.54 1.62
-10.52 1.44 0.71
-10.82 1.51 0.67
-10.78 1.55 0.67
-10.98 1.61 0.65
-10.98 1.66 0.65
-10.68 1.64 0.69
-4.15 1.06 1.57
-3.93 1.01 1.60
-4.11 1.21 1.57
-4.29 1.65 1.53
-4.03 1.59 1.56
-3.80 1.55 1.59
-6.14 -1.61 0.99
-6.34 -1.62 0.96
-6.23 -1.56 0.98
-6.25 -1.54 0.97
-6.46 -1.56 0.94
-6.12 -1.46 0.99
-6.22 -1.45 0.98
-5.93 -1.38 1.02
-6.12 -1.40 0.99
-5.76 -1.32 1.04
-6.04 -1.34 1.01
-6.00 -1.31 1.01
-5.71 -1.25 1.05
-5.91 -1.26 1.02
-5.97 -1.25 1.02
-5.98 -1.23 1.01
-5.98 -1.21 1.01
-6.07 -1.20 1.00
-5.86 -1.15 1.03
-6.14 -1.17 0.99
-6.04 -1.13 1.01
-5.98 -1.11 1.01
-6.22 -1.12 0.98
-6.14 -1.09 0.99
-5.92 -1.04 1.02
-5.92 -1.02 1.02
-5.94 -1.00 1.02
-5.91 -0.98 1.03
-5.97 -0.96 1.02
-5.88 -0.93 1.03
-5.82 -0.91 1.04
-5.86 -0.89 1.03
-5.94 -0.88 1.02
-6.26 -0.89 0.98
-6.32 -0.88 0.97
-6.98 -0.92 0.88
-6.57 -0.86 0.94
-6.31 -0.81 0.97
-6.51 -0.81 0.95
-5.62 -0.71 1.07
-5.12 -0.65 1.13
-5.07 -0.62 1.14
-4.95 -0.60 1.16
-4.97 -0.58 1.16
-4.61 -0.54 1.21
-4.66 -0.52 1.20
-4.70 -0.51 1.19
-5.36 -0.54 1.10
-5.10 -0.50 1.14
-5.52 -0.51 1.08
-4.27 -0.41 1.25
-4.86 -0.43 1.17
-5.08 -0.43 1.14
-5.14 -0.41 1.13
-4.75 -0.37 1.19
-5.68 -0.40 1.06
-5.52 -0.38 1.08
-5.97 -0.38 1.02
-5.95 -0.35 1.02
-5.95 -0.33 1.02
-5.96 -0.31 1.02
-6.19 -0.30 0.99
-6.04 -0.28 1.01
-6.27 -0.26 0.98
-6.21 -0.24 0.99
-6.29 -0.22 0.98
-6.18 -0.20 0.99
-6.22 -0.18 0.98
-6.30 -0.16 0.97
-6.43 -0.14 0.96
-6.41 -0.12 0.96
-6.40 -0.10 0.96
-6.47 -0.08 0.95
-6.68 -0.06 0.92
-6.43 -0.03 0.96
-8.31 -0.01 0.70
-9.24 0.01 0.84
-9.54 0.04 0.79
-9.33 0.06 0.82
-9.61 0.08 0.78
-10.12 0.11 0.71
-9.34 0.12 0.82
-8.95 0.14 0.88
-8.59 0.16 0.93
-8.72 0.18 0.91
-8.02 0.19 1.01
-8.05 0.21 1.00
-8.23 0.23 0.98
-8.27 0.25 0.97
-7.94 0.26 1.02
-8.00 0.28 1.01
-7.88 0.30 1.03
-7.95 0.32 1.02
-10.29 0.43 0.68
-8.14 0.37 0.99
-7.92 0.37 1.02
-9.81 0.49 0.75
-9.78 0.51 0.75
-9.82 0.53 0.75
-9.84 0.56 0.74
-10.02 0.59 0.72
-10.16 0.62 0.70
-10.28 0.66 0.68
-8.30 0.55 0.96
-8.43 0.58 0.95
-8.36 0.60 0.96
-8.54 0.63 0.93
-10.41 0.79 0.66
-10.41 0.82 0.66
-10.41 0.84 0.66
-10.43 0.87 0.65
-10.34 0.89 0.67
-10.37 0.91 0.66
-10.66 0.96 0.62
-10.62 0.99 0.62
-10.87 1.04 0.59
-11.03 1.08 0.56
-11.19 1.12 0.54
-11.74 1.20 0.46
-11.62 1.22 0.48
-11.52 1.24 0.49
-6.50 0.72 1.22
-6.50 0.74 1.22
-11.77 1.35 0.45
-11.95 1.40 0.43
-11.84 1.42 0.44
-11.82 1.44 0.44
-12.02 1.50 0.41
-11.97 1.52 0.42
-6.60 0.86 1.20
-6.58 0.88 1.20
-10.88 1.46 0.58
-11.02 1.51 0.56
-10.80 1.51 0.59
-10.93 1.55 0.57
-10.83 1.56 0.58
-10.63 1.56 0.61
-10.67 1.59 0.60
-10.58 1.61 0.62
-5.15 1.43 1.38
-6.39 -1.68 0.88
-6.45 -1.67 0.87
-6.26 -1.61 0.90
-6.32 -1.60 0.89
-6.45 -1.58 0.87
-6.38 -1.55 0.88
-6.23 -1.50 0.91
-6.26 -1.48 0.90
-6.18 -1.45 0.91
-6.11 -1.42 0.93
-6.34 -1.43 0.89
-6.03 -1.36 0.94
-6.23 -1.38 0.91
-6.02 -1.32 0.94
-5.88 -1.28 0.96
-6.04 -1.28 0.94
-6.01 -1.26 0.94
-6.07 -1.24 0.93
-6.03 -1.22 0.94
-6.22 -1.23 0.91
-6.18 -1.20 0.92
-6.08 -1.16 0.93
-6.19 -1.16 0.92
-6.11 -1.13 0.93
-5.84 -1.07 0.97
-5.79 -1.04 0.98
-5.70 -1.01 0.99
-5.68 -0.99 0.99
-3.43 -0.71 1.32
-5.80 -0.97 0.97
-2.78 -0.60 1.41
-5.73 -0.92 0.99
-5.52 -0.88 1.02
-5.44 -0.85 1.03
-5.67 -0.85 0.99
-5.59 -0.83 1.00
-5.52 -0.80 1.02
-5.66 -0.79 1.00
-5.73 -0.78 0.99
-5.22 -0.71 1.06
-5.17 -0.69 1.07
-5.19 -0.67 1.06
-5.23 -0.66 1.06
-4.89 -0.61 1.11
-4.81 -0.59 1.12
-5.16 -0.60 1.07
-5.02 -0.57 1.09
-5.04 -0.55 1.09
-4.91 -0.53 1.10
-4.87 -0.50 1.11
-4.98 -0.50 1.09
-4.82 -0.47 1.12
-5.17 -0.47 1.07
-4.99 -0.44 1.09
-5.13 -0.43 1.07
-5.16 -0.42 1.07
-4.75 -0.38 1.13
-7.77 -0.50 0.69
-7.59 -0.47 0.72
-6.85 -0.42 0.82
-6.87 -0.39 0.82
-6.53 -0.36 0.87
-6.68 -0.34 0.85
-6.50 -0.31 0.88
-6.82 -0.22 1.19
-6.86 -0.20 1.18
-6.84 -0.19 1.18
-9.51 -0.24 0.80
-9.41 -0.21 0.81
-7.30 -0.15 1.12
-7.55 -0.13 1.08
-7.50 -0.11 1.09
-9.46 -0.12 0.80
-9.51 -0.10 0.80
-9.66 -0.08 0.78
-9.43 -0.05 0.81
-9.56 -0.03 0.79
-9.43 -0.01 0.81
-9.84 0.01 0.30
-9.60 0.04 0.34
-7.88 0.06 0.60
-9.34 0.10 0.38
-8.03 0.11 0.57
-9.46 0.16 0.36
-9.62 0.21 0.33
-9.44 0.24 0.36
-9.59 0.27 0.33
-9.45 0.30 0.36
-9.24 0.32 0.39
-9.23 0.35 0.39
-9.32 0.38 0.38
-9.55 0.42 0.34
-9.25 0.43 0.39
-8.82 0.44 0.45
-9.32 0.49 0.37
-9.00 0.51 0.42
-9.18 0.54 0.40
-9.46 0.47 0.73
-10.48 0.54 0.57
-10.09 0.55 0.63
-10.14 0.57 0.62
-10.16 0.60 0.62
-9.97 0.61 0.65
-10.49 0.67 0.57
-10.55 0.70 0.56
-11.36 0.78 0.44
-12.08 0.86 0.33
-10.45 0.77 0.57
-10.53 0.80 0.56
-10.73 0.84 0.53
-10.75 0.87 0.53
-10.76 0.89 0.52
-10.68 0.91 0.54
-10.99 0.97 0.49
-10.84 0.98 0.51
-11.24 1.04 0.45
-11.05 1.05 0.48
-11.39 1.11 0.43
-11.77 1.18 0.37
-11.34 1.16 0.43
-11.66 1.22 0.38
-11.21 1.20 0.45
-12.04 1.32 0.32
-11.85 1.33 0.35
-12.03 1.38 0.32
-11.61 1.36 0.39
-12.15 1.45 0.30
-11.95 1.46 0.33
-10.65 1.32 0.53
-11.39 1.47 0.42
-11.12 1.46 0.46
-6.37 -1.39 0.82
-6.53 -1.35 0.80
-6.40 -1.29 0.82
-6.43 -1.27 0.82
-6.43 -1.25 0.82
-6.56 -1.23 0.80
-6.01 -1.13 0.88
-5.63 -1.04 0.94
-6.09 -1.08 0.87
-6.55 -1.09 0.80
-6.66 -1.06 0.78
-5.72 -0.93 0.93
-6.71 -1.02 0.78
-5.88 -0.91 0.90
-7.30 -1.04 0.69
-7.69 -1.06 0.63
-6.80 -0.95 0.76
-6.21 -0.87 0.85
-5.88 -0.81 0.90
-6.19 -0.82 0.86
-6.17 -0.80 0.86
-5.95 -0.72 0.89
-5.07 -0.62 1.03
-6.18 -0.70 0.86
-5.47 -0.62 0.97
-5.53 -0.61 0.96
-8.05 -0.67 0.57
-7.88 -0.48 0.60
-7.58 -0.45 0.65
-7.46 -0.42 0.66
-6.54 -0.36 0.80
-6.42 -0.33 0.82
-6.40 -0.31 0.83
-7.20 -0.27 0.70
-8.14 -0.24 0.56
-8.20 -0.22 0.55
-7.68 -0.18 0.63
-7.71 -0.14 0.62
-7.99 -0.11 0.58
-8.48 -0.09 0.51
-7.90 -0.06 0.59
-9.98 -0.05 0.28
-9.97 -0.02 0.28
-9.92 0.01 0.58
-10.22 0.04 0.53
-9.77 0.06 0.60
-9.17 0.08 0.70
-9.03 0.10 0.72
-10.78 0.14 0.44
-7.65 0.12 0.94
-10.30 0.19 0.52
-7.82 0.16 0.91
-10.62 0.24 0.47
-7.79 0.20 0.92
-7.91 0.22 0.90
-9.45 0.29 0.65
-9.95 0.33 0.57
-9.73 0.34 0.61
-10.55 0.39 0.48
-10.38 0.41 0.50
-10.66 0.45 0.46
-10.52 0.47 0.48
-10.59 0.50 0.47
-10.63 0.53 0.46
-9.80 0.51 0.60
-10.06 0.55 0.55
-10.25 0.58 0.52
-9.92 0.59 0.57
-9.89 0.61 0.58
-11.18 0.71 0.37
-11.11 0.74 0.38
-9.95 0.69 0.57
-9.27 0.66 0.68
-9.98 0.74 0.56
-9.97 0.76 0.56
-9.77 0.77 0.60
-10.09 0.82 0.54
-10.09 0.84 0.54
-10.51 0.90 0.47
-11.06 0.97 0.39
-6.44 0.59 1.13
-11.03 1.02 0.39
-10.88 1.04 0.41
-11.45 1.12 0.32
-6.25 0.63 1.15
-11.46 1.18 0.32
-11.41 1.20 0.33
-11.50 1.24 0.31
-11.60 1.28 0.29
-6.49 0.74 1.11
-6.54 0.78 1.11
-6.28 0.76 1.15
-10.46 1.31 0.47
-10.42 1.33 0.48
-10.54 1.37 0.46
-10.45 1.43 0.47
-3.92 0.84 1.51
-3.62 1.09 1.54
-4.16 1.34 1.45
-4.04 1.36 1.47
-4.01 1.59 1.46
-6.19 -1.60 0.77
-6.04 -1.53 0.80
-5.96 -1.50 0.81
-6.08 -1.50 0.79
-6.14 -1.49 0.78
-6.09 -1.46 0.79
-6.11 -1.44 0.79
-6.43 -1.47 0.74
-6.41 -1.45 0.74
-6.46 -1.43 0.73
-6.32 -1.39 0.76
-6.59 -1.41 0.71
-6.67 -1.40 0.70
-6.87 -1.41 0.67
-6.47 -1.33 0.73
-6.48 -1.31 0.73
-6.45 -1.28 0.74
-6.41 -1.25 0.74
-6.40 -1.23 0.75
-6.66 -1.24 0.70
-6.27 -1.17 0.77
-7.55 -1.31 0.56
-5.96 -1.09 0.82
-5.75 -1.04 0.85
-6.06 -1.06 0.80
-7.00 -1.15 0.65
-5.98 -1.01 0.81
-5.81 -0.97 0.84
-5.50 -0.91 0.89
-5.69 -0.92 0.86
-5.68 -0.89 0.86
-5.31 -0.84 0.92
-5.99 -0.89 0.81
-6.15 -0.88 0.79
-5.77 -0.82 0.85
-5.38 -0.77 0.91
-5.31 -0.74 0.92
-5.28 -0.72 0.93
-5.30 -0.70 0.92
-5.27 -0.68 0.93
-5.48 -0.68 0.90
-5.28 -0.65 0.93
-5.46 -0.64 0.90
-5.14 -0.60 0.95
-5.41 -0.60 0.91
-5.35 -0.58 0.92
-5.35 -0.56 0.92
-5.25 -0.53 0.93
-5.87 -0.55 0.83
-5.86 -0.53 0.84
-5.54 -0.49 0.89
-5.86 -0.49 0.84
-5.66 -0.46 0.87
-5.24 -0.42 0.94
-8.10 -0.42 0.87
-8.39 -0.41 0.83
-8.57 -0.40 0.80
-8.38 -0.37 0.83
-7.98 -0.33 0.89
-8.10 -0.32 0.87
-8.09 -0.30 0.87
-8.34 -0.29 0.83
-7.14 -0.23 1.03
-7.09 -0.21 1.04
-7.06 -0.19 1.04
-7.07 -0.18 1.04
-7.18 -0.16 1.02
-7.43 -0.15 0.98
-7.02 -0.12 1.04
-7.18 -0.11 1.02
-7.21 -0.09 1.01
-7.27 -0.08 1.00
-7.42 -0.06 0.98
-9.23 -0.05 0.69
-10.88 -0.04 0.43
-9.20 -0.01 0.70
-4.52 0.01 1.00
-7.68 0.03 0.46
-7.82 0.06 0.44
-9.06 0.08 0.65
-9.16 0.10 0.63
-10.14 0.14 0.47
-9.37 0.15 0.59
-10.72 0.20 0.37
-10.36 0.21 0.43
-7.83 0.18 0.85
-7.76 0.20 0.86
-7.82 0.22 0.85
-7.75 0.23 0.86
-10.11 0.33 0.47
-10.10 0.35 0.47
-10.29 0.38 0.44
-10.37 0.41 0.42
-9.61 0.41 0.55
-10.66 0.48 0.38
-10.42 0.49 0.41
-9.88 0.49 0.51
-9.84 0.51 0.51
-9.66 0.52 0.54
-9.72 0.55 0.53
-9.75 0.58 0.53
-9.45 0.58 0.58
-9.84 0.63 0.51
-9.92 0.66 0.49
-9.72 0.67 0.53
-9.65 0.69 0.54
-9.83 0.72 0.51
-6.39 0.49 1.09
-6.44 0.51 1.08
-6.36 0.52 1.09
-6.38 0.54 1.09
-6.29 0.54 1.10
-6.54 0.58 1.06
-10.88 0.98 0.33
-10.77 1.00 0.35
-10.58 1.01 0.38
-6.37 0.63 1.09
-6.42 0.67 1.08
-6.54 0.69 1.06
-6.44 0.70 1.07
-6.52 0.72 1.06
-6.43 0.73 1.07
-6.41 0.74 1.08
-10.65 1.33 0.36
-6.34 0.81 1.09
-10.09 1.31 0.45
-6.33 0.84 1.09
-10.21 1.42 0.43
-9.84 1.42 0.49
-4.24 1.05 1.42
-4.09 1.09 1.44
-4.27 1.15 1.41
-4.18 1.14 1.42
-4.02 1.11 1.45
-4.16 1.21 1.42
-4.27 1.25 1.40
-3.96 1.18 1.46
-4.17 1.38 1.41
-4.16 1.40 1.41
-3.63 1.33 1.50
-4.39 1.64 1.36
-5.79 -1.57 0.77
-5.89 -1.56 0.75
-5.88 -1.54 0.76
-6.00 -1.54 0.74
-6.19 -1.56 0.71
-6.14 -1.53 0.71
-6.04 -1.49 0.73
-6.18 -1.49 0.71
-6.28 -1.49 0.69
-6.45 -1.49 0.67
-6.34 -1.45 0.68
-6.46 -1.45 0.66
-6.30 -1.40 0.69
-6.23 -1.37 0.70
-6.47 -1.39 0.66
-6.21 -1.33 0.71
-5.21 -1.16 0.88
-6.10 -1.27 0.73
-6.11 -1.25 0.72
-5.88 -1.20 0.76
-6.05 -1.20 0.74
-6.14 -1.19 0.72
-7.43 -1.34 0.50
-5.65 -1.08 0.80
-6.30 -1.15 0.69
-7.28 -1.25 0.53
-5.38 -0.99 0.85
-5.38 -0.97 0.85
-5.37 -0.95 0.85
-5.36 -0.93 0.85
-1.69 -0.49 1.47
-5.55 -0.92 0.82
-5.27 -0.85 0.87
-5.46 -0.83 0.84
-5.39 -0.80 0.85
-5.46 -0.79 0.84
-5.37 -0.76 0.85
-5.40 -0.75 0.85
-5.32 -0.72 0.86
-5.37 -0.71 0.85
-4.96 -0.65 0.92
-5.36 -0.67 0.85
-5.38 -0.65 0.85
-5.38 -0.63 0.85
-2.07 -0.36 1.41
-5.36 -0.59 0.86
-5.26 -0.57 0.87
-5.26 -0.55 0.87
-5.57 -0.55 0.82
-5.28 -0.51 0.87
-5.36 -0.50 0.86
-5.45 -0.49 0.84
-5.63 -0.48 0.81
-5.24 -0.44 0.88
-5.46 -0.43 0.84
-5.63 -0.42 0.81
-4.50 -0.34 1.00
-6.29 -0.41 0.70
-6.20 -0.39 0.71
-6.29 -0.37 0.70
-6.29 -0.35 0.70
-6.31 -0.33 0.70
-6.24 -0.30 0.71
-6.13 -0.28 0.73
-6.48 -0.27 0.67
-6.61 -0.25 0.65
-7.69 -0.26 0.46
-7.10 -0.22 0.56
-7.77 -0.21 0.45
-4.48 -0.13 1.00
-4.70 -0.11 0.96
-4.91 -0.10 0.93
-7.42 -0.11 0.51
-7.59 -0.09 0.48
-7.45 -0.06 0.50
-7.40 -0.04 0.51
-7.64 -0.01 0.47
-8.92 0.01 0.60
-8.78 0.03 0.62
-8.84 0.05 0.61
-8.84 0.08 0.61
-9.10 0.10 0.56
-9.08 0.12 0.57
-8.95 0.14 0.59
-8.94 0.16 0.59
-9.09 0.19 0.56
-9.22 0.21 0.54
-9.78 0.25 0.44
-10.43 0.31 0.33
-9.91 0.32 0.42
-9.38 0.33 0.51
-9.34 0.35 0.52
-9.70 0.39 0.45
-9.70 0.41 0.45
-9.46 0.42 0.50
-9.53 0.45 0.48
-9.80 0.49 0.43
-9.90 0.51 0.42
-10.03 0.54 0.39
-9.59 0.54 0.47
-9.73 0.57 0.45
-9.73 0.60 0.45
-9.94 0.63 0.41
-9.83 0.65 0.43
-9.93 0.68 0.41
-9.98 0.71 0.40
-6.45 0.48 1.02
-6.34 0.49 1.04
-6.47 0.51 1.02
-6.44 0.53 1.02
-6.38 0.54 1.03
-6.46 0.56 1.02
-6.36 0.57 1.04
-6.40 0.58 1.03
-6.47 0.61 1.02
-6.47 0.62 1.01
-6.39 0.63 1.03
-6.45 0.65 1.02
-6.42 0.67 1.02
-6.42 0.68 1.02
-6.29 0.68 1.04
-6.38 0.71 1.03
-6.29 0.72 1.04
-6.35 0.74 1.03
-6.35 0.75 1.03
-6.32 0.76 1.04
-6.28 0.78 1.04
-9.24 1.15 0.52
-6.33 0.81 1.03
-6.35 0.83 1.03
-6.45 0.86 1.01
-6.38 0.87 1.02
-6.48 0.90 1.00
-6.35 0.89 1.03
-6.41 0.92 1.02
-8.17 1.18 0.70
-8.22 1.21 0.69
-8.03 1.21 0.73
-8.12 1.24 0.71
-8.01 1.24 0.73
-8.39 1.32 0.66
-5.42 -1.69 0.76
-5.81 -1.69 0.70
-5.53 -1.58 0.75
-5.43 -1.54 0.76
-5.88 -1.60 0.68
-5.51 -1.52 0.75
-5.53 -1.50 0.75
-5.71 -1.51 0.72
-5.89 -1.52 0.68
-5.95 -1.51 0.67
-5.95 -1.49 0.68
-5.97 -1.48 0.67
-6.30 -1.51 0.61
-6.13 -1.46 0.64
-6.25 -1.46 0.62
-6.30 -1.45 0.61
-6.54 -1.46 0.57
-6.36 -1.42 0.60
-6.52 -1.42 0.58
-6.39 -1.38 0.60
-6.04 -1.30 0.66
-6.29 -1.32 0.62
-6.19 -1.28 0.64
-6.32 -1.28 0.61
-6.17 -1.24 0.64
-5.98 -1.19 0.67
-6.79 -1.28 0.53
-6.86 -1.27 0.52
-7.06 -1.25 0.48
-5.54 -1.01 0.75
-5.72 -1.00 0.72
-5.90 -0.98 0.69
-5.30 -0.89 0.80
-5.46 -0.89 0.77
-5.24 -0.83 0.81
-5.25 -0.81 0.81
-5.18 -0.78 0.82
-5.09 -0.76 0.84
-5.38 -0.76 0.78
-5.39 -0.75 0.78
-5.63 -0.75 0.74
-5.08 -0.68 0.84
-5.11 -0.67 0.83
-4.98 -0.64 0.86
-4.91 -0.61 0.87
-5.06 -0.61 0.84
-5.12 -0.59 0.83
-5.48 -0.60 0.77
-5.48 -0.58 0.77
-5.41 -0.56 0.78
-5.54 -0.55 0.76
-5.26 -0.51 0.81
-5.48 -0.51 0.77
-5.45 -0.49 0.77
-5.21 -0.45 0.82
-5.53 -0.45 0.76
-5.41 -0.43 0.78
-5.80 -0.43 0.71
-5.76 -0.41 0.72
-6.08 -0.40 0.66
-4.54 -0.31 0.93
-4.45 -0.29 0.95
-6.10 -0.34 0.66
-5.91 -0.31 0.69
-6.06 -0.30 0.67
-6.51 -0.29 0.59
-6.52 -0.27 0.58
-6.42 -0.25 0.60
-6.72 -0.23 0.55
-6.66 -0.21 0.56
-6.45 -0.18 0.60
-6.72 -0.17 0.55
-6.61 -0.14 0.57
-7.79 -0.10 0.79
-8.94 -0.09 0.59
-8.84 -0.07 0.61
-8.62 -0.05 0.65
-8.91 -0.03 0.60
-8.79 -0.01 0.62
-7.07 0.08 0.40
-7.32 0.10 0.36
-7.28 0.27 0.36
-9.14 0.28 0.47
-9.15 0.30 0.47
-9.12 0.32 0.48
-9.29 0.35 0.45
-9.22 0.37 0.46
-9.34 0.39 0.43
-9.23 0.41 0.46
-9.48 0.45 0.41
-9.84 0.49 0.34
-10.04 0.54 0.30
-7.91 0.45 0.70
-8.04 0.48 0.67
-6.36 0.42 0.98
-6.35 0.44 0.98
-6.35 0.46 0.98
-6.38 0.47 0.98
-6.25 0.48 1.00
-6.25 0.49 1.00
-6.31 0.51 0.99
-6.37 0.53 0.98
-6.41 0.55 0.97
-6.37 0.57 0.98
-6.40 0.58 0.97
-6.20 0.58 1.01
-6.13 0.59 1.02
-6.38 0.63 0.97
-6.43 0.65 0.96
-6.29 0.65 0.99
-6.34 0.67 0.98
-6.33 0.69 0.98
-6.27 0.70 0.99
-6.30 0.71 0.99
-6.26 0.73 0.99
-9.06 1.06 0.47
-6.20 0.75 1.00
-6.19 0.76 1.00
-6.12 0.77 1.02
-9.17 1.17 0.45
-9.03 1.17 0.47
-8.87 1.17 0.50
-8.30 1.12 0.61
-8.24 1.13 0.62
-8.18 1.14 0.63
-6.24 0.89 0.99
-8.30 1.20 0.61
-4.09 0.61 1.39
-8.68 1.30 0.53
-8.07 1.23 0.65
-8.18 1.29 0.62
-4.25 0.69 1.36
-4.08 0.67 1.39
-4.05 0.68 1.40
-4.10 0.70 1.39
-4.07 0.71 1.39
-8.30 1.45 0.60
-3.93 0.71 1.42
-3.73 0.69 1.45
-3.90 0.73 1.42
-4.03 0.90 1.39
-3.88 1.15 1.40
-3.97 1.27 1.38
-4.05 1.46 1.35
-4.03 1.53 1.35
-1.60 -1.47 1.39
-5.68 -1.66 0.65
-5.41 -1.59 0.70
-5.63 -1.61 0.66
-5.71 -1.61 0.64
-5.47 -1.54 0.69
-5.58 -1.54 0.67
-5.66 -1.54 0.65
-5.53 -1.49 0.68
-5.68 -1.50 0.65
-5.77 -1.50 0.63
-0.81 -0.59 1.56
-5.91 -1.48 0.61
-0.84 -0.58 1.56
-0.92 -0.59 1.54
-6.28 -1.48 0.54
-6.18 -1.45 0.56
-6.36 -1.46 0.53
-6.32 -1.43 0.53
-6.57 -1.45 0.49
-6.66 -1.44 0.47
-7.21 -1.50 0.37
-7.39 -1.51 0.34
-7.00 -1.42 0.41
-6.66 -1.33 0.47
-7.04 -1.36 0.40
-7.39 -1.39 0.34
-6.89 -1.29 0.43
-6.12 -1.15 0.58
-5.94 -1.00 0.61
-7.43 -1.13 0.33
-6.14 -0.94 0.58
-4.93 -0.72 0.80
-5.03 -0.71 0.78
-4.86 -0.68 0.81
-4.85 -0.64 0.81
-4.73 -0.61 0.84
-4.75 -0.60 0.83
-4.50 -0.56 0.88
-5.34 -0.61 0.73
-4.52 -0.53 0.88
-6.15 -0.63 0.58
-5.43 -0.56 0.71
-5.75 -0.56 0.65
-5.18 -0.51 0.75
-5.02 -0.48 0.78
-5.35 -0.48 0.72
-5.68 -0.48 0.66
-1.79 -0.24 1.38
-6.23 -0.47 0.56
-5.92 -0.43 0.62
-6.13 -0.42 0.58
-5.87 -0.39 0.63
-6.75 -0.41 0.47
-6.12 -0.36 0.58
-6.10 -0.34 0.58
-6.12 -0.32 0.58
-6.00 -0.30 0.60
-6.25 -0.28 0.56
-6.77 -0.28 0.46
-6.86 -0.24 0.44
-6.88 -0.21 0.44
-6.69 -0.19 0.47
-7.20 -0.18 0.38
-6.93 -0.15 0.43
-6.73 -0.12 0.47
-6.61 -0.10 0.49
-7.11 -0.08 0.40
-6.87 -0.06 0.44
-8.47 0.01 0.52
-7.85 0.05 0.64
-8.70 0.10 0.48
-8.86 0.14 0.45
-9.05 0.19 0.41
-9.09 0.21 0.40
-8.95 0.23 0.43
-9.21 0.28 0.38
-10.04 0.40 0.22
-6.38 0.40 0.92
-6.52 0.42 0.89
-6.40 0.44 0.92
-6.31 0.47 0.93
-6.28 0.50 0.94
-6.35 0.52 0.92
-6.32 0.53 0.93
-6.29 0.56 0.93
-6.29 0.59 0.93
-6.22 0.62 0.95
-6.21 0.63 0.95
-6.26 0.65 0.94
-6.20 0.67 0.95
-6.11 0.69 0.97
-6.14 0.73 0.96
-6.28 0.78 0.93
-6.26 0.81 0.93
-6.46 0.86 0.89
-6.33 0.88 0.92
-8.23 1.16 0.54
-8.14 1.16 0.56
-8.17 1.21 0.55
-8.13 1.24 0.56
-8.04 1.27 0.58
-4.41 0.72 1.29
-4.22 0.70 1.32
-8.27 1.39 0.53
-4.24 0.75 1.32
-4.23 0.77 1.32
-8.27 1.49 0.52
-5.41 -1.69 0.62
-5.47 -1.68 0.61
-5.44 -1.66 0.62
-5.54 -1.66 0.60
-5.77 -1.69 0.55
-5.64 -1.64 0.58
-5.66 -1.62 0.58
-5.61 -1.59 0.59
-5.68 -1.59 0.57
-5.64 -1.56 0.58
-5.53 -1.52 0.60
-5.50 -1.49 0.61
-5.72 -1.51 0.57
-5.86 -1.52 0.54
-5.69 -1.45 0.58
-5.58 -1.41 0.60
-5.58 -1.39 0.60
-5.94 -1.41 0.53
-5.94 -1.39 0.53
-5.89 -1.36 0.54
-5.86 -1.32 0.54
-6.75 -1.37 0.37
-6.46 -1.30 0.43
-6.52 -1.29 0.42
-6.66 -1.29 0.39
-6.75 -1.25 0.38
-6.84 -1.24 0.36
-5.47 -0.87 0.63
-5.05 -0.75 0.71
-4.67 -0.68 0.78
-4.73 -0.65 0.77
-4.77 -0.62 0.76
-4.89 -0.59 0.74
-5.25 -0.61 0.67
-5.20 -0.58 0.68
-6.36 -0.63 0.46
-5.95 -0.56 0.54
-5.61 -0.50 0.60
-5.47 -0.45 0.63
-5.93 -0.44 0.54
-5.95 -0.40 0.54
-6.09 -0.36 0.51
-4.39 -0.26 0.84
-8.20 -0.26 0.58
-7.74 -0.21 0.67
-7.53 -0.17 0.71
-7.71 -0.14 0.67
-9.00 -0.14 0.42
-8.29 -0.11 0.56
-8.28 -0.07 0.56
-8.55 -0.03 0.51
-0.74 0.01 1.52
-5.72 0.20 0.51
-1.44 0.14 1.37
-5.89 0.31 0.47
-6.17 0.36 0.42
-5.98 0.39 0.45
-6.46 0.46 0.85
-6.34 0.50 0.88
-6.29 0.51 0.89
-6.31 0.53 0.88
-6.23 0.55 0.90
-8.88 0.80 0.36
-8.72 0.83 0.39
-4.38 0.44 1.27
-8.62 0.87 0.41
-8.57 0.88 0.42
-8.64 0.91 0.40
-8.70 0.94 0.39
-8.80 0.97 0.37
-8.95 1.01 0.34
-8.91 1.02 0.34
-8.80 1.03 0.37
-8.82 1.06 0.36
-8.85 1.08 0.36
-8.62 1.16 0.40
-8.21 1.13 0.48
-8.31 1.16 0.46
-3.81 0.57 1.38
-4.12 0.63 1.31
-3.95 0.61 1.35
-4.08 0.64 1.32
-4.22 0.67 1.29
-3.88 0.63 1.36
-3.81 0.63 1.38
-4.03 0.68 1.33
-3.88 0.66 1.36
-3.85 0.67 1.36
-3.85 0.68 1.36
-3.76 0.67 1.38
-3.90 0.71 1.35
-3.41 0.72 1.45
-5.57 -1.68 0.53
-5.54 -1.65 0.53
-5.74 -1.67 0.49
-5.52 -1.61 0.54
-5.66 -1.62 0.51
-5.41 -1.55 0.56
-5.66 -1.58 0.51
-5.52 -1.53 0.54
-5.45 -1.50 0.55
-5.64 -1.51 0.52
-5.52 -1.45 0.54
-5.34 -1.40 0.58
-5.49 -1.41 0.55
-5.58 -1.41 0.53
-0.71 -0.55 1.53
-6.10 -1.45 0.43
-5.78 -1.38 0.49
-5.83 -1.37 0.48
-5.89 -1.36 0.47
-6.30 -1.40 0.39
-5.92 -1.24 0.47
-1.08 -0.50 1.45
-0.90 -0.44 1.49
-0.82 -0.41 1.51
-5.99 -1.01 0.46
-0.97 -0.40 1.48
-5.57 -0.90 0.54
-5.92 -0.92 0.47
-6.05 -0.46 0.45
-6.42 -0.44 0.37
-4.40 -0.32 0.78
-4.29 -0.30 0.80
-4.41 -0.29 0.78
-4.36 -0.27 0.79
-4.18 -0.25 0.83
-5.94 -0.23 0.47
-6.24 -0.22 0.41
-7.92 0.05 0.48
-8.71 0.35 0.31
-6.46 0.35 0.79
-6.57 0.38 0.76
-6.12 0.37 0.86
-6.33 0.39 0.81
-6.46 0.45 0.78
-6.34 0.49 0.81
-6.57 0.52 0.76
-6.38 0.52 0.80
-6.37 0.54 0.80
-6.47 0.56 0.78
-6.41 0.57 0.79
-6.40 0.59 0.79
-6.18 0.58 0.84
-6.11 0.59 0.85
-6.09 0.60 0.86
-6.18 0.63 0.84
-6.21 0.65 0.83
-6.22 0.66 0.83
-6.30 0.69 0.81
-6.61 0.75 0.74
-6.04 0.72 0.86
-6.08 0.83 0.85
-8.11 1.16 0.42
-4.23 0.63 1.24
-4.22 0.64 1.24
-3.87 0.60 1.32
-4.03 0.63 1.28
-4.01 0.64 1.29
-3.96 0.64 1.30
-4.00 0.66 1.29
-4.01 0.67 1.29
-3.89 0.66 1.31
-4.04 0.70 1.28
-4.07 0.71 1.27
-4.21 0.75 1.24
-3.97 0.71 1.29
-3.89 0.71 1.31
-3.96 0.74 1.29
-4.31 0.85 1.21
-8.15 1.61 0.39
-7.19 1.52 0.59
-7.36 1.57 0.55
-4.49 1.22 1.15
-5.25 -1.64 0.51
-5.35 -1.64 0.49
-5.42 -1.64 0.47
-5.51 -1.64 0.46
-5.45 -1.60 0.47
-5.49 -1.59 0.46
-5.44 -1.56 0.47
-5.48 -1.55 0.46
-5.54 -1.54 0.45
-5.39 -1.47 0.49
-5.36 -1.45 0.49
-5.51 -1.46 0.46
-5.27 -1.40 0.51
-5.13 -1.35 0.54
-5.12 -1.33 0.54
-5.13 -1.31 0.54
-5.38 -1.32 0.49
-5.58 -1.33 0.45
-5.43 -1.23 0.48
-5.32 -1.18 0.51
-5.92 -1.08 0.38
-6.03 -1.08 0.36
-5.78 -1.03 0.41
-5.82 -1.01 0.40
-5.91 -1.00 0.38
-5.94 -0.98 0.38
-5.88 -0.96 0.39
-5.91 -0.88 0.39
-5.48 -0.82 0.48
-5.06 -0.74 0.57
-4.96 -0.71 0.59
-5.02 -0.70 0.58
-5.10 -0.69 0.56
-5.12 -0.67 0.55
-5.14 -0.65 0.55
-5.42 -0.66 0.49
-5.11 -0.61 0.56
-4.79 -0.54 0.62
-7.14 -0.38 0.65
-7.23 -0.37 0.63
-7.31 -0.36 0.62
-7.21 -0.34 0.64
-7.31 -0.32 0.62
-7.41 -0.31 0.59
-7.35 -0.29 0.61
-7.19 -0.27 0.64
-7.30 -0.25 0.62
-7.43 -0.24 0.59
-7.36 -0.22 0.61
-7.58 -0.21 0.56
-7.59 -0.19 0.56
-7.55 -0.17 0.56
-8.14 -0.15 0.44
-8.20 -0.13 0.43
-8.30 -0.11 0.40
-7.93 -0.08 0.48
-7.96 -0.07 0.48
-8.22 -0.05 0.42
-8.02 -0.03 0.46
-5.25 0.01 0.45
-1.84 0.01 1.21
-5.30 0.04 0.44
-7.03 0.14 0.61
-8.80 0.37 0.21
-6.57 0.30 0.70
-6.65 0.31 0.69
-6.53 0.33 0.71
-6.42 0.34 0.74
-6.48 0.35 0.72
-6.32 0.36 0.76
-8.73 0.54 0.22
-7.00 0.48 0.60
-6.48 0.53 0.72
-6.47 0.54 0.72
-7.55 0.65 0.48
-6.30 0.56 0.76
-6.02 0.55 0.82
-5.99 0.56 0.82
-6.73 0.65 0.66
-6.11 0.60 0.80
-5.93 0.60 0.83
-5.80 0.60 0.86
-5.97 0.63 0.83
-4.02 0.47 1.26
-4.17 0.50 1.22
-4.17 0.51 1.22
-4.09 0.51 1.24
-3.84 0.49 1.30
-3.91 0.51 1.28
-3.91 0.52 1.28
-3.76 0.51 1.31
-3.74 0.52 1.32
-3.84 0.54 1.29
-3.87 0.55 1.29
-3.88 0.57 1.28
-3.85 0.57 1.29
-3.94 0.59 1.27
-3.91 0.60 1.27
-3.93 0.61 1.27
-3.82 0.61 1.29
-3.76 0.60 1.31
-3.81 0.62 1.30
-3.81 0.63 1.29
-3.89 0.66 1.28
-3.80 0.65 1.30
-3.88 0.67 1.28
-3.80 0.67 1.29
-3.82 0.69 1.29
-3.91 0.71 1.27
-3.92 0.72 1.27
-3.84 0.72 1.28
-4.07 0.77 1.23
-4.04 0.78 1.24
-3.78 0.74 1.30
-4.16 0.82 1.21
-4.01 0.80 1.24
-7.33 1.47 0.49
-7.39 1.50 0.48
-7.21 1.48 0.52
-7.32 1.53 0.49
-5.34 -1.65 0.42
-5.44 -1.65 0.40
-5.37 -1.60 0.41
-5.25 -1.56 0.44
-5.06 -1.48 0.48
-5.15 -1.48 0.46
-5.28 -1.49 0.44
-5.27 -1.47 0.44
-5.25 -1.42 0.45
-5.29 -1.41 0.44
-5.09 -1.19 0.49
-5.11 -1.14 0.48
-5.27 -1.11 0.45
-4.00 -0.71 0.73
-5.28 -0.70 0.45
-4.70 -0.61 0.58
-5.06 -0.63 0.50
-4.98 -0.60 0.52
-4.98 -0.58 0.52
-5.17 -0.58 0.48
-5.07 -0.55 0.50
-2.04 -0.16 1.17
-5.31 -0.01 0.44
-6.96 0.36 0.55
-7.08 0.40 0.52
-7.03 0.42 0.53
-6.88 0.42 0.56
-6.71 0.60 0.60
-7.08 0.65 0.51
-7.47 0.72 0.42
-3.95 0.63 1.22
-3.96 0.66 1.22
-4.12 0.72 1.18
-3.89 0.69 1.23
-7.40 1.35 0.41
-5.13 -1.33 0.39
-4.83 -1.23 0.47
-4.97 -1.23 0.43
-5.11 -1.24 0.40
-4.90 -1.18 0.45
-4.93 -1.17 0.44
-4.90 -1.15 0.45
-5.00 -1.15 0.43
-5.01 -1.13 0.43
-4.96 -1.10 0.44
-4.92 -1.08 0.45
-4.99 -1.07 0.43
-5.12 -1.00 0.40
-5.97 -1.01 0.21
-5.23 -0.68 0.38
-5.04 -0.27 0.43
-5.16 -0.12 0.40
-7.65 -0.06 0.39
-7.84 -0.05 0.35
-3.62 1.68 0.89
-3.62 0.17 0.62
-1.19 -0.96 0.54
-3.42 0.83 0.56
-3.91 0.75 0.46
-3.27 0.73 0.46
-3.10 0.69 0.46
-3.35 0.63 0.44
-3.16 0.66 0.44
-4.03 0.53 0.40
-3.14 0.63 0.42
-3.10 0.69 0.42
-4.06 0.73 0.37
-3.33 0.70 0.39
-2.93 0.61 0.41
-3.21 0.78 0.40
-2.77 0.69 0.41
-5.32 0.68 0.28
-3.88 0.75 0.34
-3.66 0.71 0.35
-3.33 0.70 0.37
-2.93 0.61 0.39
-2.27 0.85 0.41
-2.00 0.91 0.42
-3.30 0.69 0.35
-2.00 0.93 0.40
-3.88 0.65 0.29
-2.97 0.58 0.32
-3.15 0.66 0.31
-2.94 0.63 0.33
-3.26 0.58 0.28
-3.35 0.70 0.27
-3.17 0.67 0.29
-3.08 0.68 0.29
-2.58 0.78 0.33
-2.20 0.84 0.35
-3.62 0.62 0.22
-3.27 0.60 0.26
-3.14 0.63 0.27
-3.14 0.66 0.27
-3.10 0.69 0.27
-3.23 0.64 0.24
-3.31 0.54 0.21
-3.24 0.64 0.21
-2.88 0.57 0.25
-2.70 0.68 0.23
-2.55 0.74 0.25
-2.51 0.77 0.25
-2.22 0.73 0.29
-2.12 0.73 0.30
-2.20 0.71 0.28
-2.16 0.71 0.28
-2.12 0.73 0.29
-1.83 0.74 0.32
-2.61 0.73 0.21
-2.20 0.71 0.27
-2.16 0.71 0.27
-2.12 0.72 0.28
-2.03 0.76 0.28
-1.93 0.85 0.29
-2.04 0.63 0.28
-2.07 0.73 0.27
-1.92 0.70 0.29
-1.98 0.77 0.28
-1.92 0.73 0.29
-1.93 0.86 0.27
-2.40 0.79 0.20
-2.12 0.72 0.25
-2.02 0.74 0.26
-1.97 0.74 0.27
-2.16 0.71 0.23
-2.11 0.72 0.24
-2.07 0.73 0.24
-2.02 0.73 0.25
-2.02 0.74 0.25
-1.97 0.74 0.26
-2.16 0.71 0.22
-2.16 0.72 0.22
-2.12 0.72 0.22
-2.06 0.73 0.23
-2.01 0.74 0.24
-1.97 0.73 0.25
-1.93 0.85 0.24
-2.11 0.72 0.21
-2.06 0.73 0.22
-2.02 0.73 0.23
-1.97 0.74 0.23
-1.92 0.74 0.24
-1.87 0.75 0.25
-2.11 0.71 0.20
-2.06 0.72 0.21
-2.06 0.73 0.21
-2.01 0.74 0.21
-1.97 0.73 0.22
-1.92 0.77 0.23
-1.97 0.74 0.21
-1.92 0.73 0.22
-1.08 -0.79 0.30
-0.58 -0.08 0.33
-1.13 -0.79 0.27
-1.26 -0.78 0.27
-1.39 -0.82 0.25
-1.20 -0.85 0.24
-0.98 -0.69 0.20
-1.16 -0.07 0.21
-9.46 -0.07 1.54
-13.48 -1.58 1.09
-13.91 -1.59 1.07
-13.98 -1.55 1.06
-15.80 0.41 0.84
-15.17 0.24 0.98
-14.45 0.26 1.04
-11.88 0.82 1.23
-13.66 -1.56 0.90
-13.70 -1.53 0.90
-14.13 -1.53 0.87
-7.72 -0.92 1.37
-13.41 -1.39 0.92
-13.34 -1.34 0.93
-8.11 -0.88 1.34
-14.29 -1.26 0.86
-14.41 -1.19 0.85
-14.52 -1.16 0.84
-8.48 -0.70 1.31
-14.96 -1.06 0.80
-15.62 -0.72 0.94
-9.63 -0.24 1.42
-13.55 -0.27 1.11
-12.77 -0.17 1.17
-9.05 0.01 1.21
-15.55 0.73 0.87
-11.89 0.79 1.17
-11.95 0.82 1.17
-11.87 0.84 1.17
-11.81 0.87 1.18
-11.78 0.89 1.18
-8.05 -1.15 1.29
-13.30 -1.68 0.85
-13.64 -1.64 0.82
-13.49 -1.58 0.84
-13.43 -1.54 0.84
-13.77 -1.53 0.81
-14.40 -1.55 0.76
-13.68 -1.45 0.82
-13.82 -1.42 0.81
-13.87 -1.27 0.81
-14.37 -1.19 0.76
-14.45 -1.15 0.76
-11.61 -0.66 1.00
-9.77 0.04 1.29
-10.52 0.52 1.22
-11.68 0.69 1.12
-11.45 0.70 1.14
-11.55 0.74 1.13
-11.71 0.78 1.11
-11.69 0.80 1.11
-11.80 0.84 1.10
-12.01 0.88 1.08
-11.78 0.90 1.10
-11.84 0.93 1.10
-11.89 0.96 1.09
-11.44 0.95 1.13
-13.44 -1.69 0.74
-13.25 -1.64 0.75
-13.41 -1.62 0.74
-13.40 -1.58 0.74
-13.45 -1.54 0.74
-13.52 -1.51 0.73
-13.42 -1.46 0.74
-13.59 -1.44 0.73
-7.32 -0.86 1.29
-13.49 -1.36 0.73
-13.28 -1.19 0.75
-8.70 -0.82 1.17
-8.66 -0.79 1.17
-8.52 -0.75 1.18
-8.75 -0.74 1.16
-8.85 -0.72 1.15
-11.38 -0.84 0.93
-11.34 -0.81 0.93
-15.54 -0.97 0.55
-11.18 -0.70 0.94
-11.05 -0.63 0.96
-11.22 -0.48 0.94
-15.56 -0.58 0.55
-12.79 -0.46 0.80
-15.98 -0.51 0.51
-8.98 -0.26 1.14
-8.96 -0.23 1.14
-9.05 -0.21 1.14
-8.81 -0.18 1.16
-9.77 -0.12 1.29
-12.19 -0.13 1.08
-9.05 0.10 1.07
-8.95 0.18 1.08
-8.97 0.20 1.08
-9.27 0.24 1.05
-9.29 0.29 1.05
-15.13 0.67 0.72
-11.01 0.52 1.12
-11.20 0.55 1.10
-11.04 0.57 1.11
-10.88 0.59 1.13
-12.20 0.69 1.00
-11.31 0.67 1.09
-11.57 0.71 1.06
-11.77 0.75 1.04
-11.78 0.78 1.04
-11.90 0.82 1.03
-11.85 0.84 1.03
-11.92 0.88 1.03
-11.98 0.91 1.02
-11.79 0.92 1.04
-11.86 0.96 1.03
-11.94 0.99 1.02
-11.88 1.02 1.03
-12.12 1.33 1.00
-13.27 -1.64 0.67
-13.45 -1.62 0.65
-13.42 -1.58 0.65
-13.23 -1.52 0.67
-13.52 -1.51 0.64
-13.23 -1.44 0.67
-13.21 -1.37 0.67
-13.70 -1.33 0.63
-14.09 -1.33 0.59
-14.36 -1.31 0.56
-7.93 -0.78 1.18
-11.25 -0.93 0.86
-13.79 -1.03 0.62
-11.45 -0.85 0.84
-10.60 -0.76 0.92
-11.38 -0.78 0.85
-8.85 -0.45 1.09
-15.86 -0.59 0.42
-6.91 -0.28 1.28
-8.97 -0.32 1.08
-8.88 -0.29 1.09
-8.91 -0.26 1.09
-15.44 -0.32 0.46
-15.17 -0.27 0.49
-15.35 -0.23 0.47
-14.91 -0.19 0.51
-15.43 -0.15 0.46
-15.02 -0.06 0.50
-15.88 0.29 0.55
-13.94 0.29 0.75
-15.38 0.35 0.60
-14.05 0.39 0.74
-15.75 0.55 0.56
-10.40 0.42 1.11
-10.75 0.45 1.07
-10.55 0.55 1.09
-11.53 0.71 0.99
-11.58 0.74 0.98
-11.52 0.76 0.99
-11.72 0.80 0.97
-11.60 0.83 0.98
-11.55 0.85 0.99
-11.57 0.88 0.98
-11.80 0.92 0.96
-11.63 0.94 0.98
-11.36 0.95 1.00
-10.65 -1.65 0.83
-13.34 -1.68 0.56
-13.34 -1.65 0.56
-13.27 -1.60 0.56
-13.25 -1.56 0.57
-13.35 -1.53 0.56
-13.14 -1.48 0.58
-13.61 -1.48 0.53
-13.27 -1.41 0.57
-13.45 -1.39 0.55
-13.34 -1.34 0.56
-13.53 -1.32 0.54
-13.17 -1.25 0.58
-13.69 -1.26 0.52
-13.77 -1.22 0.51
-13.84 -1.19 0.51
-13.76 -1.15 0.52
-9.09 -0.79 0.99
-11.17 -0.90 0.78
-9.02 -0.73 1.00
-10.97 -0.82 0.80
-11.45 -0.82 0.75
-11.57 -0.79 0.74
-11.58 -0.76 0.74
-11.44 -0.72 0.75
-11.12 -0.67 0.79
-11.14 -0.64 0.78
-14.37 -0.75 0.45
-10.97 -0.56 0.80
-11.46 -0.55 0.75
-13.55 -0.40 0.79
-10.03 -0.18 1.15
-15.97 -0.21 0.54
-10.01 -0.11 1.15
-9.21 0.04 0.90
-14.63 0.14 0.31
-9.16 0.12 0.91
-8.98 0.15 0.93
-9.46 0.18 0.88
-9.31 0.27 0.89
-9.61 0.48 0.86
-9.55 0.50 0.86
-9.91 0.55 0.82
-10.20 0.59 0.79
-11.27 0.64 0.94
-11.38 0.67 0.93
-11.30 0.69 0.94
-11.38 0.73 0.93
-11.62 0.77 0.90
-11.46 0.81 0.92
-11.06 0.81 0.96
-11.89 0.90 0.87
-11.54 0.90 0.91
-13.67 1.33 0.68
-13.15 -1.66 0.47
-13.44 -1.43 0.44
-11.31 -0.81 0.68
-10.86 -0.75 0.73
-13.05 -0.83 0.49
-12.11 -0.51 0.59
-15.31 -0.49 0.24
-8.75 -0.26 0.96
-8.67 -0.23 0.96
-9.06 -0.21 0.92
-9.96 -0.19 0.82
-11.88 0.02 0.80
-15.34 0.06 0.40
-15.40 0.09 0.39
-15.50 0.13 0.38
-15.50 0.21 0.38
-15.75 0.25 0.35
-10.02 0.30 1.01
-14.16 0.49 0.53
-14.43 0.57 0.50
-14.55 0.65 0.49
-11.30 0.70 0.86
-11.40 0.73 0.85
-11.08 0.74 0.89
-11.13 0.79 0.88
-10.98 0.81 0.90
-10.77 0.82 0.92
-11.02 0.86 0.89
-11.25 0.96 0.86
-11.54 1.04 0.83
-11.17 -1.59 0.59
-8.27 -1.15 0.93
-13.41 -1.66 0.34
-13.32 -1.61 0.35
-13.31 -1.57 0.35
-13.15 -1.52 0.37
-13.52 -1.51 0.32
-13.38 -1.46 0.34
-11.37 -1.24 0.57
-11.17 -1.19 0.60
-13.09 -1.32 0.37
-13.02 -1.28 0.38
-12.74 -1.22 0.41
-13.20 -1.22 0.36
-10.62 -0.99 0.66
-6.77 -0.68 1.10
-13.47 -1.12 0.33
-11.67 -0.96 0.54
-11.82 -0.94 0.52
-11.92 -0.91 0.51
-11.35 -0.84 0.58
-11.80 -0.84 0.52
-11.48 -0.79 0.56
-12.88 -0.69 0.68
-15.06 -0.77 0.43
-13.14 -0.64 0.65
-10.08 -0.47 1.01
-12.58 -0.55 0.72
-13.63 -0.57 0.60
-13.47 -0.53 0.62
-13.12 -0.48 0.66
-13.31 -0.43 0.64
-9.97 -0.30 1.02
-10.67 -0.29 0.94
-12.35 -0.31 0.75
-9.96 -0.20 1.02
-9.90 -0.17 1.03
-10.14 -0.16 1.00
-9.61 -0.12 1.06
-9.59 -0.10 1.06
-12.11 -0.10 0.77
-10.17 -0.06 1.00
-15.90 -0.02 0.34
-14.58 0.26 0.39
-14.55 0.30 0.39
-14.49 0.33 0.40
-15.25 0.38 0.31
-14.23 0.43 0.43
-14.15 0.49 0.44
-14.12 0.53 0.44
-10.79 0.43 0.85
-10.14 0.48 0.93
-10.42 0.67 0.89
-10.95 0.75 0.83
-10.94 0.80 0.83
-10.81 0.82 0.84
-12.48 1.28 0.63
-5.72 -0.70 1.17
-13.09 -1.28 0.27
-13.01 -1.24 0.28
-12.81 -1.19 0.30
-12.26 -1.11 0.37
-12.48 -1.09 0.34
-11.84 -0.98 0.42
-12.03 -0.95 0.40
-8.72 -0.71 0.81
-8.56 -0.67 0.83
-11.55 -0.82 0.46
-11.64 -0.79 0.45
-10.84 -0.72 0.55
-10.44 -0.63 0.60
-10.23 -0.59 0.62
-9.54 -0.53 0.71
-9.12 -0.49 0.76
-8.75 -0.44 0.80
-8.84 -0.42 0.79
-9.16 -0.41 0.75
-9.30 -0.35 0.73
-8.98 -0.32 0.77
-8.95 -0.29 0.78
-9.59 -0.25 0.70
-8.58 -0.17 0.82
-12.80 -0.06 0.31
-14.36 0.05 0.31
-14.02 0.12 0.36
-14.62 0.16 0.28
-14.44 0.23 0.30
-13.97 0.25 0.36
-13.87 0.28 0.37
-13.72 0.31 0.39
-13.85 0.35 0.38
-13.60 0.38 0.41
-13.44 0.40 0.43
-13.71 0.48 0.39
-10.69 0.66 0.78
-10.64 0.68 0.79
-10.62 0.70 0.79
-11.02 -1.31 0.42
-7.68 -0.82 0.86
-11.73 -1.11 0.33
-11.98 -1.09 0.30
-7.81 -0.75 0.84
-7.58 -0.71 0.87
-7.89 -0.68 0.83
-11.69 -0.90 0.34
-11.17 -0.83 0.41
-8.20 -0.63 0.79
-11.35 -0.78 0.38
-10.89 -0.72 0.44
-10.20 -0.65 0.53
-10.86 -0.65 0.45
-8.41 -0.51 0.76
-11.11 -0.60 0.41
-11.48 -0.58 0.37
-10.86 -0.53 0.45
-9.41 -0.44 0.63
-10.60 -0.46 0.48
-9.67 -0.39 0.60
-10.60 -0.39 0.48
-8.70 -0.31 0.73
-8.61 -0.28 0.74
-8.37 -0.25 0.77
-8.33 -0.22 0.77
-8.33 -0.20 0.77
-8.38 -0.17 0.77
-9.64 -0.10 0.92
-9.88 -0.08 0.89
-9.66 -0.05 0.92
-9.05 0.01 0.60
-9.20 0.18 0.58
-13.12 0.39 0.38
-13.12 0.49 0.37
-13.20 0.52 0.36
-10.21 0.55 0.77
-10.41 1.40 0.73
-11.07 -1.41 0.32
-7.47 -0.80 0.81
-7.53 -0.78 0.81
-7.52 -0.75 0.81
-7.74 -0.75 0.78
-7.63 -0.71 0.79
-7.60 -0.69 0.80
-7.69 -0.67 0.78
-7.65 -0.64 0.79
-7.91 -0.63 0.75
-8.30 -0.63 0.70
-7.84 -0.58 0.76
-8.00 -0.56 0.74
-7.83 -0.53 0.77
-8.28 -0.53 0.70
-11.17 -0.64 0.31
-10.80 -0.59 0.36
-7.86 -0.43 0.76
-10.58 -0.52 0.39
-9.96 -0.46 0.47
-9.15 -0.41 0.58
-8.01 -0.34 0.74
-8.34 -0.33 0.70
-8.45 -0.30 0.68
-8.30 -0.27 0.70
-8.50 -0.25 0.67
-9.36 -0.24 0.56
-9.10 -0.21 0.59
-8.29 -0.17 0.70
-8.19 -0.14 0.72
-9.02 -0.10 0.60
-8.88 -0.04 0.62
-10.48 0.34 0.65
-10.52 0.37 0.65
-10.54 0.39 0.64
-10.38 0.41 0.67
-9.70 0.46 0.76
-10.28 0.68 0.68
-10.23 0.70 0.68
-10.25 0.73 0.68
-10.38 0.76 0.66
-11.41 1.25 0.51
-11.53 1.29 0.49
-10.79 1.40 0.59
-10.61 1.40 0.62
-5.53 -0.95 1.01
-6.02 -0.97 0.94
-7.48 -0.75 0.73
-7.42 -0.68 0.74
-7.63 -0.64 0.71
-7.55 -0.61 0.72
-7.71 -0.60 0.70
-7.70 -0.58 0.70
-7.69 -0.55 0.70
-7.93 -0.54 0.67
-10.55 -0.55 0.29
-10.45 -0.51 0.31
-10.53 -0.48 0.29
-9.30 -0.30 0.83
-9.55 -0.28 0.79
-9.36 -0.26 0.82
-9.57 -0.19 0.79
-9.77 -0.17 0.76
-9.70 -0.15 0.77
-9.75 0.07 0.31
-10.24 0.16 0.53
-10.54 0.22 0.48
-10.85 0.28 0.43
-10.67 0.30 0.46
-11.59 0.83 0.30
-10.72 0.97 0.44
-11.06 1.11 0.38
-7.79 -0.68 0.53
-11.92 -0.44 0.26
-10.81 -0.37 0.44
-10.85 -0.35 0.43
-10.77 -0.32 0.45
-9.19 -0.25 0.70
-10.05 -0.25 0.56
-9.85 -0.22 0.59
-8.97 -0.16 0.73
-9.37 -0.14 0.67
-11.21 -0.09 0.38
-7.44 0.01 0.50
-10.36 0.24 0.43
-10.40 0.26 0.42
-10.57 0.29 0.39
-10.20 0.31 0.45
-9.76 0.74 0.52
-9.95 0.78 0.49
-10.08 0.81 0.47
-10.10 0.84 0.46
-10.90 0.93 0.33
-10.94 0.96 0.32
-10.98 1.07 0.31
-9.38 0.99 0.58
-9.41 1.01 0.57
-10.34 1.31 0.41
-9.98 1.32 0.47
-7.68 -1.45 0.46
-7.39 -1.24 0.51
-7.55 -1.24 0.48
-8.13 -1.26 0.39
-5.41 -0.92 0.84
-7.87 -1.18 0.43
-5.47 -0.89 0.84
-5.18 -0.82 0.88
-5.60 -0.63 0.82
-7.62 -0.69 0.48
-7.28 -0.64 0.53
-7.12 -0.17 0.56
-7.83 -0.16 0.44
-7.70 -0.14 0.46
-10.01 0.74 0.39
-9.96 0.76 0.40
-10.13 0.79 0.37
-10.02 0.81 0.39
-10.10 0.84 0.38
-9.89 0.85 0.41
-8.71 0.81 0.62
-8.68 0.83 0.62
-8.92 0.88 0.58
-8.77 0.88 0.61
-8.91 0.92 0.58
-8.98 0.95 0.57
-9.07 0.98 0.55
-9.23 1.02 0.52
-9.19 1.04 0.53
-9.13 1.05 0.54
-9.18 1.08 0.53
-9.20 1.10 0.53
-9.14 1.12 0.54
-9.97 1.27 0.39
-10.25 1.33 0.34
-6.98 -1.26 0.50
-5.33 -1.01 0.79
-5.58 -1.00 0.75
-7.79 -1.25 0.36
-5.36 -0.93 0.79
-7.42 -1.13 0.42
-7.76 -1.14 0.36
-5.14 -0.83 0.83
-7.53 -1.07 0.40
-7.42 -1.03 0.42
-7.37 -1.00 0.43
-9.84 0.65 0.34
-10.20 0.77 0.27
-9.19 0.83 0.46
-9.13 0.85 0.46
-9.16 0.87 0.46
-8.96 0.88 0.49
-8.81 0.88 0.52
-8.84 0.91 0.52
-8.66 0.91 0.55
-8.74 0.94 0.53
-9.12 1.00 0.46
-8.89 1.00 0.50
-9.06 1.04 0.47
-9.05 1.08 0.47
-9.08 1.11 0.47
-9.07 1.13 0.47
-8.14 1.20 0.64
-8.35 1.35 0.59
-8.29 1.36 0.60
-5.71 -1.47 0.64
-5.82 -1.45 0.63
-5.93 -1.45 0.61
-6.94 -1.28 0.42
