# .PCD v0.7 - Point Cloud Data file format
VERSION 0.7
FIELDS x y z
SIZE 4 4 4
TYPE F F F
COUNT 1 1 1
WIDTH 2889
HEIGHT 1
VIEWPOINT 0 0 0 1 0 0 0
POINTS 2889
DATA ASCII
-1.78 -0.13 1.81
-9.25 -0.33 1.16
-10.61 -0.31 1.04
-10.12 -0.24 1.08
-10.20 -0.21 1.08
-10.47 -0.15 1.05
-10.86 -0.12 1.02
-10.71 -0.06 1.03
-11.31 0.01 1.10
-12.26 0.04 1.01
-6.67 0.04 1.54
-12.13 0.10 1.02
-6.54 0.07 1.55
-6.55 0.09 1.55
-6.67 0.10 1.53
-6.77 0.12 1.53
-6.47 0.13 1.55
-6.51 0.15 1.55
-6.33 0.16 1.57
-6.56 0.18 1.54
-6.40 0.19 1.56
-6.47 0.21 1.55
-6.43 0.23 1.56
-6.42 0.24 1.56
-6.37 0.25 1.56
-6.61 0.28 1.54
-6.51 0.29 1.55
-6.82 0.32 1.52
-6.54 0.33 1.54
-6.41 0.34 1.56
-6.50 0.36 1.55
-6.66 0.38 1.53
-6.62 0.39 1.53
-6.72 0.42 1.53
-6.60 0.43 1.54
-4.87 0.33 1.70
-6.74 0.47 1.52
-6.78 0.49 1.52
-6.82 0.51 1.51
-9.39 0.72 1.27
-9.29 0.73 1.28
-9.26 0.75 1.28
-9.53 0.80 1.25
-6.93 0.62 1.50
-15.52 1.40 0.68
-15.40 1.50 0.69
-8.08 0.94 1.39
-8.13 0.96 1.38
-8.21 0.99 1.37
-8.07 1.02 1.39
-8.27 1.12 1.37
-8.37 1.16 1.36
-8.40 1.18 1.35
-8.31 1.19 1.36
-8.39 1.22 1.35
-8.33 1.23 1.36
-8.23 1.24 1.37
-8.21 1.26 1.37
-8.16 1.27 1.37
-8.16 1.29 1.37
-8.12 1.31 1.37
-8.08 1.32 1.38
-8.05 1.34 1.38
-8.08 1.36 1.38
-8.40 1.43 1.35
-8.16 1.41 1.37
-8.20 1.44 1.36
-8.22 1.47 1.36
-4.15 0.77 1.76
-8.37 1.53 1.35
-8.23 1.53 1.36
-8.76 1.65 1.31
-4.43 0.89 1.73
-4.58 1.10 1.71
-4.88 1.31 1.67
-5.58 1.55 1.60
-5.06 1.43 1.65
-5.00 1.45 1.66
-5.04 1.49 1.65
-4.14 1.63 1.72
-2.06 -1.12 1.76
-2.11 -1.09 1.76
-4.04 -1.53 1.57
-4.57 -1.47 1.53
-4.82 -1.47 1.50
-4.34 -1.36 1.55
-2.77 -1.03 1.70
-2.73 -1.01 1.70
-4.68 -1.37 1.52
-4.92 -1.40 1.49
-5.03 -1.41 1.48
-4.67 -1.32 1.52
-4.89 -1.34 1.50
-2.29 -0.85 1.74
-4.79 -1.29 1.51
-4.75 -1.27 1.51
-4.86 -1.27 1.50
-4.74 -1.23 1.51
-4.80 -1.22 1.51
-4.62 -1.18 1.52
-4.67 -1.17 1.52
-4.61 -1.14 1.52
-4.64 -1.13 1.52
-4.51 -1.09 1.53
-4.50 -1.07 1.54
-4.34 -1.03 1.55
-4.39 -1.02 1.55
-4.34 -1.00 1.55
-4.36 -0.99 1.55
-4.48 -0.99 1.54
-4.62 -0.99 1.52
-4.43 -0.95 1.54
-4.32 -0.91 1.55
-4.16 -0.86 1.57
-4.23 -0.85 1.56
-4.38 -0.86 1.55
-4.22 -0.82 1.56
-4.27 -0.81 1.56
-7.81 -1.22 1.23
-4.12 -0.76 1.57
-4.11 -0.74 1.57
-3.97 -0.71 1.58
-4.10 -0.71 1.57
-4.01 -0.69 1.58
-4.16 -0.69 1.57
-4.15 -0.67 1.57
-4.18 -0.64 1.56
-7.68 -0.96 1.24
-8.01 -0.97 1.21
-7.69 -0.91 1.24
-8.17 -0.88 1.19
-8.49 -0.88 1.16
-8.09 -0.82 1.20
-8.45 -0.83 1.17
-8.32 -0.79 1.18
-8.46 -0.77 1.16
-3.16 -0.38 1.66
-9.56 -0.80 1.06
-3.02 -0.35 1.67
-9.67 -0.74 1.05
-9.64 -0.71 1.05
-9.47 -0.68 1.07
-9.48 -0.65 1.07
-9.82 -0.64 1.04
-2.93 -0.27 1.68
-9.88 -0.58 1.03
-9.29 -0.53 1.09
-9.17 -0.49 1.10
-8.76 -0.45 1.14
-8.95 -0.43 1.12
-8.97 -0.40 1.12
-8.92 -0.38 1.12
-8.98 -0.35 1.11
-9.08 -0.33 1.11
-8.96 -0.29 1.12
-9.26 -0.28 1.09
-9.17 -0.25 1.10
-10.58 -0.24 0.96
-10.64 -0.21 0.96
-11.84 -0.16 1.05
-11.79 -0.13 1.05
-11.83 -0.10 1.05
-11.96 -0.07 1.04
-12.27 -0.05 1.01
-10.45 -0.01 1.18
-10.16 0.00 0.93
-5.39 0.02 1.40
-5.34 0.04 1.41
-5.44 0.06 1.40
-5.30 0.08 1.41
-5.07 0.09 1.43
-5.37 0.11 1.40
-5.38 0.13 1.40
-5.36 0.15 1.40
-5.42 0.17 1.40
-5.33 0.19 1.40
-6.40 0.18 1.52
-6.37 0.19 1.52
-6.47 0.21 1.51
-6.37 0.22 1.52
-6.35 0.24 1.53
-6.42 0.26 1.52
-6.43 0.27 1.52
-6.52 0.29 1.51
-6.50 0.31 1.51
-6.63 0.33 1.50
-6.62 0.34 1.50
-6.58 0.36 1.50
-6.75 0.38 1.48
-6.51 0.39 1.51
-6.84 0.42 1.47
-9.32 0.60 1.22
-7.12 0.48 1.44
-7.52 0.52 1.40
-7.46 0.53 1.41
-6.77 0.50 1.48
-7.05 0.54 1.45
-4.21 0.34 1.74
-6.76 0.55 1.48
-6.67 0.56 1.49
-6.64 0.57 1.49
-6.70 0.60 1.48
-4.29 0.40 1.73
-7.18 0.69 1.43
-15.46 1.58 0.59
-14.76 1.55 0.66
-14.67 1.64 0.67
-7.82 0.90 1.37
-7.91 0.94 1.36
-7.88 0.95 1.36
-7.77 0.96 1.37
-8.23 1.12 1.32
-8.41 1.16 1.30
-8.29 1.16 1.31
-8.28 1.18 1.31
-8.34 1.21 1.31
-8.33 1.23 1.31
-8.20 1.23 1.32
-8.34 1.27 1.30
-8.14 1.27 1.32
-8.09 1.28 1.33
-8.11 1.30 1.33
-8.40 1.37 1.30
-8.21 1.36 1.32
-8.21 1.38 1.31
-8.37 1.43 1.30
-8.30 1.44 1.30
-8.84 1.55 1.25
-4.21 0.77 1.73
-4.00 0.74 1.75
-8.76 1.60 1.25
-8.96 1.66 1.23
-4.16 0.80 1.73
-4.15 0.81 1.73
-3.97 0.79 1.75
-4.29 0.87 1.71
-4.17 0.86 1.73
-4.08 0.85 1.73
-4.71 0.99 1.67
-4.23 0.90 1.72
-4.25 0.95 1.71
-4.29 0.98 1.71
-4.14 1.03 1.72
-4.25 1.17 1.71
-4.61 1.28 1.67
-4.15 1.19 1.72
-4.18 1.22 1.71
-3.97 1.21 1.73
-4.01 1.26 1.73
-4.12 1.33 1.71
-4.86 1.60 1.63
-4.02 1.47 1.72
-4.11 1.56 1.70
-3.77 1.45 1.74
-4.13 1.58 1.70
-3.98 1.54 1.72
-4.05 1.59 1.71
-4.22 1.68 1.69
-4.02 1.67 1.71
-3.93 1.67 1.71
-2.05 -1.14 1.74
-2.12 -1.14 1.73
-2.24 -1.16 1.72
-1.84 -1.05 1.76
-2.40 -1.17 1.70
-1.95 -1.04 1.75
-1.68 -0.97 1.77
-1.97 -1.01 1.75
-1.57 -0.84 1.79
-2.21 -0.96 1.72
-4.79 -1.39 1.46
-4.91 -1.40 1.45
-5.17 -1.43 1.43
-5.12 -1.40 1.43
-2.04 -0.82 1.74
-4.96 -1.34 1.45
-4.66 -1.27 1.48
-1.74 -0.73 1.77
-4.92 -1.28 1.45
-4.86 -1.25 1.46
-4.62 -1.19 1.48
-2.41 -0.80 1.70
-4.75 -1.18 1.47
-4.56 -1.13 1.49
-4.53 -1.11 1.49
-4.60 -1.10 1.48
-4.65 -1.09 1.48
-4.60 -1.07 1.48
-4.63 -1.06 1.48
-2.47 -0.72 1.70
-4.69 -1.03 1.48
-4.53 -0.99 1.49
-4.51 -0.97 1.49
-4.27 -0.92 1.52
-4.40 -0.92 1.50
-4.45 -0.91 1.50
-4.23 -0.87 1.52
-4.36 -0.87 1.51
-4.30 -0.85 1.51
-4.40 -0.84 1.50
-4.28 -0.81 1.52
-4.20 -0.78 1.52
-3.98 -0.74 1.55
-4.13 -0.75 1.53
-4.02 -0.72 1.54
-2.09 -0.49 1.73
-3.99 -0.68 1.54
-4.20 -0.69 1.52
-4.26 -0.68 1.52
-4.11 -0.63 1.53
-8.32 -0.87 1.11
-4.77 -0.56 1.47
-7.95 -0.79 1.15
-8.01 -0.77 1.14
-8.21 -0.76 1.13
-4.42 -0.47 1.50
-8.09 -0.70 1.14
-8.16 -0.68 1.13
-7.83 -0.63 1.16
-7.78 -0.60 1.17
-3.55 -0.34 1.59
-8.41 -0.59 1.10
-8.41 -0.56 1.10
-9.71 -0.60 0.97
-9.64 -0.57 0.98
-9.26 -0.52 1.02
-9.36 -0.50 1.01
-8.71 -0.45 1.07
-8.89 -0.43 1.06
-9.10 -0.41 1.03
-9.10 -0.38 1.04
-9.15 -0.35 1.03
-9.03 -0.32 1.04
-9.37 -0.31 1.01
-9.42 -0.28 1.00
-9.48 -0.25 1.00
-10.64 -0.25 0.88
-10.82 -0.22 0.86
-10.63 -0.18 0.88
-5.63 -0.09 1.38
-10.43 -0.12 0.90
-5.23 -0.05 1.42
-5.08 -0.03 1.43
-5.42 -0.02 1.40
-9.94 0.01 1.10
-10.77 0.04 1.01
-11.86 0.07 0.89
-11.50 0.12 0.93
-6.39 0.08 1.48
-6.12 0.09 1.51
-6.21 0.13 1.50
-6.33 0.14 1.48
-6.34 0.16 1.48
-6.28 0.19 1.49
-6.28 0.21 1.49
-6.50 0.23 1.47
-6.50 0.24 1.47
-6.58 0.26 1.46
-6.57 0.28 1.46
-6.37 0.29 1.48
-6.65 0.33 1.45
-6.64 0.35 1.45
-6.42 0.35 1.47
-6.57 0.38 1.46
-6.88 0.41 1.42
-6.67 0.43 1.44
-6.76 0.45 1.43
-7.03 0.50 1.40
-6.90 0.51 1.42
-6.88 0.53 1.42
-6.79 0.54 1.43
-6.66 0.56 1.44
-6.61 0.57 1.45
-6.61 0.61 1.45
-6.98 0.66 1.41
-6.99 0.68 1.40
-7.06 0.72 1.40
-7.15 0.74 1.39
-14.76 1.62 0.56
-15.01 1.68 0.53
-5.42 0.65 1.57
-7.80 0.94 1.31
-7.69 0.95 1.32
-8.31 1.11 1.25
-8.31 1.15 1.25
-4.64 0.67 1.65
-8.28 1.19 1.25
-8.20 1.21 1.26
-8.14 1.23 1.27
-8.19 1.26 1.26
-8.18 1.30 1.26
-8.25 1.33 1.25
-8.30 1.35 1.25
-8.35 1.38 1.24
-9.04 1.54 1.17
-4.31 0.77 1.68
-4.24 0.77 1.69
-4.35 0.80 1.68
-8.35 1.51 1.24
-8.52 1.56 1.22
-4.20 0.80 1.69
-8.74 1.67 1.19
-4.72 0.93 1.64
-4.35 0.92 1.67
-4.37 0.95 1.67
-4.96 1.12 1.60
-4.30 1.03 1.68
-4.42 1.06 1.66
-4.68 1.20 1.63
-5.13 1.37 1.58
-4.83 1.34 1.61
-4.91 1.42 1.60
-4.99 1.45 1.59
-5.02 1.47 1.58
-4.69 1.39 1.62
-4.34 1.32 1.66
-5.10 1.58 1.57
-5.34 1.67 1.54
-4.54 1.49 1.63
-4.36 1.66 1.64
-1.69 -1.44 1.74
-2.43 -1.39 1.66
-2.46 -1.34 1.66
-2.80 -1.38 1.62
-3.21 -1.48 1.58
-2.24 -1.18 1.68
-4.04 -1.62 1.49
-2.72 -1.27 1.63
-2.13 -1.09 1.70
-2.55 -1.18 1.65
-3.20 -1.31 1.58
-4.05 -1.49 1.49
-2.65 -1.16 1.64
-2.56 -1.12 1.65
-2.39 -1.07 1.67
-3.67 -1.34 1.53
-2.31 -1.03 1.68
-3.89 -1.35 1.51
-3.46 -1.24 1.56
-2.43 -1.01 1.67
-4.44 -1.38 1.45
-4.80 -1.42 1.41
-4.96 -1.43 1.40
-4.81 -1.38 1.41
-4.98 -1.40 1.39
-4.86 -1.36 1.41
-4.92 -1.35 1.40
-4.75 -1.30 1.42
-4.67 -1.27 1.43
-4.77 -1.27 1.42
-4.76 -1.25 1.42
-4.90 -1.26 1.40
-4.84 -1.23 1.41
-4.78 -1.20 1.42
-4.68 -1.17 1.43
-4.54 -1.13 1.44
-4.67 -1.13 1.43
-4.65 -1.11 1.43
-4.71 -1.11 1.42
-4.59 -1.07 1.44
-4.63 -1.06 1.43
-4.91 -1.08 1.40
-4.52 -1.01 1.45
-4.56 -1.00 1.44
-4.42 -0.96 1.46
-4.51 -0.96 1.45
-4.46 -0.93 1.45
-4.33 -0.90 1.47
-4.22 -0.87 1.48
-4.21 -0.85 1.48
-4.46 -0.87 1.45
-4.56 -0.86 1.44
-4.31 -0.82 1.47
-4.16 -0.78 1.48
-4.25 -0.78 1.47
-4.06 -0.74 1.49
-4.01 -0.72 1.50
-4.09 -0.71 1.49
-4.01 -0.69 1.50
-4.24 -0.70 1.48
-3.99 -0.66 1.50
-4.07 -0.65 1.49
-4.06 -0.63 1.49
-4.13 -0.62 1.49
-4.26 -0.62 1.47
-4.44 -0.62 1.45
-4.25 -0.59 1.47
-4.20 -0.57 1.48
-8.01 -0.87 1.08
-7.89 -0.83 1.09
-7.96 -0.81 1.08
-7.92 -0.79 1.09
-7.84 -0.76 1.09
-4.39 -0.49 1.46
-4.36 -0.47 1.46
-8.15 -0.68 1.06
-7.66 -0.62 1.11
-8.14 -0.63 1.06
-3.75 -0.35 1.53
-9.43 -0.65 0.92
-9.36 -0.61 0.93
-3.59 -0.30 1.54
-3.57 -0.28 1.54
-9.33 -0.53 0.94
-9.20 -0.50 0.95
-9.34 -0.47 0.93
-11.78 -0.39 0.91
-10.34 -0.31 1.06
-11.61 -0.30 0.92
-11.41 -0.26 0.95
-11.59 -0.24 0.93
-11.52 -0.18 0.93
-11.70 -0.16 0.91
-11.62 -0.13 0.92
-11.61 -0.07 0.92
-11.64 -0.04 0.92
-10.14 0.00 0.77
-5.28 0.02 1.31
-9.58 0.06 0.83
-9.43 0.09 0.84
-9.47 0.11 0.84
-9.81 0.15 0.80
-5.51 0.12 1.29
-5.54 0.15 1.28
-5.87 0.18 1.24
-6.52 0.32 1.42
-8.03 1.23 1.23
-8.13 1.26 1.22
-8.16 1.29 1.21
-8.26 1.32 1.20
-8.28 1.49 1.19
-8.34 1.55 1.18
-8.86 1.66 1.12
-1.03 -0.94 1.79
-1.31 -1.00 1.76
-1.40 -0.87 1.75
-4.85 -1.26 1.36
-5.09 -1.29 1.34
-4.97 -1.25 1.35
-1.36 -0.63 1.76
-4.90 -1.20 1.36
-4.83 -1.17 1.37
-4.85 -1.16 1.36
-4.79 -1.13 1.37
-1.41 -0.59 1.75
-8.46 -1.66 0.96
-8.26 -1.60 0.98
-4.57 -1.03 1.40
-4.59 -1.02 1.39
-4.51 -0.99 1.40
-4.25 -0.93 1.43
-4.41 -0.94 1.41
-4.63 -0.95 1.39
-4.21 -0.79 1.44
-8.56 -1.28 0.95
-7.43 -1.10 1.08
-7.59 -1.07 1.06
-8.13 -0.88 1.00
-7.67 -0.81 1.05
-8.02 -0.82 1.01
-10.87 -0.98 0.69
-7.94 -0.59 1.02
-8.03 -0.57 1.01
-8.36 -0.56 0.97
-8.85 -0.56 0.91
-9.30 -0.56 0.86
-9.25 -0.53 0.87
-9.26 -0.50 0.87
-9.27 -0.47 0.87
-9.21 -0.44 0.87
-9.24 -0.41 0.87
-9.52 -0.40 0.84
-10.57 -0.37 0.72
-9.40 -0.31 0.85
-9.59 -0.26 0.83
-9.48 -0.22 0.84
-9.16 -0.19 0.88
-9.58 -0.17 0.83
-10.26 -0.15 0.75
-9.94 -0.12 0.79
-10.02 -0.09 0.78
-10.33 -0.06 0.74
-9.13 -0.03 0.88
-10.88 0.01 0.85
-10.76 0.03 0.87
-10.27 0.06 0.92
-10.23 0.08 0.93
-10.55 0.11 0.89
-10.41 0.13 0.91
-10.40 0.16 0.91
-10.50 0.19 0.90
-10.81 0.22 0.86
-10.50 0.24 0.89
-10.76 0.29 0.86
-6.33 0.24 1.40
-6.53 0.26 1.37
-6.53 0.28 1.37
-6.57 0.29 1.36
-6.38 0.30 1.39
-11.30 0.66 0.79
-11.31 0.69 0.79
-15.47 1.02 0.29
-15.28 1.30 0.30
-7.69 0.93 1.22
-8.23 1.22 1.14
-7.87 1.19 1.19
-8.55 1.31 1.10
-8.08 1.26 1.16
-8.33 1.32 1.13
-7.97 1.28 1.17
-8.26 1.35 1.14
-8.27 1.37 1.14
-8.30 1.40 1.13
-8.27 1.41 1.13
-9.16 1.58 1.02
-9.33 1.64 1.00
-7.87 1.41 1.18
-9.38 1.69 0.99
-7.82 1.44 1.19
-7.62 1.42 1.21
-7.91 1.49 1.17
-3.89 1.13 1.65
-3.88 1.23 1.65
-3.80 1.53 1.64
-5.00 -1.35 1.29
-4.98 -1.33 1.29
-5.20 -1.35 1.27
-4.94 -1.29 1.30
-5.14 -1.30 1.27
-4.88 -1.24 1.31
-5.08 -1.26 1.28
-4.81 -1.19 1.32
-1.78 -0.68 1.68
-4.73 -1.15 1.32
-4.90 -1.15 1.30
-5.07 -1.16 1.28
-5.00 -1.13 1.29
-5.05 -1.12 1.29
-8.13 -1.56 0.92
-8.07 -1.53 0.93
-4.71 -1.02 1.33
-4.68 -1.00 1.33
-4.61 -0.94 1.34
-8.11 -1.23 0.92
-8.08 -1.20 0.93
-8.01 -1.17 0.93
-7.74 -1.11 0.97
-9.19 -1.25 0.79
-7.63 -1.05 0.98
-8.08 -1.08 0.93
-8.27 -1.07 0.90
-8.34 -1.05 0.90
-7.96 -0.99 0.94
-8.03 -0.97 0.93
-8.09 -0.95 0.93
-7.89 -0.91 0.95
-7.83 -0.88 0.96
-7.75 -0.85 0.97
-7.93 -0.84 0.94
-6.98 -0.72 1.06
-7.89 -0.59 0.95
-10.36 -0.57 0.92
-10.12 -0.53 0.95
-10.51 -0.52 0.90
-10.49 -0.50 0.90
-10.53 -0.47 0.90
-10.88 -0.46 0.86
-10.64 -0.43 0.89
-10.66 -0.40 0.88
-10.68 -0.38 0.88
-10.55 -0.35 0.89
-10.42 -0.32 0.91
-10.75 -0.30 0.87
-10.11 -0.26 0.95
-12.23 -0.28 0.69
-12.39 -0.26 0.67
-10.88 -0.20 0.85
-10.21 -0.16 0.93
-10.49 -0.14 0.90
-11.62 -0.13 0.76
-11.70 -0.10 0.75
-11.36 -0.07 0.79
-11.33 -0.04 0.80
-11.25 -0.02 0.81
-5.53 0.00 1.17
-5.55 0.02 1.17
-10.08 0.08 0.88
-10.38 0.11 0.84
-6.29 0.08 1.36
-6.19 0.09 1.37
-6.04 0.11 1.39
-9.38 0.19 0.97
-9.28 0.21 0.98
-6.22 0.16 1.37
-9.14 0.25 1.00
-6.31 0.20 1.36
-6.55 0.23 1.33
-6.48 0.24 1.33
-6.45 0.26 1.34
-6.56 0.28 1.32
-6.52 0.29 1.33
-6.45 0.30 1.34
-6.25 0.32 1.36
-7.08 0.38 1.25
-6.81 0.39 1.29
-7.60 0.45 1.19
-7.50 0.46 1.20
-7.84 0.50 1.16
-11.56 0.76 0.68
-11.57 0.82 0.68
-5.95 0.47 1.40
-5.79 0.49 1.42
-5.85 0.51 1.41
-6.38 0.58 1.34
-6.51 0.64 1.32
-6.72 0.68 1.29
-7.01 0.73 1.26
-7.04 0.75 1.25
-7.03 0.78 1.25
-7.08 0.80 1.24
-7.19 0.83 1.23
-7.34 0.87 1.21
-7.27 0.88 1.22
-7.61 0.94 1.17
-7.78 0.98 1.15
-7.70 0.99 1.16
-7.81 1.02 1.15
-7.94 1.06 1.13
-7.90 1.07 1.13
-8.29 1.14 1.08
-8.45 1.19 1.06
-8.15 1.16 1.10
-8.05 1.17 1.11
-8.13 1.22 1.10
-8.05 1.23 1.11
-8.13 1.26 1.10
-7.94 1.25 1.12
-8.18 1.31 1.09
-8.02 1.31 1.11
-8.20 1.36 1.09
-8.41 1.43 1.06
-8.10 1.40 1.10
-4.34 0.78 1.59
-8.08 1.44 1.10
-8.01 1.45 1.11
-7.98 1.46 1.11
-5.73 1.08 1.40
-7.82 1.49 1.13
-8.24 1.59 1.07
-4.28 0.86 1.59
-8.08 1.60 1.09
-8.35 1.68 1.06
-4.10 0.86 1.61
-4.02 1.05 1.62
-4.18 1.27 1.59
-3.94 1.21 1.62
-3.86 1.20 1.63
-4.16 1.30 1.59
-3.98 1.27 1.61
-4.08 1.31 1.59
-4.31 1.40 1.56
-4.02 1.33 1.60
-4.08 1.36 1.59
-3.96 1.33 1.61
-3.99 1.35 1.60
-4.08 1.43 1.59
-4.39 1.54 1.55
-4.12 1.46 1.58
-3.81 1.39 1.62
-3.92 1.51 1.60
-4.15 1.61 1.57
-4.08 1.62 1.58
-4.01 1.69 1.58
-1.70 -1.16 1.66
-1.76 -1.13 1.65
-1.80 -1.10 1.65
-1.90 -1.12 1.63
-2.19 -1.18 1.60
-1.86 -1.06 1.64
-1.62 -0.99 1.67
-1.95 -1.05 1.63
-1.73 -0.99 1.66
-1.64 -0.87 1.67
-4.88 -1.54 1.25
-5.18 -1.58 1.22
-4.87 -1.50 1.26
-5.04 -1.52 1.24
-4.95 -1.48 1.25
-5.00 -1.47 1.24
-5.19 -1.49 1.22
-5.25 -1.48 1.21
-5.21 -1.46 1.21
-5.08 -1.42 1.23
-5.18 -1.42 1.22
-5.18 -1.40 1.22
-5.01 -1.35 1.24
-5.00 -1.33 1.24
-4.85 -1.28 1.26
-4.95 -1.28 1.25
-5.11 -1.29 1.23
-5.09 -1.27 1.23
-5.09 -1.25 1.23
-5.15 -1.25 1.22
-5.04 -1.21 1.24
-4.96 -1.18 1.25
-5.29 -1.21 1.21
-5.35 -1.20 1.20
-5.08 -1.14 1.23
-5.30 -1.16 1.21
-5.31 -1.14 1.21
-5.65 -1.17 1.16
-5.42 -1.12 1.19
-4.78 -1.01 1.27
-5.37 -1.08 1.20
-4.49 -0.94 1.31
-4.66 -0.94 1.29
-4.72 -0.94 1.28
-5.13 -0.97 1.23
-4.65 -0.89 1.29
-4.87 -0.90 1.26
-4.60 -0.85 1.29
-4.32 -0.80 1.33
-4.30 -0.78 1.33
-4.28 -0.76 1.34
-4.50 -0.77 1.31
-4.74 -0.78 1.28
-4.73 -0.77 1.28
-4.68 -0.74 1.28
-4.76 -0.73 1.28
-4.62 -0.70 1.29
-4.47 -0.67 1.31
-4.18 -0.63 1.35
-4.25 -0.62 1.34
-4.02 -0.58 1.37
-4.06 -0.57 1.36
-4.08 -0.56 1.36
-3.86 -0.52 1.39
-3.89 -0.51 1.38
-3.83 -0.49 1.39
-3.95 -0.48 1.38
-3.81 -0.46 1.39
-4.03 -0.46 1.37
-4.12 -0.45 1.36
-4.22 -0.44 1.34
-4.12 -0.42 1.36
-4.25 -0.41 1.34
-7.18 -0.57 0.97
-6.81 -0.53 1.02
-4.61 -0.38 1.29
-6.74 -0.48 1.02
-6.73 -0.46 1.03
-6.59 -0.43 1.04
-6.72 -0.41 1.03
-5.02 -0.32 1.24
-6.63 -0.36 1.04
-6.91 -0.35 1.00
-6.71 -0.32 1.03
-6.62 -0.30 1.04
-6.59 -0.28 1.04
-6.55 -0.26 1.05
-6.50 -0.23 1.05
-6.16 -0.20 1.10
-6.39 -0.19 1.07
-6.10 -0.16 1.10
-6.53 -0.15 1.05
-6.30 -0.12 1.08
-6.26 -0.10 1.08
-5.75 -0.08 1.15
-5.73 -0.06 1.15
-5.41 -0.04 1.19
-5.36 -0.02 1.19
-10.39 0.01 0.76
-10.31 0.03 0.77
-10.26 0.06 0.78
-6.70 0.05 1.26
-6.33 0.07 1.31
-6.26 0.08 1.32
-6.33 0.10 1.31
-6.31 0.11 1.31
-10.48 0.21 0.75
-6.47 0.15 1.29
-6.31 0.16 1.31
-6.63 0.18 1.27
-6.37 0.19 1.30
-6.46 0.21 1.29
-6.50 0.23 1.28
-6.37 0.24 1.30
-6.61 0.26 1.27
-6.52 0.27 1.28
-6.45 0.29 1.29
-6.36 0.30 1.30
-6.48 0.32 1.28
-7.59 0.39 1.13
-7.46 0.40 1.15
-7.46 0.42 1.15
-6.26 0.37 1.31
-7.71 0.47 1.12
-7.67 0.49 1.12
-7.41 0.49 1.15
-7.55 0.52 1.14
-6.83 0.49 1.23
-6.44 0.48 1.28
-6.12 0.47 1.33
-6.32 0.50 1.30
-5.92 0.48 1.35
-6.53 0.55 1.27
-6.72 0.58 1.24
-5.85 0.52 1.36
-6.72 0.61 1.24
-6.78 0.64 1.23
-6.71 0.65 1.24
-6.82 0.67 1.23
-6.87 0.69 1.22
-7.09 0.73 1.19
-7.03 0.75 1.20
-7.20 0.78 1.18
-7.26 0.81 1.17
-7.24 0.82 1.17
-7.22 0.84 1.17
-7.00 0.83 1.20
-7.27 0.88 1.16
-7.29 0.90 1.16
-7.37 0.93 1.15
-4.82 0.63 1.50
-7.80 1.02 1.09
-7.85 1.04 1.08
-7.82 1.06 1.08
-7.78 1.07 1.09
-4.71 0.67 1.51
-7.96 1.14 1.06
-8.21 1.19 1.03
-8.25 1.22 1.02
-8.23 1.24 1.03
-4.47 0.70 1.54
-8.10 1.26 1.04
-8.30 1.31 1.01
-8.28 1.33 1.02
-4.39 0.73 1.55
-8.32 1.38 1.01
-8.73 1.46 0.95
-4.58 0.80 1.52
-8.74 1.51 0.95
-8.42 1.48 0.99
-8.38 1.49 1.00
-8.80 1.59 0.94
-7.94 1.48 1.05
-8.24 1.55 1.01
-8.14 1.55 1.03
-8.58 1.66 0.96
-8.25 1.62 1.01
-8.16 1.62 1.02
-8.21 1.65 1.01
-8.16 1.66 1.02
-4.10 0.87 1.58
-4.49 0.98 1.53
-4.25 0.97 1.56
-4.05 1.07 1.58
-4.35 1.22 1.53
-4.02 1.16 1.58
-3.97 1.17 1.58
-4.44 1.31 1.52
-4.41 1.31 1.52
-4.17 1.26 1.55
-4.08 1.26 1.56
-4.37 1.36 1.52
-4.49 1.41 1.50
-4.41 1.41 1.51
-4.32 1.40 1.53
-4.08 1.35 1.56
-4.36 1.46 1.52
-5.01 1.69 1.42
-4.30 1.51 1.52
-4.32 1.65 1.51
-4.31 1.69 1.51
-2.15 -1.13 1.57
-2.18 -1.05 1.56
-5.24 -1.69 1.15
-5.01 -1.60 1.18
-2.23 -0.99 1.56
-5.15 -1.60 1.16
-5.00 -1.55 1.18
-4.99 -1.53 1.19
-4.97 -1.50 1.19
-3.00 -1.09 1.45
-5.32 -1.54 1.14
-5.31 -1.52 1.14
-5.59 -1.55 1.11
-1.92 -0.83 1.60
-5.31 -1.46 1.14
-5.26 -1.43 1.15
-5.07 -1.38 1.18
-4.96 -1.34 1.19
-2.11 -0.81 1.58
-4.95 -1.30 1.19
-2.03 -0.77 1.59
-5.22 -1.31 1.16
-5.23 -1.30 1.16
-5.13 -1.26 1.17
-2.48 -0.81 1.53
-5.44 -1.28 1.13
-2.34 -0.76 1.55
-5.72 -1.28 1.09
-5.53 -1.23 1.12
-5.37 -1.19 1.14
-5.63 -1.21 1.10
-5.73 -1.21 1.09
-5.74 -1.19 1.09
-5.62 -1.15 1.11
-5.59 -1.13 1.11
-5.47 -1.09 1.13
-5.52 -1.08 1.12
-5.45 -1.05 1.13
-5.26 -1.01 1.15
-5.13 -0.97 1.17
-5.15 -0.96 1.17
-5.19 -0.94 1.17
-5.04 -0.91 1.18
-4.83 -0.86 1.21
-4.65 -0.83 1.24
-4.40 -0.78 1.27
-4.45 -0.77 1.26
-4.58 -0.77 1.25
-4.53 -0.74 1.25
-4.46 -0.72 1.26
-4.85 -0.74 1.21
-4.49 -0.69 1.26
-4.64 -0.69 1.24
-4.57 -0.67 1.25
-4.44 -0.64 1.26
-4.32 -0.61 1.28
-4.07 -0.57 1.31
-4.01 -0.55 1.32
-4.15 -0.55 1.30
-4.15 -0.53 1.30
-3.93 -0.50 1.33
-3.97 -0.49 1.33
-3.96 -0.47 1.33
-3.85 -0.45 1.34
-3.85 -0.43 1.34
-3.92 -0.42 1.33
-3.94 -0.41 1.33
-4.15 -0.41 1.30
-4.47 -0.41 1.26
-4.22 -0.38 1.29
-4.33 -0.37 1.28
-4.15 -0.34 1.30
-3.97 -0.32 1.33
-4.19 -0.31 1.30
-6.72 -0.41 0.96
-7.17 -0.41 0.90
-7.39 -0.40 0.87
-6.83 -0.35 0.94
-4.87 -0.24 1.21
-6.63 -0.28 0.97
-6.87 -0.27 0.94
-6.71 -0.24 0.96
-6.90 -0.22 0.93
-6.71 -0.20 0.96
-7.14 -0.18 0.90
-6.52 -0.15 0.98
-8.26 -0.11 1.05
-11.73 -0.13 0.59
-10.31 -0.09 0.77
-10.54 -0.07 0.74
-10.75 -0.04 0.72
-10.21 -0.02 0.79
-6.22 0.00 0.96
-6.10 0.02 0.98
-6.00 0.04 0.99
-6.19 0.06 0.97
-6.38 0.08 0.94
-5.63 0.10 1.04
-8.20 0.15 0.68
-7.42 0.16 0.79
-3.93 0.12 1.28
-6.43 0.19 1.25
-6.32 0.20 1.26
-6.32 0.22 1.26
-6.46 0.24 1.24
-6.38 0.25 1.25
-6.35 0.27 1.26
-6.29 0.30 1.26
-6.30 0.31 1.26
-6.42 0.33 1.25
-7.46 0.40 1.10
-7.87 0.44 1.04
-7.81 0.46 1.05
-7.97 0.49 1.02
-8.25 0.55 0.98
-11.46 0.78 0.52
-11.73 0.83 0.49
-7.35 0.54 1.11
-5.93 0.48 1.31
-6.26 0.54 1.26
-5.86 0.52 1.32
-6.02 0.56 1.30
-5.77 0.56 1.33
-6.43 0.63 1.24
-6.76 0.68 1.19
-7.13 0.75 1.13
-7.18 0.80 1.13
-7.30 0.83 1.11
-7.44 0.86 1.09
-7.21 0.85 1.12
-7.25 0.87 1.11
-7.46 0.94 1.08
-7.68 0.98 1.05
-7.53 0.98 1.07
-7.48 0.99 1.08
-7.55 1.02 1.07
-7.57 1.04 1.06
-7.97 1.12 1.00
-8.36 1.21 0.95
-8.01 1.20 1.00
-8.23 1.26 0.97
-8.14 1.26 0.98
-8.03 1.27 0.99
-8.27 1.32 0.96
-8.37 1.38 0.94
-8.70 1.48 0.89
-8.68 1.50 0.89
-8.91 1.56 0.86
-8.25 1.47 0.95
-8.17 1.47 0.97
-8.28 1.53 0.95
-8.28 1.55 0.95
-3.86 0.76 1.59
-7.96 1.54 0.99
-8.42 1.65 0.92
-7.95 1.58 0.99
-7.77 1.62 1.01
-7.87 1.66 1.00
-3.72 1.05 1.59
-3.99 1.16 1.55
-3.99 1.17 1.55
-4.01 1.21 1.55
-3.88 1.20 1.56
-3.86 1.21 1.57
-3.99 1.29 1.54
-4.04 1.32 1.54
-3.87 1.28 1.56
-4.24 1.41 1.50
-3.78 1.28 1.57
-4.04 1.42 1.53
-0.79 -1.21 1.72
-1.88 -1.09 1.57
-2.12 -1.14 1.54
-1.66 -0.96 1.61
-1.84 -1.00 1.58
-1.63 -0.94 1.61
-1.71 -0.93 1.60
-4.85 -1.62 1.15
-5.12 -1.66 1.11
-5.14 -1.65 1.11
-5.21 -1.63 1.10
-5.07 -1.58 1.12
-1.96 -0.90 1.57
-5.17 -1.50 1.11
-5.00 -1.45 1.13
-5.16 -1.47 1.11
-5.61 -1.53 1.05
-5.67 -1.51 1.04
-5.50 -1.46 1.06
-5.19 -1.38 1.11
-1.73 -0.74 1.60
-5.22 -1.35 1.10
-5.29 -1.34 1.09
-5.25 -1.32 1.10
-5.36 -1.32 1.08
-5.36 -1.30 1.08
-5.59 -1.32 1.05
-5.76 -1.33 1.03
-5.39 -1.25 1.08
-5.58 -1.26 1.05
-5.51 -1.23 1.06
-5.56 -1.22 1.06
-5.60 -1.20 1.05
-5.59 -1.18 1.05
-5.71 -1.18 1.04
-5.67 -1.16 1.04
-5.55 -1.12 1.06
-5.39 -1.08 1.08
-5.47 -1.07 1.07
-5.52 -1.06 1.06
-5.47 -1.03 1.07
-5.30 -0.99 1.10
-5.17 -0.96 1.11
-5.43 -0.97 1.08
-5.02 -0.90 1.13
-4.75 -0.85 1.17
-4.35 -0.79 1.23
-4.36 -0.77 1.23
-4.33 -0.75 1.23
-4.51 -0.76 1.21
-4.41 -0.73 1.22
-4.41 -0.71 1.22
-4.51 -0.71 1.21
-4.52 -0.69 1.21
-4.42 -0.67 1.22
-4.21 -0.63 1.25
-4.00 -0.59 1.28
-4.03 -0.58 1.27
-4.12 -0.58 1.26
-3.95 -0.54 1.29
-3.98 -0.53 1.28
-3.95 -0.51 1.29
-3.79 -0.49 1.31
-3.99 -0.49 1.28
-3.86 -0.46 1.30
-4.03 -0.46 1.27
-4.04 -0.44 1.27
-3.95 -0.42 1.28
-3.94 -0.41 1.29
-3.90 -0.39 1.29
-3.91 -0.38 1.29
-3.92 -0.36 1.29
-3.73 -0.34 1.32
-4.28 -0.35 1.24
-6.59 -0.45 0.91
-4.69 -0.34 1.18
-6.65 -0.41 0.91
-6.66 -0.39 0.90
-4.81 -0.29 1.16
-4.81 -0.27 1.16
-6.14 -0.31 0.98
-5.13 -0.25 1.12
-6.06 -0.26 0.99
-5.67 -0.23 1.04
-3.24 -0.15 1.38
-6.51 -0.21 0.92
-6.15 -0.18 0.97
-6.15 -0.16 0.97
-3.47 -0.10 1.35
-6.23 -0.12 0.96
-6.21 -0.10 0.96
-3.21 -0.05 1.39
-6.19 -0.06 0.97
-6.15 -0.04 0.97
-6.12 -0.02 0.98
-10.44 0.01 0.60
-6.62 0.02 1.17
-6.31 0.03 1.21
-6.42 0.05 1.20
-6.57 0.07 1.17
-6.44 0.08 1.19
-6.30 0.10 1.21
-6.47 0.11 1.19
-6.35 0.13 1.21
-6.36 0.14 1.20
-6.39 0.16 1.20
-6.37 0.17 1.20
-6.32 0.19 1.21
-6.39 0.21 1.20
-6.28 0.22 1.21
-6.16 0.23 1.23
-6.24 0.25 1.22
-6.40 0.27 1.19
-6.40 0.29 1.19
-6.37 0.30 1.20
-6.44 0.32 1.19
-6.21 0.32 1.22
-6.32 0.34 1.21
-6.25 0.36 1.22
-6.71 0.40 1.15
-7.80 0.48 0.98
-7.22 0.46 1.07
-6.58 0.44 1.16
-7.21 0.50 1.07
-7.12 0.51 1.08
-7.05 0.52 1.09
-7.03 0.54 1.09
-7.44 0.59 1.03
-7.18 0.58 1.07
-5.58 0.47 1.31
-6.49 0.56 1.18
-6.82 0.61 1.12
-6.56 0.60 1.16
-6.56 0.61 1.16
-6.44 0.62 1.18
-6.74 0.67 1.13
-6.75 0.68 1.13
-6.91 0.72 1.11
-6.81 0.72 1.12
-7.03 0.76 1.09
-7.11 0.79 1.08
-7.36 0.83 1.04
-7.31 0.85 1.05
-7.35 0.87 1.04
-7.23 0.87 1.06
-7.30 0.90 1.04
-7.40 0.93 1.03
-7.30 0.94 1.04
-7.22 0.95 1.05
-7.25 0.97 1.05
-7.38 1.00 1.03
-7.29 1.01 1.04
-8.04 1.13 0.93
-8.47 1.21 0.86
-7.86 1.14 0.95
-4.50 0.68 1.46
-7.67 1.16 0.98
-7.93 1.21 0.94
-7.69 1.20 0.98
-7.71 1.22 0.97
-7.98 1.28 0.93
-7.90 1.29 0.94
-8.73 1.44 0.82
-9.12 1.53 0.75
-8.51 1.45 0.85
-8.37 1.45 0.87
-8.22 1.46 0.89
-8.00 1.45 0.92
-8.26 1.51 0.88
-7.79 1.47 0.95
-8.07 1.54 0.91
-7.75 1.50 0.96
-4.30 0.86 1.49
-7.87 1.56 0.94
-7.95 1.60 0.92
-8.06 1.64 0.91
-8.07 1.67 0.90
-7.51 1.69 0.98
-4.18 1.07 1.49
-3.97 1.18 1.51
-3.97 1.19 1.51
-4.20 1.27 1.48
-4.26 1.30 1.47
-3.98 1.23 1.51
-4.55 1.42 1.42
-4.80 1.50 1.38
-4.17 1.33 1.48
-4.07 1.31 1.49
-4.14 1.34 1.48
-4.37 1.49 1.44
-4.14 1.44 1.48
-3.02 -1.32 1.37
-3.55 -1.44 1.28
-3.86 -1.47 1.24
-2.03 -1.01 1.52
-3.84 -1.41 1.24
-3.93 -1.42 1.23
-4.82 -1.60 1.10
-1.95 -0.94 1.53
-2.17 -0.98 1.50
-2.15 -0.96 1.50
-2.58 -1.04 1.43
-2.04 -0.92 1.52
-5.83 -1.68 0.95
-2.06 -0.90 1.51
-2.35 -0.95 1.47
-2.22 -0.91 1.49
-2.08 -0.87 1.51
-5.39 -1.50 1.01
-1.99 -0.83 1.52
-2.00 -0.82 1.52
-5.20 -1.41 1.04
-5.50 -1.44 1.00
-5.41 -1.41 1.01
-5.24 -1.36 1.04
-5.40 -1.37 1.01
-5.49 -1.36 1.00
-5.50 -1.34 1.00
-1.33 -0.63 1.62
-5.32 -1.28 1.03
-5.32 -1.26 1.03
-5.35 -1.24 1.02
-5.41 -1.24 1.01
-5.45 -1.22 1.01
-5.69 -1.24 0.97
-5.63 -1.21 0.98
-5.56 -1.18 0.99
-5.63 -1.17 0.98
-5.60 -1.15 0.99
-5.63 -1.13 0.98
-5.33 -1.07 1.03
-5.23 -1.04 1.04
-5.38 -1.04 1.02
-5.44 -1.03 1.01
-5.41 -1.01 1.02
-5.38 -0.99 1.02
-5.04 -0.93 1.07
-5.63 -0.98 0.98
-4.90 -0.87 1.09
-4.58 -0.82 1.14
-4.44 -0.79 1.16
-4.36 -0.76 1.17
-4.31 -0.74 1.18
-4.35 -0.73 1.17
-4.09 -0.68 1.21
-4.17 -0.68 1.20
-4.31 -0.67 1.18
-4.12 -0.64 1.21
-4.20 -0.63 1.20
-3.97 -0.59 1.23
-4.06 -0.59 1.22
-3.97 -0.56 1.23
-3.89 -0.54 1.24
-3.89 -0.53 1.24
-3.90 -0.51 1.24
-3.83 -0.49 1.25
-3.89 -0.48 1.24
-3.90 -0.47 1.24
-3.95 -0.46 1.23
-4.07 -0.45 1.22
-4.07 -0.43 1.22
-3.97 -0.41 1.23
-3.96 -0.40 1.23
-4.02 -0.38 1.22
-3.91 -0.36 1.24
-3.99 -0.35 1.23
-4.09 -0.34 1.21
-3.95 -0.32 1.23
-4.47 -0.33 1.16
-4.43 -0.31 1.16
-4.95 -0.32 1.08
-4.72 -0.29 1.12
-4.83 -0.28 1.10
-4.95 -0.26 1.08
-8.32 -0.28 0.92
-8.16 -0.25 0.94
-8.20 -0.23 0.93
-8.01 -0.21 0.96
-8.13 -0.19 0.94
-10.02 -0.21 0.66
-10.24 -0.19 0.63
-9.85 -0.16 0.69
-10.01 -0.14 0.66
-10.10 -0.12 0.65
-9.96 -0.09 0.67
-10.21 -0.07 0.63
-10.06 -0.04 0.65
-9.98 -0.02 0.67
-8.35 0.02 0.50
-5.75 0.08 0.91
-6.47 0.15 0.79
-8.63 0.24 0.45
-6.08 0.22 0.85
-8.37 0.31 0.49
-7.61 0.45 0.61
-6.07 0.31 1.20
-6.21 0.34 1.18
-5.99 0.34 1.21
-6.18 0.36 1.18
-6.15 0.38 1.19
-6.36 0.41 1.16
-6.55 0.45 1.12
-6.32 0.47 1.16
-7.22 0.64 1.02
-7.01 0.65 1.05
-6.92 0.68 1.06
-7.23 0.74 1.01
-7.30 0.88 0.99
-7.72 0.95 0.93
-7.29 0.91 1.00
-7.42 0.97 0.97
-7.35 0.98 0.98
-7.19 0.97 1.01
-8.20 1.19 0.84
-8.59 1.39 0.78
-3.90 0.72 1.52
-8.33 1.56 0.81
-3.75 0.76 1.54
-3.95 0.89 1.51
-4.01 0.91 1.50
-7.11 1.63 0.99
-3.67 0.88 1.55
-3.45 0.85 1.58
-3.20 0.83 1.62
-3.69 1.01 1.54
-3.68 1.02 1.54
-3.84 1.07 1.51
-3.74 1.06 1.53
-3.42 0.98 1.58
-3.82 1.11 1.51
-3.88 1.15 1.50
-3.86 1.16 1.51
-3.68 1.12 1.53
-4.05 1.25 1.47
-3.99 1.26 1.48
-3.90 1.24 1.49
-3.75 1.21 1.52
-3.86 1.25 1.50
-3.92 1.28 1.49
-3.97 1.32 1.48
-3.83 1.29 1.50
-3.79 1.46 1.50
-1.62 -1.11 1.55
-1.55 -1.08 1.56
-2.03 -1.11 1.49
-1.77 -1.03 1.53
-2.20 -1.12 1.46
-1.88 -1.02 1.51
-1.64 -0.95 1.55
-1.66 -0.88 1.55
-1.76 -0.86 1.53
-1.70 -0.83 1.54
-1.57 -0.78 1.56
-5.38 -1.47 0.96
-5.85 -1.52 0.89
-1.35 -0.68 1.60
-5.65 -1.39 0.92
-5.31 -1.31 0.98
-5.25 -1.26 0.99
-5.34 -1.26 0.97
-5.26 -1.23 0.98
-5.23 -1.20 0.99
-1.54 -0.61 1.57
-5.57 -1.20 0.94
-5.80 -1.21 0.90
-5.66 -1.17 0.92
-5.65 -1.15 0.93
-1.70 -0.58 1.54
-5.83 -1.14 0.90
-5.69 -1.10 0.92
-2.63 -0.66 1.40
-5.63 -1.01 0.93
-5.60 -0.99 0.93
-6.05 -1.03 0.86
-6.00 -1.00 0.87
-5.97 -0.98 0.88
-6.60 -1.01 0.78
-7.06 -1.02 0.71
-7.35 -1.00 0.66
-3.67 -0.61 1.24
-3.60 -0.59 1.25
-4.04 -0.61 1.18
-3.82 -0.58 1.21
-7.28 -0.85 0.67
-3.48 -0.50 1.27
-7.32 -0.81 0.67
-7.26 -0.78 0.68
-7.10 -0.75 0.70
-7.40 -0.72 0.66
-7.05 -0.65 0.71
-3.92 -0.42 1.20
-3.92 -0.41 1.20
-7.13 -0.59 0.70
-6.93 -0.56 0.73
-2.19 -0.25 1.46
-6.76 -0.46 0.75
-6.94 -0.45 0.73
-6.85 -0.42 0.74
-10.20 -0.51 0.22
-7.04 -0.34 0.71
-6.39 -0.27 0.81
-6.51 -0.26 0.79
-6.51 -0.23 0.79
-6.27 -0.21 0.83
-6.02 -0.14 0.87
-8.63 -0.13 0.46
-5.51 -0.08 0.94
-6.15 -0.06 0.85
-8.21 -0.03 0.52
-6.74 0.00 1.04
-6.43 0.02 1.09
-6.63 0.03 1.06
-6.62 0.05 1.06
-6.63 0.07 1.06
-6.62 0.08 1.06
-6.40 0.10 1.10
-6.48 0.11 1.08
-6.54 0.13 1.07
-6.25 0.14 1.12
-6.36 0.16 1.10
-6.26 0.17 1.12
-6.32 0.19 1.11
-6.39 0.22 1.10
-6.35 0.24 1.10
-6.89 0.27 1.01
-6.76 0.28 1.03
-8.01 0.35 0.83
-6.82 0.32 1.02
-6.34 0.31 1.10
-6.24 0.32 1.12
-6.20 0.34 1.13
-6.27 0.36 1.11
-6.13 0.36 1.14
-6.20 0.38 1.12
-6.47 0.41 1.08
-6.65 0.44 1.05
-6.40 0.44 1.09
-6.55 0.47 1.06
-6.72 0.50 1.04
-6.71 0.51 1.04
-7.23 0.57 0.95
-7.28 0.59 0.94
-6.94 0.58 1.00
-7.01 0.60 0.99
-6.78 0.60 1.02
-6.95 0.63 0.99
-6.92 0.65 1.00
-6.97 0.67 0.99
-6.97 0.69 0.99
-7.00 0.71 0.98
-6.98 0.72 0.99
-7.11 0.75 0.96
-7.21 0.78 0.95
-7.04 0.78 0.97
-7.15 0.83 0.96
-7.12 0.84 0.96
-7.40 0.91 0.91
-7.38 0.93 0.91
-7.29 0.94 0.93
-7.46 0.98 0.90
-7.57 1.03 0.88
-7.92 1.09 0.82
-8.25 1.18 0.76
-8.26 1.20 0.76
-8.56 1.27 0.71
-8.26 1.26 0.76
-7.97 1.26 0.81
-8.15 1.31 0.77
-7.92 1.33 0.81
-8.44 1.44 0.72
-8.25 1.43 0.75
-8.22 1.51 0.76
-8.28 1.54 0.74
-8.54 1.61 0.70
-7.98 1.53 0.79
-8.21 1.67 0.75
-7.93 1.64 0.80
-7.73 1.64 0.83
-7.90 1.69 0.80
-7.46 1.66 0.87
-3.53 0.85 1.54
-3.58 0.92 1.52
-3.51 0.92 1.54
-3.87 1.03 1.47
-3.83 1.04 1.48
-3.78 1.03 1.49
-3.52 0.99 1.53
-3.73 1.05 1.49
-3.90 1.13 1.46
-3.82 1.12 1.47
-3.90 1.16 1.46
-3.91 1.18 1.46
-3.76 1.14 1.48
-3.94 1.22 1.45
-4.17 1.29 1.41
-3.85 1.24 1.46
-3.92 1.28 1.45
-3.95 1.31 1.44
-4.26 1.47 1.38
-3.98 1.39 1.43
-4.37 1.53 1.36
-3.70 1.32 1.48
-3.77 1.42 1.46
-2.09 -1.19 1.43
-1.97 -0.95 1.46
-4.72 -1.51 1.00
-1.76 -0.87 1.49
-1.89 -0.89 1.47
-4.76 -1.47 0.99
-4.72 -1.44 1.00
-2.12 -0.90 1.43
-5.18 -1.50 0.93
-4.96 -1.44 0.96
-5.04 -1.43 0.95
-5.11 -1.43 0.94
-5.05 -1.40 0.95
-5.15 -1.40 0.93
-5.23 -1.39 0.92
-5.23 -1.38 0.92
-5.41 -1.39 0.89
-5.76 -1.43 0.83
-5.62 -1.39 0.86
-5.04 -1.27 0.95
-5.16 -1.27 0.93
-5.25 -1.27 0.92
-5.13 -1.23 0.94
-5.26 -1.23 0.92
-5.18 -1.20 0.93
-5.24 -1.19 0.92
-5.34 -1.19 0.90
-5.42 -1.18 0.89
-5.47 -1.17 0.88
-5.66 -1.18 0.85
-5.63 -1.16 0.86
-5.74 -1.15 0.84
-5.27 -1.07 0.92
-5.05 -1.02 0.95
-5.24 -1.03 0.92
-5.08 -0.99 0.95
-5.12 -0.97 0.94
-5.27 -0.97 0.92
-5.08 -0.93 0.95
-5.07 -0.91 0.95
-5.11 -0.90 0.94
-4.95 -0.86 0.97
-5.16 -0.87 0.94
-5.08 -0.84 0.95
-5.07 -0.82 0.95
-4.72 -0.77 1.01
-4.49 -0.73 1.05
-4.27 -0.69 1.08
-4.27 -0.67 1.08
-4.33 -0.66 1.07
-4.39 -0.65 1.06
-4.28 -0.62 1.08
-4.10 -0.59 1.11
-4.27 -0.59 1.08
-4.25 -0.57 1.09
-3.85 -0.52 1.15
-3.65 -0.49 1.18
-3.99 -0.51 1.13
-3.95 -0.49 1.13
-3.95 -0.47 1.13
-4.53 -0.50 1.04
-4.43 -0.47 1.06
-4.25 -0.45 1.08
-4.27 -0.43 1.08
-3.84 -0.39 1.15
-3.82 -0.37 1.16
-3.90 -0.36 1.14
-8.13 -0.43 0.82
-7.75 -0.39 0.88
-7.71 -0.37 0.89
-9.62 -0.44 0.57
-9.79 -0.40 0.55
-9.72 -0.37 0.56
-10.60 -0.38 0.41
-9.92 -0.33 0.52
-11.20 -0.35 0.31
-10.56 -0.30 0.42
-9.70 -0.25 0.56
-6.14 -0.15 1.14
-6.39 -0.12 1.10
-6.17 -0.10 1.14
-6.22 -0.09 1.13
-6.28 -0.07 1.12
-10.42 -0.10 0.44
-10.06 -0.07 0.50
-6.58 -0.01 1.07
-3.28 0.00 1.20
-3.89 0.01 1.09
-3.98 0.03 1.07
-4.34 0.03 1.40
-6.69 0.07 1.00
-6.69 0.08 1.00
-6.74 0.10 0.99
-6.92 0.12 0.96
-6.25 0.12 1.07
-6.27 0.14 1.07
-6.20 0.15 1.08
-6.44 0.17 1.04
-6.29 0.19 1.07
-6.34 0.20 1.05
-6.26 0.22 1.07
-8.10 0.30 0.75
-6.83 0.27 0.97
-6.94 0.29 0.95
-6.62 0.29 1.01
-6.78 0.32 0.98
-6.39 0.31 1.04
-6.41 0.33 1.04
-6.19 0.33 1.08
-6.55 0.37 1.02
-6.22 0.37 1.07
-6.41 0.39 1.04
-6.52 0.42 1.02
-6.65 0.44 1.00
-6.75 0.46 0.98
-6.77 0.48 0.98
-6.78 0.50 0.97
-6.69 0.51 0.99
-6.71 0.53 0.98
-6.79 0.55 0.97
-6.87 0.57 0.95
-6.80 0.58 0.97
-6.79 0.60 0.97
-6.93 0.63 0.94
-7.03 0.66 0.92
-7.03 0.67 0.92
-6.97 0.68 0.93
-6.98 0.70 0.93
-7.02 0.72 0.92
-7.10 0.75 0.91
-7.02 0.76 0.92
-7.07 0.78 0.91
-6.98 0.79 0.93
-7.00 0.81 0.92
-7.10 0.84 0.91
-7.22 0.87 0.89
-7.24 0.89 0.88
-7.20 0.90 0.89
-7.08 0.91 0.91
-7.39 0.96 0.85
-7.38 0.98 0.85
-7.51 1.02 0.83
-7.44 1.03 0.84
-7.37 1.03 0.85
-7.63 1.09 0.81
-7.81 1.13 0.77
-8.12 1.20 0.72
-8.28 1.24 0.69
-8.25 1.26 0.69
-8.07 1.27 0.72
-8.14 1.30 0.71
-8.19 1.33 0.70
-8.32 1.44 0.67
-8.24 1.44 0.69
-8.02 1.43 0.73
-8.09 1.46 0.71
-8.34 1.52 0.67
-4.25 0.81 1.39
-3.90 0.75 1.45
-4.26 0.83 1.39
-7.84 1.51 0.75
-4.31 0.86 1.38
-4.14 0.84 1.41
-4.15 0.85 1.41
-3.90 0.82 1.45
-4.02 0.85 1.43
-4.23 0.90 1.39
-3.90 0.85 1.45
-3.90 0.86 1.45
-7.74 1.67 0.76
-3.97 0.89 1.43
-4.21 0.95 1.39
-3.84 0.90 1.45
-3.75 0.90 1.47
-3.73 0.91 1.47
-3.46 0.87 1.52
-3.69 0.94 1.48
-3.69 0.95 1.48
-3.60 0.95 1.49
-3.70 0.99 1.47
-3.67 0.99 1.48
-3.80 1.03 1.45
-3.56 0.98 1.50
-3.52 0.98 1.50
-3.67 1.03 1.47
-3.63 1.03 1.48
-3.76 1.07 1.46
-3.69 1.07 1.47
-3.98 1.16 1.41
-3.82 1.12 1.44
-3.96 1.17 1.42
-3.90 1.17 1.43
-3.84 1.16 1.44
-3.96 1.21 1.41
-3.79 1.17 1.44
-3.91 1.21 1.42
-3.89 1.22 1.43
-3.91 1.24 1.42
-3.72 1.19 1.46
-4.12 1.32 1.38
-3.68 1.20 1.46
-3.87 1.27 1.42
-3.85 1.27 1.43
-3.87 1.29 1.42
-3.93 1.32 1.41
-3.87 1.31 1.42
-3.92 1.34 1.41
-3.94 1.36 1.41
-3.83 1.33 1.43
-3.87 1.36 1.42
-3.98 1.40 1.40
-3.65 1.30 1.46
-3.77 1.36 1.43
-3.73 1.35 1.44
-3.71 1.37 1.44
-3.70 1.37 1.44
-3.75 1.41 1.43
-0.82 -1.21 1.61
-0.93 -1.24 1.59
-0.92 -1.23 1.59
-1.12 -1.24 1.56
-1.31 -1.26 1.53
-1.61 -1.24 1.48
-1.54 -1.21 1.49
-1.55 -1.19 1.49
-1.58 -1.19 1.49
-1.50 -1.16 1.50
-1.69 -1.19 1.47
-1.74 -1.19 1.46
-1.87 -1.20 1.44
-1.75 -1.15 1.46
-1.66 -1.11 1.47
-1.88 -1.17 1.43
-1.93 -1.17 1.43
-1.85 -1.14 1.44
-2.14 -1.20 1.39
-1.96 -1.14 1.42
-1.94 -1.11 1.43
-1.96 -1.10 1.42
-2.16 -1.14 1.39
-2.03 -1.10 1.41
-1.89 -1.05 1.44
-1.74 -1.01 1.46
-2.00 -1.05 1.42
-1.92 -1.02 1.43
-1.68 -0.92 1.47
-1.90 -0.96 1.44
-1.81 -0.93 1.45
-1.79 -0.92 1.45
-1.76 -0.90 1.46
-1.78 -0.89 1.46
-1.72 -0.87 1.47
-1.89 -0.89 1.44
-1.92 -0.89 1.43
-1.99 -0.89 1.42
-2.09 -0.91 1.40
-1.98 -0.87 1.42
-2.36 -0.94 1.36
-2.07 -0.87 1.41
-2.47 -0.93 1.34
-2.28 -0.89 1.37
-2.34 -0.89 1.36
-2.23 -0.85 1.38
-2.00 -0.80 1.42
-2.78 -0.93 1.29
-5.38 -1.38 0.83
-1.65 -0.71 1.48
-1.95 -0.75 1.43
-2.62 -0.85 1.31
-5.15 -1.27 0.88
-5.15 -1.25 0.88
-5.13 -1.23 0.88
-5.24 -1.23 0.86
-5.20 -1.20 0.87
-5.17 -1.18 0.87
-5.44 -1.20 0.83
-5.19 -1.14 0.87
-4.99 -1.10 0.90
-5.14 -1.10 0.88
-5.24 -1.10 0.86
-5.30 -1.09 0.85
-4.98 -1.02 0.91
-4.95 -1.00 0.91
-5.08 -1.00 0.89
-4.78 -0.94 0.94
-4.83 -0.93 0.93
-4.69 -0.90 0.96
-4.66 -0.88 0.96
-4.73 -0.87 0.95
-4.67 -0.85 0.96
-4.50 -0.81 0.99
-1.76 -0.48 1.46
-4.54 -0.78 0.98
-4.61 -0.77 0.97
-4.54 -0.75 0.98
-4.32 -0.71 1.02
-4.21 -0.68 1.04
-4.19 -0.66 1.05
-3.93 -0.62 1.09
-3.92 -0.60 1.09
-4.07 -0.60 1.07
-3.82 -0.57 1.11
-4.05 -0.57 1.07
-3.80 -0.53 1.11
-3.58 -0.50 1.15
-3.73 -0.50 1.12
-3.67 -0.48 1.13
-3.76 -0.47 1.12
-4.04 -0.48 1.07
-3.89 -0.45 1.10
-4.18 -0.46 1.05
-4.03 -0.43 1.07
-4.02 -0.41 1.07
-3.96 -0.40 1.08
-3.86 -0.37 1.10
-3.89 -0.36 1.10
-3.99 -0.35 1.08
-3.93 -0.33 1.09
-3.79 -0.31 1.11
-3.81 -0.30 1.11
-3.64 -0.27 1.14
-3.55 -0.26 1.15
-3.61 -0.24 1.14
-3.45 -0.22 1.17
-3.22 -0.20 1.21
-3.29 -0.19 1.20
-3.45 -0.18 1.17
-3.39 -0.17 1.18
-6.80 -0.24 0.59
-3.98 -0.15 1.08
-3.71 -0.13 1.12
-3.28 -0.11 1.20
-3.35 -0.10 1.19
-3.23 -0.08 1.21
-3.28 -0.07 1.20
-5.54 -0.08 0.81
-3.92 -0.05 1.09
-3.65 -0.03 1.13
-5.53 -0.02 0.81
-7.03 0.00 0.88
-7.12 0.02 0.86
-6.78 0.03 0.93
-6.77 0.05 0.93
-6.71 0.07 0.94
-6.89 0.09 0.90
-7.06 0.10 0.87
-7.08 0.12 0.87
-7.19 0.14 0.85
-6.93 0.15 0.90
-6.75 0.17 0.93
-6.98 0.19 0.89
-6.67 0.20 0.94
-7.08 0.23 0.87
-8.79 0.30 0.56
-6.50 0.24 0.97
-8.97 0.35 0.52
-8.97 0.37 0.52
-9.12 0.40 0.50
-8.41 0.39 0.62
-8.40 0.41 0.63
-6.53 0.34 0.96
-6.41 0.35 0.99
-6.44 0.36 0.98
-6.59 0.39 0.95
-6.55 0.40 0.96
-7.08 0.45 0.86
-6.57 0.44 0.95
-7.08 0.49 0.86
-6.92 0.49 0.89
-7.06 0.52 0.86
-7.03 0.53 0.87
-6.97 0.55 0.88
-6.82 0.55 0.91
-6.90 0.58 0.89
-7.02 0.60 0.87
-7.03 0.62 0.87
-6.91 0.63 0.89
-7.04 0.66 0.86
-7.05 0.68 0.86
-7.08 0.70 0.85
-7.08 0.71 0.85
-7.18 0.74 0.83
-7.16 0.76 0.84
-7.13 0.77 0.84
-7.19 0.80 0.83
-7.14 0.81 0.84
-7.16 0.83 0.84
-7.07 0.84 0.85
-7.09 0.85 0.85
-7.10 0.87 0.84
-7.14 0.90 0.84
-7.17 0.92 0.83
-5.33 0.70 1.17
-7.13 0.95 0.84
-7.25 0.98 0.81
-7.65 1.05 0.74
-7.54 1.06 0.76
-7.99 1.14 0.68
-7.84 1.14 0.70
-8.02 1.18 0.67
-8.07 1.21 0.66
-8.12 1.24 0.65
-7.96 1.23 0.68
-7.94 1.25 0.68
-7.82 1.25 0.70
-4.55 0.76 1.30
-8.43 1.39 0.59
-8.18 1.37 0.63
-9.39 1.59 0.41
-8.83 1.54 0.51
-9.45 1.67 0.39
-7.89 1.42 0.68
-8.53 1.56 0.56
-8.07 1.52 0.65
-8.14 1.55 0.63
-4.09 0.81 1.38
-5.70 1.13 1.08
-7.86 1.56 0.68
-7.87 1.58 0.68
-7.37 1.50 0.77
-4.50 0.95 1.30
-4.57 0.97 1.29
-5.52 1.18 1.11
-4.00 0.88 1.39
-7.74 1.67 0.69
-7.68 1.68 0.71
-7.44 1.65 0.75
-7.48 1.68 0.74
-4.70 1.15 1.25
-3.88 0.97 1.41
-4.08 1.05 1.37
-5.49 1.41 1.10
-4.06 1.07 1.37
-3.97 1.05 1.39
-4.98 1.32 1.20
-4.15 1.12 1.35
-4.00 1.10 1.38
-4.15 1.15 1.35
-4.59 1.27 1.27
-4.14 1.17 1.35
-3.93 1.12 1.39
-4.07 1.17 1.36
-4.77 1.37 1.23
-4.18 1.22 1.34
-4.36 1.30 1.30
-4.30 1.29 1.31
-4.23 1.28 1.33
-4.45 1.36 1.28
-4.04 1.41 1.35
-4.25 1.50 1.31
-4.34 1.56 1.29
-1.81 -1.30 1.40
-2.00 -1.31 1.37
-1.89 -1.20 1.39
-2.01 -1.23 1.37
-3.62 -1.65 1.08
-2.26 -1.20 1.33
-2.18 -1.15 1.34
-1.98 -1.07 1.38
-3.86 -1.53 1.04
-3.74 -1.48 1.06
-2.37 -1.14 1.31
-3.72 -1.43 1.06
-2.14 -1.05 1.35
-2.14 -1.04 1.35
-4.85 -1.64 0.86
-1.89 -0.96 1.40
-4.06 -1.43 1.00
-1.83 -0.93 1.41
-2.07 -0.97 1.37
-4.02 -1.38 1.01
-2.14 -0.96 1.36
-4.74 -1.49 0.88
-4.29 -1.38 0.96
-4.43 -1.40 0.94
-2.66 -1.02 1.26
-4.67 -1.41 0.90
-2.34 -0.93 1.32
-2.71 -0.99 1.25
-4.73 -1.37 0.89
-4.71 -1.35 0.89
-4.79 -1.35 0.87
-4.83 -1.34 0.87
-4.84 -1.32 0.87
-4.69 -1.28 0.89
-4.53 -1.23 0.92
-4.90 -1.28 0.86
-5.00 -1.28 0.84
-4.96 -1.25 0.85
-4.93 -1.23 0.85
-4.92 -1.21 0.86
-4.99 -1.21 0.84
-4.97 -1.18 0.85
-5.05 -1.18 0.83
-5.09 -1.17 0.82
-5.13 -1.16 0.82
-5.13 -1.14 0.82
-5.03 -1.10 0.84
-4.98 -1.08 0.84
-4.98 -1.06 0.84
-4.83 -1.02 0.87
-5.02 -1.03 0.84
-4.60 -0.96 0.91
-4.62 -0.94 0.91
-4.65 -0.93 0.91
-4.60 -0.91 0.91
-4.58 -0.89 0.92
-4.48 -0.86 0.94
-4.52 -0.84 0.93
-4.56 -0.83 0.92
-4.49 -0.81 0.94
-4.53 -0.80 0.93
-4.47 -0.77 0.94
-4.45 -0.75 0.94
-4.39 -0.73 0.95
-4.37 -0.71 0.96
-4.30 -0.69 0.97
-4.08 -0.65 1.01
-3.99 -0.63 1.03
-3.90 -0.60 1.04
-3.79 -0.58 1.06
-3.70 -0.55 1.08
-3.77 -0.55 1.07
-3.70 -0.53 1.08
-3.70 -0.51 1.08
-3.65 -0.49 1.09
-3.67 -0.48 1.08
-4.03 -0.49 1.02
-3.98 -0.47 1.03
-3.93 -0.46 1.04
-3.95 -0.44 1.03
-3.82 -0.42 1.06
-3.95 -0.41 1.03
-3.90 -0.39 1.04
-3.84 -0.37 1.05
-3.99 -0.37 1.03
-4.03 -0.35 1.02
-3.88 -0.33 1.05
-3.87 -0.32 1.05
-3.76 -0.30 1.07
-3.95 -0.29 1.03
-3.91 -0.27 1.04
-3.85 -0.25 1.05
-3.65 -0.23 1.09
-3.62 -0.22 1.09
-3.50 -0.20 1.11
-3.51 -0.18 1.11
-7.13 -0.28 0.46
-3.53 -0.16 1.11
-3.59 -0.14 1.09
-3.68 -0.13 1.08
-6.25 -0.17 0.62
-5.82 -0.14 0.69
-6.74 -0.10 0.94
-6.79 -0.08 0.92
-6.67 -0.06 0.95
-6.70 -0.05 0.94
-6.87 -0.03 0.91
-6.90 -0.01 0.91
-5.42 -0.00 0.70
-5.04 0.02 0.77
-5.12 0.03 0.75
-4.99 0.05 0.78
-4.77 0.07 0.82
-4.53 0.08 0.86
-4.27 0.09 0.91
-4.59 0.12 0.85
-3.63 0.11 1.03
-4.05 0.14 0.95
-3.80 0.15 1.00
-6.54 0.18 0.91
-5.02 0.16 1.20
-8.55 0.29 0.53
-9.31 0.34 0.38
-7.24 0.28 0.77
-8.23 0.34 0.59
-8.17 0.36 0.60
-6.47 0.30 0.92
-6.57 0.34 0.90
-6.43 0.35 0.93
-6.31 0.36 0.95
-5.68 0.34 1.07
-6.57 0.40 0.90
-7.01 0.45 0.81
-6.91 0.46 0.83
-5.26 0.38 1.15
-6.76 0.50 0.86
-6.82 0.52 0.85
-4.99 0.39 1.20
-5.35 0.44 1.13
-5.23 0.44 1.15
-4.76 0.41 1.24
-6.78 0.61 0.85
-4.16 0.39 1.35
-3.91 0.38 1.40
-3.79 0.38 1.42
-7.26 0.73 0.76
-7.22 0.74 0.76
-7.14 0.75 0.78
-7.15 0.79 0.78
-7.23 0.82 0.76
-7.08 0.82 0.79
-7.12 0.84 0.78
-7.08 0.85 0.79
-7.12 0.87 0.78
-7.17 0.90 0.77
-7.10 0.92 0.78
-7.29 0.97 0.74
-7.23 0.98 0.75
-7.49 1.03 0.70
-7.45 1.04 0.71
-7.81 1.11 0.64
-7.77 1.13 0.65
-7.98 1.20 0.60
-8.60 1.31 0.48
-8.26 1.28 0.55
-8.98 1.41 0.41
-9.17 1.58 0.37
-8.94 1.56 0.41
-8.73 1.55 0.45
-7.85 1.41 0.62
-4.03 0.79 1.36
-8.35 1.63 0.51
-8.01 1.58 0.58
-4.22 0.87 1.32
-3.93 0.82 1.37
-4.16 0.88 1.33
-4.07 0.88 1.34
-4.00 0.89 1.36
-3.88 0.87 1.38
-4.31 0.97 1.30
-3.88 0.89 1.38
-3.92 0.91 1.37
-3.94 0.94 1.36
-3.65 0.93 1.42
-3.73 0.97 1.40
-3.61 0.96 1.42
-3.79 1.02 1.39
-3.85 1.04 1.37
-3.62 0.99 1.42
-3.70 1.03 1.40
-3.52 1.01 1.43
-3.58 1.03 1.42
-3.69 1.07 1.40
-3.65 1.07 1.41
-3.97 1.17 1.34
-3.90 1.17 1.35
-3.86 1.18 1.36
-3.81 1.17 1.37
-3.72 1.16 1.39
-4.01 1.25 1.33
-3.90 1.23 1.35
-3.93 1.25 1.34
-4.03 1.29 1.32
-3.96 1.30 1.34
-4.03 1.36 1.32
-3.80 1.30 1.36
-4.03 1.41 1.31
-3.89 1.38 1.34
-4.09 1.46 1.30
-3.85 1.40 1.35
-3.60 1.33 1.40
-3.62 1.36 1.39
-1.28 -1.36 1.47
-1.16 -1.28 1.49
-1.66 -1.44 1.39
-1.41 -1.24 1.45
-1.60 -1.29 1.41
-1.71 -1.26 1.39
-1.83 -1.29 1.37
-1.62 -1.20 1.41
-1.88 -1.27 1.36
-1.79 -1.23 1.38
-1.77 -1.22 1.38
-1.73 -1.20 1.39
-1.69 -1.17 1.40
-1.53 -1.11 1.43
-1.61 -1.12 1.41
-1.70 -1.13 1.40
-1.66 -1.09 1.40
-1.76 -1.11 1.39
-1.91 -1.14 1.36
-1.68 -1.07 1.40
-1.90 -1.12 1.36
-2.24 -1.18 1.29
-1.87 -1.06 1.37
-1.76 -1.02 1.39
-1.88 -1.04 1.37
-1.89 -1.03 1.36
-1.90 -1.02 1.36
-1.82 -0.99 1.38
-1.79 -0.98 1.38
-1.94 -1.00 1.36
-1.96 -0.99 1.35
-1.78 -0.94 1.39
-1.78 -0.93 1.39
-1.69 -0.90 1.40
-1.67 -0.89 1.41
-1.76 -0.90 1.39
-1.95 -0.93 1.35
-2.04 -0.94 1.34
-2.02 -0.92 1.34
-2.06 -0.92 1.33
-1.89 -0.87 1.37
-1.95 -0.87 1.36
-1.98 -0.87 1.35
-2.30 -0.92 1.29
-2.14 -0.88 1.32
-2.08 -0.86 1.33
-2.24 -0.88 1.30
-2.32 -0.88 1.28
-2.21 -0.85 1.31
-1.86 -0.77 1.37
-2.77 -0.93 1.20
-2.17 -0.81 1.31
-2.80 -0.91 1.19
-2.06 -0.77 1.34
-2.76 -0.88 1.20
-2.80 -0.87 1.19
-5.00 -1.22 0.78
-2.98 -0.88 1.16
-4.98 -1.18 0.78
-2.87 -0.83 1.18
-4.87 -1.13 0.80
-4.91 -1.12 0.79
-4.88 -1.10 0.80
-4.80 -1.07 0.82
-4.77 -1.05 0.82
-4.69 -1.02 0.84
-4.66 -1.00 0.84
-4.63 -0.98 0.85
-4.77 -0.98 0.82
-4.71 -0.95 0.83
-4.63 -0.93 0.85
-4.53 -0.90 0.87
-4.34 -0.85 0.91
-4.35 -0.84 0.90
-4.38 -0.83 0.90
-4.42 -0.82 0.89
-4.35 -0.79 0.90
-4.55 -0.80 0.87
-4.42 -0.77 0.89
-4.32 -0.74 0.91
-4.15 -0.70 0.94
-3.99 -0.67 0.97
-3.81 -0.64 1.01
-3.76 -0.62 1.02
-3.76 -0.60 1.02
-3.74 -0.59 1.02
-3.55 -0.56 1.05
-3.58 -0.54 1.05
-3.53 -0.53 1.06
-3.52 -0.51 1.06
-3.64 -0.51 1.04
-3.63 -0.49 1.04
-3.55 -0.47 1.06
-3.50 -0.45 1.06
-3.63 -0.45 1.04
-3.40 -0.42 1.08
-3.65 -0.42 1.04
-3.69 -0.41 1.03
-3.48 -0.38 1.07
-3.58 -0.37 1.05
-3.53 -0.36 1.06
-3.52 -0.34 1.06
-3.58 -0.33 1.05
-3.65 -0.32 1.04
-3.76 -0.31 1.02
-3.73 -0.29 1.02
-3.64 -0.28 1.04
-3.58 -0.26 1.05
-3.60 -0.24 1.04
-3.45 -0.22 1.07
-3.47 -0.21 1.07
-3.47 -0.20 1.07
-3.44 -0.18 1.07
-3.31 -0.16 1.10
-3.29 -0.15 1.10
-3.19 -0.13 1.12
-3.41 -0.13 1.08
-3.65 -0.12 1.03
-3.35 -0.10 1.09
-4.24 -0.10 0.92
-5.12 -0.09 0.76
-6.89 -0.09 0.42
-5.69 -0.06 0.65
-6.19 -0.04 0.55
-4.28 -0.02 0.91
-6.87 0.00 0.79
-7.07 0.04 0.75
-6.79 0.07 0.80
-6.87 0.10 0.78
-7.31 0.14 0.69
-7.77 0.19 0.60
-8.30 0.24 0.50
-8.00 0.27 0.56
-7.75 0.30 0.61
-8.14 0.36 0.53
-8.17 0.40 0.52
-6.98 0.38 0.76
-6.88 0.40 0.77
-6.82 0.43 0.78
-6.75 0.46 0.80
-5.22 0.39 1.10
-5.18 0.41 1.11
-5.12 0.43 1.12
-5.28 0.47 1.09
-7.54 0.70 0.63
-7.84 0.77 0.57
-7.19 0.74 0.70
-7.11 0.77 0.72
-7.12 0.81 0.71
-7.11 0.84 0.71
-7.05 0.87 0.72
-7.11 0.91 0.71
-7.27 0.97 0.68
-7.30 1.01 0.67
-7.30 1.04 0.67
-7.35 1.09 0.66
-8.02 1.22 0.52
-8.34 1.31 0.45
-6.04 1.02 0.91
-8.15 1.41 0.49
-7.99 1.42 0.51
-5.17 0.96 1.08
-5.29 1.04 1.06
-4.76 0.99 1.16
-7.54 1.58 0.59
-4.23 0.93 1.27
-5.24 1.17 1.06
-4.14 0.95 1.28
-3.97 0.94 1.32
-4.20 1.01 1.27
-4.72 1.18 1.16
-4.17 1.07 1.27
-4.73 1.23 1.15
-4.09 1.10 1.28
-4.67 1.27 1.16
-4.35 1.24 1.22
-4.08 1.19 1.28
-4.07 1.21 1.28
-4.12 1.24 1.27
-3.96 1.22 1.30
-3.97 1.25 1.29
-4.11 1.31 1.26
-1.88 -1.39 1.31
-1.66 -1.25 1.36
-2.01 -1.32 1.29
-3.65 -1.63 0.96
-3.87 -1.66 0.92
-4.05 -1.69 0.88
-1.79 -1.06 1.34
-3.72 -1.54 0.95
-3.66 -1.49 0.96
-2.10 -1.10 1.28
-4.03 -1.55 0.89
-2.52 -1.18 1.19
-3.77 -1.46 0.94
-4.56 -1.63 0.78
-4.08 -1.50 0.88
-3.88 -1.44 0.92
-3.96 -1.44 0.91
-2.14 -1.01 1.27
-2.10 -0.99 1.28
-1.96 -0.95 1.31
-2.27 -1.00 1.25
-4.49 -1.46 0.80
-2.23 -0.97 1.25
-2.30 -0.97 1.24
-4.08 -1.33 0.89
-4.27 -1.35 0.85
-4.65 -1.41 0.77
-2.33 -0.93 1.24
-4.68 -1.38 0.77
-4.62 -1.35 0.78
-4.79 -1.37 0.75
-4.68 -1.33 0.77
-4.68 -1.31 0.77
-3.02 -0.99 1.10
-4.61 -1.26 0.78
-4.63 -1.25 0.78
-4.67 -1.24 0.77
-4.79 -1.25 0.75
-4.88 -1.24 0.73
-4.83 -1.22 0.74
-5.12 -1.25 0.68
-5.11 -1.23 0.69
-5.10 -1.21 0.69
-4.76 -1.14 0.76
-4.94 -1.15 0.72
-4.87 -1.12 0.73
-4.83 -1.09 0.74
-4.78 -1.07 0.75
-4.68 -1.04 0.77
-4.71 -1.02 0.77
-4.83 -1.02 0.74
-4.93 -1.02 0.72
-5.06 -1.02 0.70
-4.85 -0.97 0.74
-4.72 -0.94 0.77
-4.69 -0.92 0.77
-4.51 -0.88 0.81
-4.39 -0.85 0.83
-4.52 -0.85 0.81
-4.47 -0.82 0.82
-4.35 -0.79 0.84
-4.38 -0.78 0.83
-4.58 -0.79 0.79
-3.98 -0.70 0.91
-3.92 -0.68 0.93
-3.97 -0.67 0.92
-3.89 -0.65 0.93
-3.79 -0.62 0.95
-3.73 -0.60 0.96
-3.74 -0.59 0.96
-3.83 -0.58 0.94
-3.77 -0.56 0.95
-3.70 -0.54 0.97
-3.77 -0.53 0.96
-3.76 -0.52 0.96
-3.73 -0.50 0.96
-3.73 -0.49 0.96
-3.60 -0.46 0.99
-3.65 -0.45 0.98
-3.60 -0.43 0.99
-3.56 -0.42 1.00
-3.53 -0.40 1.00
-3.59 -0.39 0.99
-3.69 -0.38 0.97
-3.67 -0.36 0.97
-3.76 -0.36 0.96
-3.71 -0.34 0.97
-3.76 -0.33 0.96
-3.65 -0.31 0.98
-3.78 -0.30 0.95
-3.73 -0.28 0.96
-3.79 -0.27 0.95
-6.12 -0.35 0.49
-4.35 -0.26 0.84
-9.01 -0.30 0.36
-7.00 -0.20 0.76
-7.10 -0.17 0.74
-7.03 -0.14 0.76
-6.78 -0.10 0.81
-6.86 -0.07 0.79
-6.94 -0.03 0.77
-5.72 -0.00 0.50
-4.75 0.01 0.70
-4.95 0.03 0.66
-4.17 0.05 0.82
-5.90 0.08 0.47
-4.57 0.08 0.74
-3.34 0.08 0.99
-3.13 0.09 1.03
-2.95 0.10 1.07
-3.18 0.12 1.02
-3.10 0.13 1.04
-3.06 0.14 1.05
-3.15 0.16 1.03
-3.06 0.17 1.04
-2.87 0.18 1.08
-3.38 0.21 0.98
-3.08 0.21 1.04
-3.43 0.24 0.97
-3.04 0.23 1.05
-3.14 0.25 1.03
-5.16 0.25 1.08
-5.05 0.26 1.10
-4.91 0.27 1.13
-4.99 0.28 1.11
-5.29 0.31 1.05
-5.19 0.32 1.07
-5.07 0.32 1.10
-4.84 0.32 1.14
-4.78 0.33 1.15
-4.90 0.35 1.13
-4.50 0.33 1.21
-4.46 0.34 1.22
-4.36 0.35 1.24
-4.38 0.36 1.24
-3.97 0.34 1.32
-4.24 0.37 1.26
-3.96 0.35 1.32
-4.12 0.38 1.29
-3.95 0.37 1.32
-4.13 0.40 1.28
-4.17 0.41 1.28
-4.10 0.42 1.29
-3.90 0.41 1.33
-7.69 0.81 0.54
-8.00 0.86 0.47
-7.20 0.79 0.64
-7.23 0.81 0.63
-7.32 0.84 0.61
-7.97 0.93 0.48
-7.20 0.86 0.64
-7.38 0.90 0.60
-7.34 0.92 0.61
-7.36 0.94 0.60
-7.24 0.94 0.63
-7.17 0.95 0.64
-7.35 0.99 0.60
-7.34 1.01 0.60
-7.28 1.02 0.62
-7.26 1.03 0.62
-7.35 1.06 0.60
-7.52 1.11 0.56
-7.82 1.17 0.50
-7.72 1.17 0.52
-8.24 1.27 0.41
-7.88 1.24 0.48
-3.70 0.64 1.36
-3.82 0.72 1.33
-7.51 1.43 0.55
-3.85 0.77 1.32
-4.02 0.81 1.29
-4.14 0.86 1.26
-3.95 0.83 1.30
-3.94 0.84 1.30
-3.91 0.84 1.31
-3.83 0.84 1.32
-3.83 0.85 1.32
-3.81 0.85 1.32
-3.77 0.86 1.33
-3.89 0.89 1.30
-3.65 0.85 1.36
-3.90 0.92 1.30
-3.82 0.91 1.32
-3.69 0.89 1.35
-3.86 0.94 1.31
-3.66 0.90 1.35
-3.79 0.94 1.32
-3.70 0.95 1.34
-3.84 1.00 1.31
-3.68 0.97 1.34
-3.63 0.96 1.35
-3.80 1.02 1.31
-3.62 0.98 1.35
-3.73 1.02 1.33
-3.71 1.05 1.33
-3.52 1.01 1.37
-4.06 1.16 1.25
-3.75 1.09 1.32
-3.44 1.01 1.39
-3.58 1.06 1.35
-3.70 1.10 1.33
-3.46 1.05 1.38
-3.45 1.05 1.38
-3.88 1.19 1.28
-3.62 1.12 1.34
-3.86 1.21 1.29
-3.74 1.18 1.31
-3.76 1.20 1.31
-3.60 1.16 1.34
-3.88 1.25 1.28
-3.73 1.22 1.31
-1.62 -1.16 1.34
-1.56 -1.13 1.35
-1.81 -1.20 1.30
-1.54 -1.11 1.36
-1.87 -1.18 1.29
-1.45 -1.05 1.38
-1.60 -1.03 1.35
-1.70 -1.04 1.33
-1.60 -1.01 1.35
-1.56 -0.99 1.36
-1.74 -1.02 1.32
-1.82 -1.01 1.30
-1.76 -0.99 1.32
-1.71 -0.95 1.33
-1.90 -0.99 1.29
-1.74 -0.94 1.32
-1.83 -0.95 1.30
-1.84 -0.94 1.30
-1.87 -0.94 1.30
-1.64 -0.86 1.34
-1.76 -0.86 1.32
-1.76 -0.82 1.32
-1.82 -0.83 1.31
-1.66 -0.79 1.34
-1.98 -0.84 1.28
-1.99 -0.83 1.27
-2.14 -0.85 1.24
-2.12 -0.83 1.25
-2.36 -0.86 1.20
-2.27 -0.84 1.22
-2.27 -0.83 1.22
-2.67 -0.89 1.13
-2.60 -0.86 1.15
-2.52 -0.83 1.16
-2.40 -0.80 1.19
-2.46 -0.80 1.18
-2.49 -0.79 1.17
-2.82 -0.84 1.10
-2.68 -0.80 1.13
-2.56 -0.77 1.16
-5.07 -1.14 0.64
-4.85 -1.09 0.68
-4.83 -1.07 0.69
-4.84 -1.06 0.68
-2.83 -0.75 1.10
-2.64 -0.71 1.14
-5.04 -1.03 0.64
-4.84 -0.99 0.69
-4.74 -0.96 0.71
-4.48 -0.91 0.76
-4.38 -0.88 0.78
-4.45 -0.87 0.77
-4.57 -0.87 0.74
-4.56 -0.85 0.74
-4.66 -0.84 0.73
-4.30 -0.78 0.80
-4.02 -0.74 0.86
-3.51 -0.66 0.96
-3.72 -0.67 0.92
-3.84 -0.67 0.89
-3.85 -0.66 0.89
-3.72 -0.63 0.92
-3.82 -0.63 0.90
-3.72 -0.60 0.92
-3.79 -0.59 0.91
-3.88 -0.59 0.89
-3.67 -0.55 0.93
-3.67 -0.54 0.93
-3.64 -0.52 0.94
-3.62 -0.50 0.94
-3.61 -0.49 0.94
-3.60 -0.47 0.94
-3.47 -0.45 0.97
-3.46 -0.44 0.97
-3.54 -0.43 0.96
-3.51 -0.41 0.96
-3.52 -0.40 0.96
-3.42 -0.38 0.98
-3.46 -0.36 0.97
-3.55 -0.36 0.95
-3.41 -0.33 0.98
-3.49 -0.32 0.97
-3.43 -0.31 0.98
-3.59 -0.30 0.95
-3.49 -0.28 0.97
-3.55 -0.27 0.95
-3.51 -0.26 0.96
-3.48 -0.24 0.97
-3.42 -0.22 0.98
-5.02 -0.27 0.65
-3.62 -0.20 0.94
-4.16 -0.21 0.83
-3.50 -0.17 0.96
-3.41 -0.15 0.98
-3.21 -0.14 1.02
-3.24 -0.12 1.01
-3.35 -0.11 0.99
-3.64 -0.10 0.93
-3.46 -0.09 0.97
-3.74 -0.07 0.91
-3.99 -0.06 0.86
-3.57 -0.04 0.95
-5.71 -0.04 0.51
-5.61 -0.02 0.53
-6.59 -0.00 0.72
-6.87 0.02 0.66
-6.89 0.03 0.65
-6.83 0.05 0.67
-6.80 0.07 0.67
-6.76 0.08 0.68
-6.37 0.09 0.76
-6.21 0.11 0.80
-6.23 0.12 0.79
-6.18 0.14 0.80
-6.44 0.16 0.75
-6.48 0.17 0.74
-5.98 0.18 0.85
-5.91 0.19 0.86
-5.92 0.20 0.86
-5.92 0.22 0.86
-5.75 0.23 0.89
-5.66 0.24 0.91
-5.67 0.25 0.91
-6.47 0.30 0.74
-8.22 0.40 0.36
-8.29 0.42 0.34
-8.27 0.44 0.35
-8.74 0.49 0.24
-8.77 0.51 0.24
-8.84 0.54 0.22
-7.96 0.50 0.41
-7.92 0.52 0.42
-5.12 0.35 1.03
-6.98 0.50 0.62
-4.87 0.36 1.08
-4.82 0.37 1.09
-5.00 0.40 1.05
-6.97 0.56 0.62
-5.14 0.43 1.02
-4.98 0.43 1.05
-7.00 0.62 0.61
-4.19 0.39 1.22
-4.15 0.39 1.23
-4.20 0.41 1.22
-4.13 0.41 1.23
-4.14 0.42 1.23
-4.11 0.43 1.24
-4.03 0.44 1.26
-4.13 0.46 1.23
-4.33 0.49 1.19
-7.76 0.88 0.44
-7.92 0.91 0.40
-7.27 0.86 0.55
-7.13 0.86 0.58
-7.27 0.89 0.54
-7.21 0.90 0.56
-7.11 0.91 0.58
-7.20 0.94 0.56
-7.21 0.96 0.55
-7.29 0.99 0.54
-7.35 1.01 0.52
-7.41 1.04 0.51
-7.20 1.03 0.55
-7.30 1.06 0.53
-7.26 1.08 0.54
-7.34 1.11 0.52
-7.45 1.14 0.49
-7.63 1.19 0.45
-7.38 1.17 0.51
-6.16 1.00 0.78
-7.76 1.26 0.42
-7.85 1.30 0.40
-7.62 1.28 0.45
-7.59 1.29 0.46
-6.01 1.05 0.80
-7.91 1.39 0.39
-5.32 0.96 0.95
-5.13 0.94 0.99
-5.07 0.94 1.01
-5.46 1.03 0.92
-7.57 1.43 0.45
-5.31 1.03 0.95
-5.19 1.02 0.98
-5.05 1.01 1.01
-5.17 1.04 0.98
-5.10 1.04 1.00
