# .PCD v0.7 - Point Cloud Data file format
VERSION 0.7
FIELDS x y z
SIZE 4 4 4
TYPE F F F
COUNT 1 1 1
WIDTH 2890
HEIGHT 1
VIEWPOINT 0 0 0 1 0 0 0
POINTS 2890
DATA ASCII
-12.82 -0.68 1.25
-12.46 -0.63 1.27
-7.31 0.03 1.53
-11.43 0.17 1.26
-11.02 0.20 1.28
-5.78 -1.13 1.64
-5.90 -1.13 1.63
-5.66 -1.08 1.65
-5.73 -1.06 1.64
-5.70 -1.04 1.64
-5.78 -1.03 1.64
-6.03 -1.04 1.62
-5.75 -0.99 1.64
-5.86 -0.98 1.63
-5.65 -0.94 1.65
-5.86 -0.94 1.63
-5.74 -0.91 1.64
-5.64 -0.88 1.65
-5.83 -0.88 1.64
-5.85 -0.86 1.63
-5.76 -0.83 1.64
-6.06 -0.84 1.62
-6.05 -0.82 1.62
-5.93 -0.79 1.63
-6.08 -0.79 1.62
-6.23 -0.78 1.61
-13.19 -1.07 1.15
-12.77 -0.97 1.17
-13.03 -0.95 1.16
-12.93 -0.91 1.16
-12.71 -0.86 1.18
-12.90 -0.83 1.17
-12.89 -0.79 1.17
-12.61 -0.74 1.18
-12.70 -0.71 1.18
-12.52 -0.67 1.19
-12.25 -0.62 1.21
-12.17 -0.55 1.21
-12.54 -0.53 1.19
-12.03 -0.48 1.22
-6.04 0.01 1.74
-7.61 0.03 1.63
-6.04 0.04 1.74
-7.13 0.06 1.66
-6.13 0.07 1.73
-7.62 0.10 1.62
-6.81 0.11 1.68
-7.88 0.14 1.60
-7.69 0.16 1.62
-7.74 0.18 1.61
-7.87 0.22 1.60
-7.87 0.29 1.60
-6.04 0.26 1.74
-8.03 0.40 1.59
-7.91 0.41 1.60
-7.62 0.42 1.62
-8.06 0.46 1.59
-7.80 0.46 1.61
-7.83 0.48 1.60
-7.75 0.50 1.61
-8.09 0.54 1.58
-7.54 0.52 1.62
-8.01 0.61 1.59
-7.81 0.62 1.60
-8.05 0.68 1.58
-8.28 0.73 1.57
-8.52 0.82 1.55
-8.78 0.91 1.53
-8.87 0.94 1.52
-7.18 0.82 1.64
-4.38 1.01 1.84
-1.60 -1.69 1.89
-2.02 -1.66 1.86
-2.16 -1.67 1.85
-2.19 -1.57 1.85
-2.31 -1.56 1.84
-2.95 -1.53 1.79
-2.84 -1.47 1.80
-3.71 -1.69 1.74
-3.75 -1.67 1.74
-2.82 -1.40 1.81
-2.91 -1.40 1.80
-3.21 -1.46 1.78
-3.34 -1.49 1.77
-4.03 -1.65 1.72
-3.91 -1.59 1.73
-3.65 -1.48 1.75
-2.90 -1.25 1.80
-3.93 -1.36 1.73
-3.00 -1.13 1.79
-2.83 -1.07 1.81
-6.02 -1.25 1.58
-5.82 -1.20 1.59
-6.00 -1.21 1.58
-5.67 -1.14 1.60
-5.67 -1.12 1.60
-5.64 -1.10 1.61
-5.54 -1.06 1.61
-5.53 -1.04 1.61
-5.63 -1.04 1.61
-5.62 -1.02 1.61
-5.47 -0.98 1.62
-5.54 -0.97 1.61
-5.45 -0.94 1.62
-5.62 -0.94 1.61
-5.62 -0.92 1.61
-5.66 -0.90 1.60
-5.72 -0.89 1.60
-5.70 -0.87 1.60
-5.73 -0.85 1.60
-5.79 -0.84 1.60
-5.83 -0.82 1.59
-5.70 -0.79 1.60
-6.14 -0.81 1.57
-4.57 -0.65 1.68
-5.01 -0.67 1.65
-4.98 -0.65 1.65
-4.46 -0.59 1.69
-4.50 -0.58 1.69
-4.68 -0.57 1.67
-13.31 -1.23 1.06
-4.94 -0.56 1.66
-5.02 -0.55 1.65
-5.13 -0.54 1.64
-5.26 -0.53 1.63
-5.99 -0.56 1.58
-6.05 -0.54 1.58
-12.73 -0.93 1.10
-6.11 -0.51 1.57
-5.83 -0.47 1.59
-5.70 -0.44 1.60
-5.24 -0.40 1.63
-5.53 -0.40 1.61
-5.51 -0.38 1.61
-5.55 -0.36 1.61
-5.56 -0.34 1.61
-12.31 -0.59 1.13
-11.96 -0.54 1.15
-6.11 -0.10 1.74
-5.94 -0.08 1.75
-5.98 -0.07 1.74
-5.93 -0.05 1.75
-5.94 -0.04 1.75
-5.84 -0.02 1.75
-5.90 -0.01 1.75
-11.98 0.00 1.08
-11.58 0.04 1.11
-11.51 0.10 1.11
-11.10 0.13 1.14
-11.09 0.17 1.14
-11.14 0.23 1.14
-0.94 -1.65 1.91
-1.36 -1.54 1.89
-1.61 -1.42 1.87
-6.08 -1.27 1.53
-5.99 -1.24 1.54
-5.68 -1.16 1.56
-5.63 -1.13 1.57
-5.47 -1.09 1.58
-5.71 -1.10 1.56
-5.74 -1.09 1.56
-5.72 -1.06 1.56
-5.63 -1.03 1.57
-5.38 -0.98 1.59
-5.44 -0.97 1.58
-5.46 -0.95 1.58
-5.52 -0.94 1.58
-5.42 -0.91 1.58
-5.69 -0.92 1.56
-5.53 -0.89 1.58
-5.60 -0.88 1.57
-5.65 -0.86 1.57
-5.69 -0.85 1.56
-13.33 -1.49 0.98
-13.23 -1.33 0.99
-13.54 -1.32 0.96
-13.22 -1.26 0.99
-12.69 -0.96 1.03
-12.73 -0.93 1.02
-12.71 -0.89 1.02
-12.77 -0.86 1.02
-12.68 -0.82 1.03
-11.98 -0.61 1.08
-12.16 -0.58 1.07
-12.27 -0.55 1.06
-12.10 -0.51 1.07
-12.40 -0.45 1.05
-11.81 -0.27 1.09
-11.97 -0.03 1.08
-6.05 0.01 1.67
-6.08 0.02 1.67
-6.07 0.04 1.67
-6.13 0.05 1.66
-5.89 0.06 1.68
-6.84 0.09 1.60
-6.39 0.11 1.64
-11.99 0.24 1.18
-12.23 0.28 1.16
-7.50 0.19 1.55
-7.80 0.22 1.52
-7.46 0.26 1.55
-8.17 0.31 1.49
-7.21 0.29 1.57
-7.12 0.30 1.58
-6.38 0.30 1.64
-8.18 0.43 1.49
-8.84 0.52 1.43
-8.50 0.52 1.46
-7.40 0.48 1.55
-7.86 0.52 1.51
-7.74 0.54 1.52
-7.95 0.57 1.51
-8.46 0.65 1.46
-8.86 0.70 1.43
-8.98 0.73 1.42
-9.05 0.78 1.41
-9.35 0.83 1.39
-9.08 0.83 1.41
-8.84 0.83 1.43
-8.69 0.83 1.44
-8.89 0.88 1.42
-8.68 0.88 1.44
-8.75 0.91 1.43
-6.87 0.73 1.59
-8.60 0.93 1.44
-7.06 0.89 1.57
-8.72 1.12 1.43
-8.56 1.16 1.44
-8.57 1.18 1.44
-8.64 1.22 1.44
-4.60 1.23 1.76
-2.04 -1.66 1.81
-2.27 -1.66 1.79
-2.26 -1.64 1.79
-2.39 -1.66 1.78
-2.13 -1.56 1.80
-2.29 -1.59 1.79
-2.12 -1.51 1.80
-2.55 -1.62 1.77
-3.01 -1.56 1.73
-3.05 -1.55 1.73
-2.95 -1.51 1.73
-2.99 -1.50 1.73
-3.52 -1.62 1.69
-3.54 -1.61 1.69
-3.29 -1.52 1.71
-3.45 -1.53 1.69
-3.31 -1.48 1.71
-3.06 -1.35 1.73
-2.33 -1.14 1.79
-3.07 -1.27 1.73
-2.34 -1.08 1.79
-3.21 -1.22 1.72
-2.57 -1.04 1.77
-6.04 -1.30 1.48
-5.55 -1.16 1.53
-5.75 -1.17 1.51
-5.82 -1.16 1.50
-5.67 -1.12 1.52
-5.51 -1.08 1.53
-5.65 -1.08 1.52
-5.50 -1.04 1.53
-5.66 -1.04 1.52
-5.55 -1.01 1.53
-5.62 -1.00 1.52
-5.46 -0.96 1.53
-5.42 -0.93 1.54
-5.33 -0.91 1.54
-5.37 -0.89 1.54
-5.35 -0.87 1.54
-5.36 -0.85 1.54
-5.31 -0.83 1.54
-3.88 -0.66 1.66
-5.54 -0.82 1.53
-4.87 -0.73 1.58
-4.87 -0.71 1.58
-4.62 -0.67 1.60
-4.29 -0.62 1.63
-4.51 -0.63 1.61
-4.47 -0.61 1.61
-4.86 -0.62 1.58
-4.67 -0.59 1.60
-4.79 -0.58 1.59
-4.81 -0.57 1.59
-4.88 -0.56 1.58
-4.69 -0.52 1.60
-5.24 -0.55 1.55
-4.97 -0.51 1.57
-4.89 -0.49 1.58
-4.69 -0.46 1.60
-4.02 -0.40 1.65
-4.31 -0.40 1.63
-5.34 -0.44 1.54
-13.31 -0.72 1.08
-6.65 -0.35 1.62
-6.33 -0.32 1.65
-12.98 -0.61 1.10
-13.21 -0.59 1.08
-13.13 -0.52 1.09
-13.05 -0.49 1.10
-6.38 -0.13 1.65
-6.07 -0.11 1.67
-5.88 -0.10 1.69
-5.81 -0.07 1.69
-12.36 -0.11 1.15
-5.81 -0.04 1.69
-5.91 -0.02 1.68
-5.86 -0.01 1.69
-11.66 0.04 0.94
-11.50 0.18 1.16
-11.49 0.20 1.16
-11.76 0.24 1.13
-8.55 0.42 1.41
-8.22 0.49 1.44
-8.18 0.52 1.44
-8.14 0.56 1.45
-9.10 0.85 1.36
-8.92 0.85 1.37
-8.86 0.87 1.38
-8.81 0.91 1.38
-8.74 0.92 1.39
-8.66 0.94 1.39
-8.58 0.99 1.40
-8.68 1.11 1.39
-8.60 1.12 1.39
-8.64 1.17 1.39
-8.58 1.18 1.39
-8.56 1.22 1.39
-3.92 0.80 1.81
-3.59 1.13 1.82
-1.48 -1.65 1.83
-1.69 -1.60 1.81
-1.71 -1.27 1.82
-2.25 -0.75 1.77
-6.21 -1.34 1.43
-5.73 -1.22 1.47
-5.80 -1.22 1.46
-5.81 -1.20 1.46
-5.86 -1.18 1.46
-6.05 -1.19 1.44
-5.90 -1.15 1.45
-5.64 -1.09 1.48
-5.66 -1.08 1.47
-5.72 -1.07 1.47
-5.78 -1.05 1.46
-5.48 -1.00 1.49
-5.34 -0.81 1.50
-5.51 -0.81 1.49
-13.20 -1.26 0.81
-12.90 -1.09 0.84
-5.38 -0.54 1.50
-5.20 -0.51 1.51
-5.15 -0.49 1.52
-12.71 -0.93 0.85
-12.79 -0.90 0.85
-4.38 -0.39 1.58
-4.71 -0.39 1.56
-12.61 -0.78 0.86
-12.27 -0.73 0.89
-5.36 -0.37 1.50
-5.15 -0.34 1.52
-12.92 -0.54 0.84
-11.95 -0.13 0.92
-5.79 0.00 1.62
-8.18 0.03 1.40
-5.62 0.03 1.64
-11.73 0.09 1.07
-11.81 0.12 1.06
-11.94 0.15 1.05
-12.37 0.22 1.00
-6.21 0.13 1.58
-12.22 0.27 1.02
-7.68 0.19 1.44
-7.92 0.24 1.42
-7.86 0.27 1.43
-6.87 0.26 1.52
-8.27 0.33 1.39
-8.38 0.35 1.38
-15.56 0.76 0.70
-8.04 0.46 1.41
-8.34 0.49 1.38
-8.56 0.53 1.36
-8.39 0.54 1.37
-8.30 0.55 1.38
-8.35 0.58 1.38
-8.92 0.64 1.32
-8.82 0.65 1.33
-8.82 0.67 1.33
-8.92 0.70 1.32
-8.58 0.70 1.35
-8.86 0.74 1.32
-8.59 0.74 1.35
-8.72 0.77 1.34
-8.70 0.79 1.34
-8.57 0.80 1.35
-8.62 0.83 1.35
-8.33 0.82 1.37
-8.35 0.84 1.37
-8.22 0.85 1.38
-8.13 0.86 1.39
-8.31 0.90 1.37
-8.31 0.92 1.37
-8.49 0.96 1.35
-8.36 0.97 1.37
-8.46 1.00 1.36
-8.65 1.04 1.34
-8.36 1.03 1.36
-8.43 1.06 1.36
-7.96 1.02 1.40
-8.28 1.08 1.37
-7.97 1.06 1.40
-8.15 1.10 1.38
-8.01 1.11 1.39
-7.76 1.09 1.42
-7.82 1.12 1.41
-8.53 1.30 1.34
-2.06 -1.49 1.75
-2.69 -1.59 1.70
-3.13 -1.62 1.65
-3.28 -1.65 1.64
-3.17 -1.61 1.65
-3.31 -1.50 1.64
-2.71 -1.12 1.70
-2.87 -1.14 1.68
-2.80 -1.11 1.69
-3.00 -1.09 1.67
-3.10 -1.07 1.66
-2.53 -0.95 1.72
-5.72 -1.20 1.42
-5.83 -1.20 1.41
-6.00 -1.21 1.39
-5.96 -1.18 1.40
-5.96 -1.16 1.40
-6.19 -1.17 1.37
-5.75 -1.09 1.42
-5.58 -1.05 1.43
-5.28 -0.99 1.46
-5.39 -0.99 1.45
-5.76 -1.01 1.42
-5.55 -0.97 1.43
-5.63 -0.96 1.43
-5.63 -0.94 1.43
-5.72 -0.93 1.42
-5.18 -0.85 1.47
-5.42 -0.86 1.45
-5.37 -0.83 1.45
-5.40 -0.82 1.45
-5.30 -0.79 1.46
-4.99 -0.74 1.49
-4.99 -0.72 1.49
-5.06 -0.71 1.48
-4.99 -0.69 1.49
-4.96 -0.67 1.49
-5.08 -0.66 1.48
-5.26 -0.66 1.46
-5.10 -0.63 1.48
-5.18 -0.61 1.47
-5.38 -0.61 1.45
-5.07 -0.55 1.48
-5.09 -0.54 1.48
-5.69 -0.56 1.42
-5.22 -0.51 1.46
-5.37 -0.50 1.45
-5.20 -0.47 1.47
-5.06 -0.44 1.48
-5.09 -0.41 1.48
-5.26 -0.40 1.46
-4.61 -0.35 1.52
-4.99 -0.35 1.49
-4.27 -0.30 1.55
-4.44 -0.29 1.54
-4.46 -0.28 1.53
-4.56 -0.26 1.53
-4.90 -0.26 1.49
-4.78 -0.24 1.50
-4.92 -0.23 1.49
-4.04 -0.14 1.57
-4.01 -0.12 1.58
-4.97 -0.12 1.49
-12.08 -0.11 1.04
-7.95 -0.05 1.42
-7.82 -0.03 1.43
-8.07 -0.01 1.41
-7.06 0.00 1.23
-7.09 0.05 1.23
-7.16 0.07 1.22
-7.18 0.09 1.22
-7.01 0.11 1.24
-7.19 0.14 1.22
-6.62 0.17 1.27
-6.75 0.22 1.26
-5.81 0.16 1.59
-8.60 0.38 1.30
-8.48 0.46 1.31
-8.49 0.50 1.31
-8.63 0.55 1.30
-8.55 0.57 1.31
-8.82 0.61 1.28
-8.77 0.62 1.28
-8.73 0.64 1.29
-8.83 0.67 1.28
-8.71 0.68 1.29
-8.52 0.69 1.31
-8.38 0.70 1.32
-8.33 0.71 1.32
-8.38 0.74 1.32
-8.36 0.76 1.32
-8.50 0.79 1.31
-8.12 0.78 1.34
-8.27 0.81 1.33
-8.29 0.83 1.33
-8.31 0.86 1.32
-8.22 0.87 1.33
-8.21 0.89 1.33
-8.26 0.91 1.33
-8.55 0.96 1.30
-8.64 1.00 1.29
-8.37 0.99 1.31
-8.50 1.02 1.30
-8.70 1.07 1.28
-8.58 1.07 1.29
-7.92 1.01 1.36
-8.32 1.08 1.32
-8.35 1.11 1.31
-8.24 1.11 1.32
-8.26 1.14 1.32
-8.24 1.16 1.32
-7.77 1.11 1.37
-7.88 1.15 1.36
-7.80 1.15 1.37
-8.13 1.22 1.33
-7.87 1.24 1.36
-4.17 0.79 1.73
-4.33 0.94 1.71
-4.07 1.15 1.73
-3.77 1.21 1.75
-1.85 -1.67 1.74
-1.86 -1.65 1.74
-1.58 -1.53 1.77
-1.86 -1.59 1.74
-2.23 -1.67 1.71
-2.03 -1.59 1.73
-2.11 -1.60 1.72
-1.93 -1.48 1.74
-1.65 -1.38 1.77
-0.88 -1.05 1.85
-1.99 -1.34 1.74
-1.51 -1.17 1.79
-2.99 -1.61 1.64
-2.40 -1.39 1.70
-2.37 -1.36 1.70
-2.82 -1.47 1.65
-2.94 -1.50 1.64
-2.04 -1.22 1.73
-3.06 -1.49 1.63
-1.90 -1.14 1.75
-2.73 -1.31 1.67
-2.54 -0.96 1.69
-2.63 -0.96 1.68
-1.92 -0.81 1.75
-1.83 -0.77 1.76
-2.62 -0.88 1.68
-2.63 -0.87 1.68
-4.53 -1.13 1.49
-5.79 -1.25 1.36
-2.23 -0.69 1.72
-6.04 -1.23 1.34
-3.00 -0.77 1.64
-5.96 -1.18 1.35
-6.15 -1.18 1.33
-6.13 -1.16 1.33
-6.05 -1.11 1.34
-6.01 -1.08 1.34
-5.59 -1.01 1.38
-5.82 -1.02 1.36
-5.84 -1.00 1.36
-5.71 -0.97 1.37
-5.54 -0.93 1.39
-5.38 -0.89 1.40
-5.26 -0.84 1.42
-5.24 -0.82 1.42
-5.20 -0.80 1.42
-5.22 -0.78 1.42
-5.18 -0.76 1.42
-5.22 -0.74 1.42
-5.25 -0.73 1.42
-5.37 -0.70 1.41
-5.73 -0.72 1.37
-5.73 -0.70 1.37
-5.58 -0.66 1.38
-5.78 -0.66 1.36
-5.48 -0.62 1.39
-5.50 -0.60 1.39
-5.31 -0.55 1.41
-5.22 -0.53 1.42
-5.06 -0.50 1.44
-5.41 -0.50 1.40
-4.80 -0.45 1.46
-5.07 -0.44 1.43
-4.88 -0.42 1.45
-4.92 -0.38 1.45
-4.77 -0.36 1.46
-4.67 -0.34 1.47
-4.56 -0.31 1.48
-4.59 -0.30 1.48
-4.92 -0.30 1.45
-4.92 -0.28 1.45
-7.69 -0.33 1.17
-4.99 -0.23 1.44
-4.18 -0.19 1.52
-4.22 -0.17 1.52
-3.85 -0.15 1.55
-4.86 -0.15 1.45
-5.14 -0.14 1.43
-5.24 -0.11 1.42
-5.16 -0.09 1.42
-7.05 -0.09 1.23
-6.92 -0.06 1.25
-6.96 -0.04 1.24
-7.05 -0.02 1.23
-7.55 0.01 1.36
-5.68 0.02 1.56
-7.75 0.04 1.34
-5.62 0.05 1.57
-8.02 0.08 1.31
-7.88 0.10 1.33
-8.09 0.14 1.30
-6.07 0.12 1.52
-7.92 0.18 1.32
-5.97 0.15 1.53
-5.77 0.16 1.55
-7.77 0.23 1.34
-7.82 0.25 1.33
-7.85 0.29 1.33
-8.22 0.33 1.29
-8.20 0.34 1.29
-8.06 0.36 1.30
-8.05 0.38 1.30
-7.74 0.38 1.34
-8.14 0.42 1.29
-8.08 0.46 1.30
-8.04 0.48 1.30
-8.13 0.50 1.29
-8.17 0.52 1.29
-8.40 0.56 1.26
-8.38 0.58 1.26
-8.55 0.61 1.25
-8.39 0.64 1.26
-8.30 0.65 1.27
-8.08 0.66 1.29
-7.98 0.67 1.31
-8.04 0.69 1.30
-8.12 0.72 1.29
-8.15 0.74 1.28
-8.24 0.79 1.28
-8.54 0.84 1.24
-8.19 0.83 1.28
-8.08 0.83 1.29
-8.22 0.87 1.27
-7.84 0.85 1.32
-7.87 0.87 1.31
-8.22 0.95 1.27
-8.55 1.01 1.24
-8.59 1.04 1.23
-8.58 1.06 1.23
-8.56 1.07 1.23
-8.69 1.11 1.22
-8.60 1.12 1.23
-8.64 1.17 1.22
-8.65 1.19 1.22
-8.60 1.21 1.23
-8.44 1.21 1.24
-7.60 1.11 1.33
-7.76 1.15 1.32
-7.59 1.15 1.33
-7.77 1.21 1.31
-7.77 1.23 1.31
-7.59 1.22 1.33
-7.36 1.20 1.36
-7.69 1.30 1.32
-7.69 1.32 1.32
-7.17 1.43 1.37
-4.21 0.90 1.69
-4.55 1.02 1.65
-4.04 1.02 1.71
-4.15 1.08 1.69
-3.92 1.04 1.72
-5.61 1.50 1.53
-4.26 1.17 1.68
-4.31 1.36 1.66
-3.83 1.29 1.71
-2.24 -1.60 1.68
-2.46 -1.65 1.65
-2.45 -1.56 1.65
-2.56 -1.57 1.64
-2.73 -1.61 1.62
-2.57 -1.55 1.64
-3.11 -1.68 1.58
-3.08 -1.65 1.59
-2.83 -1.54 1.62
-3.11 -1.59 1.58
-3.35 -1.63 1.56
-2.93 -1.50 1.61
-3.14 -1.54 1.58
-3.15 -1.53 1.58
-3.62 -1.65 1.53
-3.43 -1.55 1.55
-2.56 -1.22 1.65
-2.64 -1.23 1.64
-2.96 -1.20 1.61
-2.75 -1.12 1.63
-2.66 -1.07 1.64
-2.65 -1.06 1.64
-2.80 -1.08 1.62
-2.86 -1.08 1.62
-2.75 -1.04 1.63
-2.97 -1.07 1.61
-2.63 -0.99 1.64
-2.85 -1.02 1.62
-2.88 -1.02 1.62
-2.81 -0.97 1.62
-3.52 -0.94 1.55
-5.64 -1.23 1.32
-5.78 -1.24 1.31
-3.56 -0.89 1.54
-6.15 -1.25 1.27
-6.11 -1.22 1.27
-5.80 -1.16 1.31
-5.98 -1.16 1.29
-6.15 -1.17 1.27
-5.89 -1.11 1.30
-5.84 -1.08 1.30
-6.01 -1.09 1.28
-5.77 -1.04 1.31
-5.85 -1.03 1.30
-5.65 -0.98 1.32
-5.71 -0.97 1.32
-5.47 -0.92 1.34
-5.01 -0.85 1.39
-5.37 -0.87 1.35
-5.16 -0.83 1.38
-5.05 -0.80 1.39
-5.07 -0.79 1.39
-5.09 -0.77 1.38
-5.01 -0.74 1.39
-4.87 -0.71 1.41
-5.00 -0.71 1.39
-4.95 -0.69 1.40
-5.38 -0.71 1.35
-5.19 -0.67 1.37
-5.31 -0.66 1.36
-5.22 -0.64 1.37
-5.36 -0.63 1.35
-5.72 -0.64 1.32
-5.45 -0.60 1.34
-4.97 -0.55 1.39
-5.33 -0.55 1.36
-5.17 -0.52 1.37
-5.04 -0.50 1.39
-4.82 -0.47 1.41
-4.83 -0.45 1.41
-4.72 -0.43 1.42
-4.57 -0.40 1.44
-4.79 -0.40 1.41
-4.57 -0.37 1.44
-4.58 -0.35 1.44
-4.58 -0.33 1.44
-4.57 -0.32 1.44
-4.48 -0.30 1.45
-4.65 -0.29 1.43
-4.66 -0.27 1.43
-12.71 -0.45 0.82
-5.79 -0.15 1.55
-12.61 -0.26 0.83
-8.52 -0.16 1.26
-5.55 -0.09 1.58
-7.66 -0.11 1.35
-5.56 -0.06 1.58
-5.31 -0.05 1.60
-7.80 -0.05 1.34
-5.72 -0.01 1.56
-7.27 0.00 1.09
-7.37 0.02 1.07
-7.39 0.05 1.07
-7.17 0.07 1.10
-6.77 0.09 1.14
-11.25 0.16 0.64
-11.30 0.20 0.63
-7.06 0.20 1.11
-12.85 0.37 0.45
-7.37 0.42 1.07
-8.26 0.41 1.23
-8.33 0.49 1.22
-8.38 0.51 1.21
-8.37 0.53 1.21
-8.24 0.54 1.23
-8.14 0.56 1.24
-8.25 0.59 1.23
-8.36 0.61 1.21
-8.19 0.62 1.23
-8.21 0.64 1.23
-8.31 0.67 1.22
-8.74 0.75 1.17
-8.33 0.75 1.21
-8.34 0.78 1.21
-8.87 0.85 1.15
-9.37 0.92 1.09
-8.43 0.85 1.20
-8.29 0.85 1.22
-8.42 0.89 1.20
-8.38 0.90 1.20
-8.19 0.90 1.22
-8.21 0.93 1.22
-8.41 0.97 1.20
-8.29 0.98 1.21
-8.24 0.99 1.22
-8.74 1.27 1.15
-7.81 1.23 1.26
-3.72 1.03 1.71
-1.12 -1.25 1.78
-1.56 -1.17 1.73
-0.99 -0.99 1.80
-1.62 -1.13 1.72
-1.22 -1.01 1.77
-1.49 -1.08 1.74
-1.15 -0.89 1.78
-1.32 -0.68 1.76
-1.58 -0.68 1.73
-6.25 -1.20 1.20
-6.30 -1.18 1.20
-6.17 -1.14 1.21
-5.98 -1.10 1.23
-5.84 -1.06 1.25
-6.27 -1.07 1.20
-5.55 -0.91 1.28
-13.76 -1.50 0.36
-13.21 -1.34 0.42
-13.28 -1.27 0.41
-13.17 -1.22 0.42
-13.26 -1.19 0.42
-13.10 -1.14 0.43
-13.37 -1.12 0.40
-12.84 -1.05 0.46
-13.04 -1.03 0.44
-13.12 -0.77 0.43
-6.77 -0.41 1.15
-7.06 -0.25 1.11
-7.22 -0.21 1.09
-6.77 -0.17 1.14
-6.88 -0.15 1.13
-11.91 0.01 0.74
-12.22 0.04 0.70
-12.32 0.07 0.69
-12.15 0.09 0.71
-12.26 0.13 0.69
-12.06 0.15 0.72
-12.29 0.18 0.69
-7.75 0.14 1.23
-7.71 0.15 1.24
-7.70 0.17 1.24
-7.97 0.28 1.20
-7.96 0.37 1.20
-8.04 0.40 1.19
-8.08 0.42 1.19
-8.28 0.45 1.16
-8.19 0.46 1.17
-8.08 0.48 1.19
-13.01 0.79 0.59
-8.35 0.53 1.15
-8.00 0.53 1.19
-8.10 0.56 1.18
-8.05 0.57 1.19
-8.54 0.63 1.13
-8.05 0.61 1.19
-7.94 0.62 1.20
-8.24 0.67 1.16
-8.19 0.68 1.17
-8.38 0.72 1.15
-8.36 0.74 1.15
-8.57 0.78 1.12
-8.14 0.80 1.17
-8.77 0.88 1.10
-8.61 0.89 1.11
-8.48 0.90 1.13
-8.48 0.92 1.13
-8.34 0.92 1.14
-8.36 0.95 1.14
-8.29 0.96 1.15
-8.45 1.00 1.13
-8.00 0.97 1.18
-8.38 1.03 1.14
-8.88 1.11 1.08
-8.57 1.10 1.11
-8.92 1.16 1.07
-9.04 1.20 1.05
-9.24 1.27 1.03
-7.68 1.08 1.22
-9.31 1.33 1.02
-9.07 1.32 1.05
-9.06 1.34 1.05
-9.17 1.38 1.03
-9.12 1.39 1.04
-9.15 1.42 1.04
-9.09 1.43 1.04
-9.18 1.47 1.03
-9.15 1.49 1.03
-7.56 1.31 1.23
-3.62 0.91 1.70
-3.67 0.97 1.69
-3.56 1.08 1.70
-1.25 -1.67 1.72
-1.30 -1.47 1.72
-1.47 -1.16 1.71
-1.63 -1.16 1.69
-1.59 -1.10 1.69
-1.19 -0.78 1.75
-6.04 -1.13 1.17
-6.15 -1.13 1.15
-6.08 -1.08 1.16
-5.68 -0.95 1.21
-4.50 -0.64 1.35
-4.29 -0.61 1.38
-13.79 -1.43 0.24
-13.94 -1.40 0.22
-4.46 -0.56 1.36
-4.53 -0.55 1.35
-4.28 -0.50 1.38
-13.34 -1.13 0.29
-4.33 -0.47 1.37
-12.51 -0.96 0.39
-4.19 -0.40 1.39
-4.19 -0.38 1.39
-13.47 -0.74 0.56
-13.17 -0.69 0.59
-12.34 -0.20 0.69
-11.63 -0.11 0.77
-11.74 -0.08 0.76
-11.93 -0.05 0.73
-11.72 -0.02 0.76
-7.70 0.06 1.19
-7.65 0.08 1.19
-8.48 0.11 1.09
-7.85 0.14 1.17
-7.88 0.16 1.16
-8.00 0.18 1.15
-7.91 0.20 1.16
-4.50 0.12 1.59
-7.73 0.23 1.18
-5.40 0.17 1.48
-7.80 0.29 1.17
-7.81 0.31 1.17
-8.04 0.34 1.14
-8.09 0.36 1.13
-7.94 0.37 1.15
-7.99 0.39 1.15
-8.06 0.42 1.14
-7.96 0.45 1.15
-8.04 0.47 1.14
-7.99 0.49 1.14
-7.85 0.50 1.16
-7.93 0.52 1.15
-7.85 0.54 1.16
-7.83 0.56 1.16
-7.69 0.58 1.18
-8.17 0.64 1.12
-7.83 0.63 1.16
-8.26 0.69 1.11
-8.39 0.72 1.09
-8.56 0.75 1.06
-9.35 0.84 0.96
-8.67 0.83 1.05
-8.45 0.83 1.08
-8.62 0.87 1.05
-8.31 0.86 1.09
-8.57 0.90 1.06
-8.40 0.91 1.08
-8.40 0.93 1.08
-8.30 0.96 1.09
-8.58 1.01 1.06
-8.62 1.03 1.05
-8.43 1.03 1.07
-8.49 1.06 1.07
-8.13 1.04 1.11
-8.27 1.08 1.09
-7.89 1.07 1.14
-7.76 1.07 1.16
-9.55 1.33 0.93
-8.87 1.26 1.01
-8.88 1.29 1.01
-8.02 1.19 1.12
-8.74 1.31 1.03
-8.98 1.39 0.99
-9.08 1.43 0.98
-8.96 1.43 1.00
-8.95 1.45 1.00
-8.96 1.48 0.99
-8.98 1.50 0.99
-8.64 1.47 1.03
-8.66 1.52 1.03
-8.05 1.43 1.11
-7.85 1.42 1.13
-7.84 1.43 1.14
-3.76 0.81 1.66
-4.19 0.95 1.60
-4.01 0.94 1.62
-3.93 0.94 1.64
-3.88 0.96 1.64
-3.92 0.99 1.63
-3.66 1.00 1.66
-3.85 1.07 1.64
-4.03 1.14 1.61
-3.63 1.06 1.66
-3.48 1.17 1.68
-3.80 1.29 1.63
-3.46 1.23 1.68
-1.39 -1.54 1.68
-1.46 -1.54 1.67
-1.35 -1.49 1.69
-1.92 -1.58 1.62
-2.06 -1.62 1.60
-1.41 -1.20 1.69
-1.52 -1.17 1.68
-2.03 -1.26 1.61
-2.09 -1.27 1.60
-1.81 -1.18 1.64
-2.06 -1.24 1.61
-1.92 -1.14 1.63
-3.31 -1.05 1.45
-1.81 -0.70 1.65
-5.78 -1.18 1.14
-5.83 -1.16 1.14
-5.67 -1.10 1.16
-5.76 -1.09 1.15
-5.67 -1.06 1.16
-5.74 -1.05 1.15
-5.80 -1.04 1.14
-5.44 -0.97 1.19
-5.64 -0.98 1.16
-5.71 -0.97 1.15
-5.57 -0.93 1.17
-5.67 -0.93 1.16
-5.56 -0.89 1.17
-5.67 -0.89 1.16
-5.83 -0.87 1.14
-4.20 -0.68 1.34
-6.01 -0.84 1.11
-4.64 -0.69 1.29
-4.12 -0.62 1.35
-4.10 -0.61 1.36
-4.76 -0.65 1.27
-4.58 -0.62 1.30
-4.62 -0.60 1.29
-4.21 -0.55 1.34
-4.53 -0.56 1.30
-4.20 -0.52 1.34
-4.51 -0.53 1.30
-4.50 -0.51 1.31
-4.50 -0.49 1.30
-4.34 -0.47 1.33
-4.25 -0.45 1.34
-4.17 -0.42 1.35
-4.07 -0.40 1.36
-4.07 -0.39 1.36
-4.11 -0.37 1.35
-4.11 -0.36 1.35
-4.05 -0.34 1.36
-4.07 -0.33 1.36
-3.99 -0.31 1.37
-3.99 -0.29 1.37
-3.93 -0.27 1.38
-4.20 -0.27 1.34
-4.10 -0.25 1.35
-6.00 -0.30 1.11
-4.26 -0.22 1.33
-4.28 -0.21 1.33
-6.55 -0.26 1.04
-6.63 -0.24 1.03
-4.14 -0.16 1.35
-6.55 -0.19 1.04
-6.73 -0.17 1.02
-4.91 -0.12 1.25
-3.67 -0.09 1.41
-6.41 -0.10 1.06
-6.47 -0.06 1.05
-6.53 -0.04 1.04
-6.51 -0.02 1.05
-7.47 0.00 1.16
-7.68 0.02 1.13
-7.72 0.04 1.13
-7.60 0.06 1.14
-7.82 0.08 1.11
-5.38 0.07 1.44
-7.90 0.12 1.10
-5.66 0.10 1.40
-5.49 0.11 1.43
-5.64 0.13 1.41
-5.71 0.14 1.40
-7.75 0.21 1.12
-7.73 0.23 1.12
-8.60 0.28 1.01
-8.30 0.29 1.05
-8.18 0.30 1.06
-4.57 0.18 1.55
-8.06 0.34 1.08
-8.40 0.37 1.03
-7.90 0.37 1.10
-7.78 0.38 1.11
-7.98 0.41 1.09
-8.06 0.43 1.08
-8.06 0.45 1.07
-8.01 0.47 1.08
-7.92 0.49 1.09
-7.63 0.49 1.13
-7.78 0.51 1.11
-7.81 0.54 1.11
-7.81 0.56 1.11
-7.86 0.58 1.10
-4.29 0.33 1.58
-7.90 0.62 1.09
-7.77 0.63 1.11
-7.82 0.65 1.10
-7.87 0.68 1.09
-7.85 0.69 1.10
-8.09 0.73 1.06
-8.54 0.79 1.00
-8.46 0.81 1.01
-8.58 0.84 1.00
-8.38 0.84 1.02
-8.06 0.83 1.07
-8.16 0.86 1.05
-8.95 0.96 0.94
-8.42 0.93 1.01
-8.34 0.94 1.02
-8.62 0.99 0.99
-7.84 0.92 1.09
-8.90 1.07 0.95
-9.12 1.12 0.92
-7.82 0.98 1.09
-7.74 0.99 1.10
-7.69 1.00 1.11
-8.05 1.07 1.06
-8.01 1.08 1.06
-7.97 1.10 1.07
-8.14 1.14 1.05
-9.07 1.29 0.92
-9.12 1.32 0.91
-8.67 1.28 0.97
-8.56 1.28 0.99
-8.85 1.35 0.95
-8.66 1.34 0.97
-7.94 1.25 1.07
-9.20 1.47 0.90
-7.51 1.23 1.13
-9.10 1.50 0.91
-9.17 1.53 0.90
-7.55 1.29 1.12
-8.70 1.50 0.96
-8.25 1.45 1.02
-8.11 1.44 1.04
-8.51 1.53 0.98
-8.48 1.55 0.99
-8.08 1.50 1.04
-8.32 1.56 1.01
-7.69 1.47 1.09
-7.28 1.45 1.15
-4.11 0.99 1.58
-4.04 1.01 1.59
-4.03 1.02 1.59
-4.08 1.04 1.58
-4.23 1.23 1.55
-3.95 1.30 1.58
-1.65 -1.56 1.62
-1.86 -1.63 1.59
-2.17 -1.62 1.55
-2.32 -1.64 1.53
-2.48 -1.65 1.51
-2.17 -1.51 1.55
-2.78 -1.64 1.47
-2.03 -1.34 1.58
-2.49 -1.45 1.51
-2.54 -1.44 1.51
-1.99 -1.24 1.58
-2.55 -1.23 1.51
-2.66 -1.25 1.49
-2.92 -1.27 1.46
-3.09 -1.24 1.44
-3.12 -1.21 1.43
-2.40 -0.94 1.53
-4.17 -1.22 1.30
-4.44 -1.05 1.26
-5.80 -1.16 1.08
-5.65 -1.12 1.10
-5.65 -1.10 1.10
-5.21 -1.02 1.16
-5.44 -1.03 1.13
-5.22 -0.98 1.16
-5.25 -0.97 1.15
-5.20 -0.95 1.16
-5.53 -0.97 1.12
-5.64 -0.96 1.10
-5.67 -0.95 1.10
-5.70 -0.93 1.09
-5.84 -0.93 1.08
-5.46 -0.86 1.13
-4.88 -0.78 1.20
-4.82 -0.76 1.21
-4.71 -0.73 1.23
-4.49 -0.69 1.26
-4.55 -0.68 1.25
-4.24 -0.64 1.29
-4.50 -0.64 1.25
-4.34 -0.61 1.28
-4.36 -0.60 1.27
-4.27 -0.57 1.29
-4.06 -0.54 1.31
-4.35 -0.55 1.27
-4.49 -0.54 1.26
-4.49 -0.53 1.26
-4.14 -0.49 1.30
-4.17 -0.47 1.30
-4.39 -0.47 1.27
-4.42 -0.46 1.26
-4.19 -0.43 1.30
-4.38 -0.42 1.27
-4.41 -0.41 1.27
-4.35 -0.39 1.27
-4.32 -0.37 1.28
-4.37 -0.36 1.27
-4.35 -0.34 1.27
-4.32 -0.32 1.28
-4.52 -0.31 1.25
-4.49 -0.30 1.25
-4.17 -0.27 1.30
-4.21 -0.25 1.29
-5.97 -0.30 1.06
-4.43 -0.23 1.26
-4.27 -0.21 1.28
-4.31 -0.19 1.28
-4.52 -0.18 1.25
-4.54 -0.17 1.25
-4.29 -0.14 1.28
-3.97 -0.12 1.32
-4.29 -0.11 1.28
-9.61 -0.14 0.88
-7.73 -0.09 1.13
-11.81 -0.11 0.58
-7.88 -0.05 1.11
-7.82 -0.03 1.12
-7.63 -0.02 1.14
-6.35 -0.00 0.94
-6.58 0.02 0.91
-4.60 0.03 1.19
-8.48 0.08 0.64
-6.51 0.08 0.92
-6.31 0.10 0.95
-8.74 0.16 0.60
-6.03 0.14 0.98
-6.31 0.17 0.94
-6.25 0.19 0.95
-6.47 0.21 0.92
-8.53 0.23 0.96
-8.65 0.28 0.94
-8.29 0.30 0.99
-8.02 0.31 1.02
-8.37 0.35 0.98
-8.07 0.36 1.02
-7.64 0.36 1.08
-8.06 0.41 1.02
-7.63 0.43 1.08
-7.73 0.45 1.06
-7.76 0.47 1.06
-7.67 0.49 1.07
-7.67 0.51 1.07
-7.81 0.55 1.05
-7.84 0.59 1.04
-7.74 0.61 1.06
-7.68 0.62 1.07
-7.66 0.64 1.07
-7.67 0.66 1.07
-7.85 0.71 1.04
-7.80 0.73 1.05
-8.18 0.78 0.99
-8.34 0.82 0.97
-8.23 0.83 0.98
-8.65 0.89 0.92
-8.78 0.92 0.90
-8.53 0.94 0.94
-8.04 0.93 1.01
-8.62 1.01 0.92
-7.83 0.94 1.04
-8.44 1.03 0.95
-8.02 1.00 1.01
-7.99 1.04 1.01
-8.37 1.13 0.95
-7.02 0.97 1.15
-8.82 1.23 0.89
-8.87 1.26 0.88
-8.83 1.28 0.89
-9.11 1.36 0.84
-8.84 1.37 0.88
-9.35 1.47 0.81
-9.27 1.48 0.82
-9.14 1.48 0.84
-9.06 1.49 0.85
-8.88 1.51 0.87
-7.97 1.40 1.00
-8.93 1.58 0.86
-7.64 1.38 1.05
-8.64 1.58 0.90
-8.43 1.56 0.93
-8.52 1.62 0.92
-3.65 0.89 1.61
-1.25 -1.48 1.65
-1.94 -1.30 1.56
-1.68 -1.18 1.60
-2.05 -0.94 1.55
-2.50 -1.00 1.49
-1.88 -0.71 1.57
-2.90 -0.82 1.43
-2.58 -0.74 1.48
-5.58 -1.16 1.05
-5.78 -1.17 1.02
-5.55 -1.12 1.06
-5.68 -1.12 1.04
-5.12 -1.03 1.12
-5.29 -1.03 1.09
-5.24 -1.00 1.10
-5.64 -1.04 1.04
-5.21 -0.96 1.11
-5.11 -0.93 1.12
-5.15 -0.92 1.11
-5.40 -0.93 1.08
-5.34 -0.91 1.09
-5.04 -0.85 1.13
-4.86 -0.82 1.15
-4.56 -0.77 1.20
-4.49 -0.74 1.21
-4.46 -0.72 1.21
-4.38 -0.70 1.22
-4.48 -0.69 1.21
-4.29 -0.66 1.24
-4.56 -0.67 1.20
-4.36 -0.63 1.23
-4.34 -0.61 1.23
-4.14 -0.58 1.26
-4.05 -0.55 1.27
-4.06 -0.54 1.27
-4.20 -0.54 1.25
-4.13 -0.52 1.26
-4.29 -0.51 1.24
-4.24 -0.49 1.24
-4.19 -0.47 1.25
-4.17 -0.46 1.25
-4.12 -0.44 1.26
-4.07 -0.42 1.27
-4.26 -0.41 1.24
-4.28 -0.40 1.24
-4.14 -0.38 1.26
-4.29 -0.37 1.23
-4.59 -0.37 1.19
-4.44 -0.34 1.21
-4.34 -0.32 1.23
-4.36 -0.31 1.23
-4.16 -0.28 1.25
-4.45 -0.28 1.21
-4.09 -0.25 1.26
-4.11 -0.23 1.26
-4.08 -0.22 1.26
-4.11 -0.20 1.26
-4.26 -0.19 1.24
-5.99 -0.22 0.99
-4.29 -0.16 1.23
-4.18 -0.14 1.25
-4.36 -0.13 1.22
-6.09 -0.14 0.98
-5.82 -0.12 1.02
-4.34 -0.08 1.22
-4.56 -0.07 1.19
-4.14 -0.05 1.25
-3.65 -0.03 1.32
-3.86 -0.02 1.29
-7.42 0.00 1.05
-7.39 0.02 1.06
-7.53 0.04 1.04
-5.55 0.04 1.33
-9.24 0.09 0.78
-5.12 0.06 1.40
-9.11 0.14 0.80
-7.92 0.14 0.98
-4.81 0.10 1.44
-8.74 0.19 0.85
-8.82 0.22 0.84
-8.63 0.23 0.87
-8.60 0.25 0.87
-8.27 0.26 0.92
-7.52 0.26 1.03
-8.25 0.30 0.93
-8.26 0.32 0.92
-7.43 0.31 1.05
-7.84 0.35 0.99
-7.59 0.35 1.02
-7.50 0.37 1.04
-7.47 0.39 1.04
-7.58 0.41 1.02
-7.52 0.42 1.03
-7.50 0.44 1.03
-7.58 0.46 1.02
-7.60 0.48 1.02
-7.69 0.51 1.00
-7.84 0.54 0.98
-7.75 0.55 0.99
-7.80 0.57 0.99
-7.77 0.59 0.99
-7.84 0.61 0.98
-7.92 0.64 0.97
-7.78 0.65 0.99
-7.83 0.67 0.98
-7.87 0.69 0.97
-7.90 0.72 0.97
-8.56 0.80 0.87
-8.30 0.79 0.91
-8.23 0.81 0.92
-8.76 0.88 0.84
-8.49 0.87 0.88
-8.45 0.89 0.88
-8.69 0.94 0.84
-8.55 0.94 0.86
-8.54 0.96 0.87
-8.48 0.98 0.87
-8.51 1.00 0.87
-8.52 1.02 0.87
-8.47 1.04 0.87
-8.44 1.06 0.88
-8.31 1.06 0.90
-8.19 1.07 0.91
-8.31 1.10 0.90
-8.27 1.12 0.90
-8.36 1.15 0.89
-8.16 1.14 0.92
-8.32 1.19 0.89
-8.48 1.23 0.87
-8.49 1.25 0.86
-8.74 1.31 0.82
-8.73 1.33 0.83
-8.74 1.35 0.82
-8.80 1.39 0.81
-8.97 1.43 0.79
-8.81 1.43 0.81
-8.87 1.46 0.80
-8.77 1.47 0.81
-8.93 1.52 0.79
-7.95 1.38 0.94
-8.04 1.41 0.92
-8.11 1.44 0.91
-8.86 1.59 0.80
-8.50 1.55 0.85
-7.76 1.44 0.96
-8.21 1.54 0.89
-7.59 1.45 0.99
-7.78 1.51 0.96
-7.33 1.44 1.03
-7.38 1.47 1.02
-7.15 1.44 1.05
-7.28 1.52 1.03
-3.99 0.96 1.53
-6.07 1.49 1.20
-6.43 1.60 1.15
-4.15 1.20 1.49
-4.19 1.23 1.48
-4.19 1.32 1.48
-1.91 -1.62 1.52
-2.45 -1.60 1.44
-2.83 -1.60 1.38
-2.68 -1.52 1.41
-2.57 -1.46 1.42
-2.69 -1.47 1.41
-1.93 -1.23 1.52
-2.60 -1.30 1.42
-2.93 -1.27 1.38
-2.90 -1.16 1.38
-2.49 -1.03 1.44
-2.60 -1.04 1.43
-2.65 -0.89 1.42
-4.25 -1.12 1.18
-4.29 -1.08 1.18
-5.55 -1.12 0.99
-5.27 -1.05 1.03
-5.37 -1.02 1.02
-5.27 -0.99 1.03
-5.41 -0.99 1.01
-4.96 -0.90 1.08
-4.78 -0.84 1.11
-4.66 -0.80 1.13
-4.59 -0.77 1.14
-4.39 -0.73 1.17
-4.60 -0.72 1.14
-4.24 -0.65 1.19
-4.27 -0.62 1.18
-3.97 -0.58 1.23
-3.72 -0.54 1.26
-4.03 -0.54 1.22
-3.72 -0.49 1.26
-3.91 -0.47 1.24
-3.72 -0.44 1.27
-4.16 -0.46 1.20
-3.96 -0.41 1.23
-3.86 -0.38 1.24
-4.00 -0.35 1.22
-4.21 -0.35 1.19
-4.38 -0.34 1.17
-4.48 -0.31 1.15
-4.05 -0.26 1.21
-4.01 -0.23 1.22
-5.47 -0.19 1.35
-5.58 -0.18 1.33
-5.71 -0.17 1.31
-5.79 -0.15 1.30
-5.50 -0.13 1.34
-5.47 -0.12 1.35
-5.63 -0.11 1.32
-5.69 -0.10 1.31
-5.61 -0.08 1.33
-5.51 -0.07 1.34
-7.59 -0.07 1.03
-5.19 -0.04 1.39
-5.38 -0.02 1.36
-7.41 -0.02 1.06
-8.80 -0.00 0.43
-3.76 0.01 1.21
-8.67 0.05 0.45
-8.88 0.08 0.42
-8.89 0.11 0.41
-8.92 0.13 0.41
-9.07 0.16 0.38
-8.96 0.19 0.40
-9.07 0.22 0.38
-8.86 0.24 0.42
-8.71 0.26 0.44
-8.01 0.27 0.55
-8.18 0.33 0.52
-7.27 0.32 0.66
-7.38 0.35 0.65
-7.42 0.37 0.64
-7.16 0.39 0.68
-7.29 0.42 0.66
-8.44 0.41 0.84
-8.28 0.42 0.86
-8.71 0.47 0.79
-7.47 0.42 0.99
-8.32 0.49 0.85
-8.33 0.51 0.85
-10.97 0.69 0.44
-8.14 0.54 0.88
-8.04 0.55 0.90
-8.07 0.57 0.89
-11.60 0.84 0.34
-7.80 0.59 0.93
-8.19 0.66 0.87
-8.36 0.69 0.84
-8.46 0.72 0.83
-8.29 0.73 0.85
-8.45 0.76 0.83
-8.59 0.79 0.80
-8.70 0.83 0.79
-8.72 0.85 0.78
-8.78 0.88 0.77
-8.94 0.91 0.75
-9.17 0.96 0.71
-8.82 0.95 0.76
-8.68 0.95 0.78
-8.60 0.97 0.80
-8.51 0.98 0.81
-8.41 0.99 0.83
-8.39 1.00 0.83
-8.55 1.04 0.80
-8.42 1.05 0.82
-8.62 1.10 0.79
-8.64 1.12 0.79
-8.53 1.13 0.80
-8.42 1.13 0.82
-8.60 1.18 0.79
-8.47 1.18 0.81
-8.58 1.22 0.79
-8.64 1.25 0.78
-8.66 1.27 0.78
-8.55 1.28 0.79
-8.73 1.33 0.76
-8.71 1.35 0.77
-8.91 1.40 0.73
-8.90 1.42 0.73
-9.03 1.46 0.71
-9.18 1.51 0.69
-9.09 1.52 0.70
-9.11 1.54 0.70
-9.19 1.58 0.68
-9.22 1.61 0.68
-9.12 1.61 0.69
-9.11 1.63 0.69
-9.08 1.67 0.70
-3.64 0.81 1.56
-3.79 0.88 1.54
-3.83 1.09 1.52
-3.64 1.05 1.55
-3.57 1.05 1.56
-3.66 1.11 1.54
-3.56 1.18 1.55
-3.17 1.16 1.61
-3.58 1.36 1.53
-3.39 1.33 1.56
-3.30 1.34 1.58
-3.18 1.63 1.57
-0.88 -1.49 1.64
-0.82 -1.42 1.66
-1.08 -1.53 1.61
-1.40 -1.66 1.56
-0.79 -1.34 1.67
-0.82 -1.34 1.66
-1.25 -1.41 1.59
-1.16 -1.35 1.61
-1.21 -1.35 1.60
-1.16 -1.31 1.61
-1.32 -1.30 1.59
-1.30 -1.26 1.59
-0.85 -1.09 1.66
-0.96 -1.04 1.65
-1.60 -1.18 1.55
-1.57 -1.15 1.55
-1.43 -1.10 1.57
-1.13 -0.98 1.62
-1.37 -1.03 1.59
-1.99 -1.17 1.49
-1.37 -0.97 1.59
-2.00 -1.10 1.49
-1.54 -0.98 1.56
-1.56 -0.56 1.56
-5.55 -1.08 0.94
-5.74 -1.09 0.91
-5.60 -1.05 0.93
-5.52 -1.02 0.94
-4.64 -0.89 1.08
-5.02 -0.90 1.02
-4.89 -0.87 1.04
-5.57 -0.93 0.94
-4.72 -0.82 1.07
-4.76 -0.80 1.06
-4.48 -0.76 1.11
-4.39 -0.73 1.12
-3.43 -0.61 1.27
-4.54 -0.71 1.10
-3.54 -0.60 1.25
-3.69 -0.60 1.23
-3.40 -0.56 1.27
-3.38 -0.54 1.28
-3.56 -0.54 1.25
-3.71 -0.54 1.23
-3.59 -0.50 1.25
-3.42 -0.47 1.27
-3.58 -0.47 1.25
-3.31 -0.44 1.29
-1.55 -0.29 1.56
-3.35 -0.41 1.28
-3.49 -0.39 1.26
-3.23 -0.36 1.30
-3.98 -0.35 1.18
-3.96 -0.30 1.19
-3.39 -0.21 1.27
-3.44 -0.18 1.27
-3.44 -0.17 1.27
-9.05 -0.30 0.39
-3.77 -0.15 1.22
-9.02 -0.25 0.40
-8.79 -0.21 0.43
-3.10 -0.09 1.32
-8.73 -0.13 0.44
-8.70 -0.11 0.45
-8.89 -0.08 0.42
-8.65 -0.03 0.45
-4.13 0.00 1.48
-7.40 0.04 0.94
-8.91 0.09 0.69
-7.53 0.09 0.92
-7.36 0.11 0.94
-8.82 0.15 0.70
-8.60 0.17 0.74
-8.61 0.21 0.74
-8.42 0.25 0.77
-8.54 0.27 0.75
-8.59 0.29 0.74
-8.52 0.31 0.75
-8.41 0.33 0.77
-8.39 0.37 0.77
-8.44 0.41 0.76
-8.46 0.43 0.76
-8.31 0.45 0.78
-8.15 0.46 0.81
-8.44 0.49 0.76
-8.30 0.53 0.78
-8.16 0.56 0.80
-8.06 0.57 0.82
-8.54 0.63 0.74
-8.82 0.67 0.69
-8.80 0.69 0.70
-8.86 0.74 0.68
-8.50 0.75 0.74
-8.49 0.77 0.74
-8.36 0.78 0.76
-8.40 0.82 0.76
-8.65 0.89 0.71
-8.91 0.94 0.67
-8.87 0.95 0.68
-8.85 0.97 0.68
-8.54 0.96 0.73
-8.39 0.97 0.75
-8.39 0.99 0.75
-8.38 1.03 0.75
-8.34 1.06 0.76
-8.36 1.09 0.76
-8.43 1.12 0.74
-8.55 1.16 0.72
-8.49 1.17 0.73
-8.47 1.21 0.73
-8.25 1.22 0.77
-8.47 1.27 0.73
-8.53 1.30 0.72
-8.73 1.35 0.69
-8.49 1.34 0.72
-8.65 1.41 0.70
-8.90 1.49 0.65
-8.78 1.49 0.67
-8.84 1.52 0.66
-8.99 1.57 0.63
-9.25 1.64 0.59
-8.94 1.63 0.64
-8.99 1.69 0.63
-8.56 1.63 0.70
-8.66 1.67 0.68
-6.94 1.38 0.97
-6.88 1.44 0.98
-3.92 0.87 1.48
-6.73 1.59 0.99
-3.77 0.98 1.49
-3.83 1.01 1.48
-4.13 1.10 1.43
-3.76 1.03 1.49
-3.88 1.08 1.47
-3.97 1.17 1.45
-3.38 1.55 1.51
-3.64 1.67 1.46
-1.42 -1.47 1.53
-1.52 -1.35 1.52
-2.27 -1.52 1.39
-2.56 -1.59 1.34
-2.30 -1.39 1.39
-1.62 -1.15 1.51
-2.67 -1.39 1.33
-2.13 -1.02 1.43
-2.12 -0.90 1.43
-3.27 -1.00 1.24
-2.17 -0.76 1.42
-5.05 -1.15 0.95
-5.09 -1.13 0.94
-5.09 -1.12 0.94
-4.94 -1.08 0.97
-5.14 -1.09 0.93
-5.68 -1.14 0.85
-5.17 -1.06 0.93
-5.11 -1.03 0.94
-5.39 -1.05 0.89
-5.06 -0.99 0.95
-5.41 -1.01 0.89
-5.52 -1.01 0.87
-4.87 -0.91 0.98
-4.74 -0.87 1.00
-4.75 -0.86 1.00
-4.98 -0.87 0.96
-4.70 -0.82 1.01
-4.49 -0.78 1.04
-4.66 -0.78 1.02
-4.60 -0.76 1.02
-4.39 -0.72 1.06
-3.62 -0.62 1.19
-3.42 -0.59 1.22
-3.77 -0.61 1.16
-3.66 -0.58 1.18
-3.66 -0.57 1.18
-3.73 -0.56 1.17
-3.86 -0.56 1.15
-4.19 -0.57 1.09
-3.91 -0.53 1.14
-3.89 -0.51 1.14
-3.85 -0.50 1.15
-3.81 -0.48 1.16
-3.73 -0.46 1.17
-4.39 -0.49 1.06
-3.85 -0.44 1.15
-4.01 -0.43 1.12
-3.65 -0.39 1.18
-3.70 -0.38 1.17
-3.69 -0.37 1.17
-3.93 -0.37 1.13
-5.38 -0.29 1.28
-5.33 -0.26 1.28
-5.67 -0.26 1.23
-5.60 -0.25 1.24
-5.35 -0.22 1.28
-9.86 -0.38 0.54
-5.28 -0.18 1.29
-5.46 -0.16 1.26
-5.71 -0.15 1.22
-5.45 -0.13 1.26
-6.71 -0.13 1.06
-5.38 -0.08 1.27
-5.48 -0.05 1.26
-7.13 -0.05 0.99
-7.14 -0.03 0.98
-7.41 -0.02 0.94
-3.58 -0.00 1.14
-3.68 0.01 1.12
-3.56 0.03 1.15
-4.76 0.04 1.34
-4.80 0.05 1.33
-9.08 0.11 0.59
-8.34 0.12 0.72
-8.73 0.15 0.65
-7.20 0.14 0.91
-8.68 0.19 0.66
-8.86 0.22 0.63
-8.72 0.23 0.65
-8.58 0.25 0.68
-8.58 0.27 0.68
-8.55 0.29 0.68
-8.48 0.31 0.69
-8.51 0.33 0.69
-8.24 0.34 0.73
-8.46 0.37 0.69
-8.72 0.40 0.65
-8.54 0.42 0.68
-8.44 0.43 0.69
-8.49 0.45 0.69
-8.33 0.47 0.71
-8.48 0.49 0.69
-8.31 0.51 0.72
-8.27 0.52 0.72
-8.25 0.54 0.73
-8.23 0.56 0.73
-8.42 0.59 0.69
-8.53 0.62 0.67
-8.58 0.65 0.67
-8.69 0.68 0.64
-8.64 0.69 0.65
-8.53 0.71 0.67
-8.67 0.74 0.65
-8.68 0.76 0.65
-8.59 0.77 0.66
-8.39 0.78 0.69
-8.40 0.80 0.69
-8.40 0.82 0.69
-8.65 0.86 0.65
-8.38 0.86 0.69
-8.36 0.88 0.70
-8.25 0.89 0.71
-8.25 0.91 0.71
-8.61 0.97 0.65
-8.38 0.96 0.69
-8.29 0.97 0.70
-8.24 0.99 0.71
-8.07 0.99 0.74
-8.12 1.01 0.73
-8.32 1.06 0.70
-8.42 1.09 0.68
-8.33 1.10 0.69
-8.49 1.14 0.66
-8.39 1.15 0.68
-8.39 1.17 0.68
-8.58 1.22 0.65
-8.54 1.24 0.65
-8.77 1.29 0.61
-8.73 1.31 0.62
-8.77 1.33 0.61
-8.75 1.35 0.61
-8.74 1.37 0.61
-8.81 1.40 0.60
-8.81 1.43 0.60
-8.74 1.44 0.61
-9.03 1.51 0.56
-9.09 1.54 0.55
-3.35 0.60 1.56
-3.37 0.61 1.55
-6.57 1.17 0.99
-6.73 1.22 0.96
-8.53 1.56 0.64
-8.58 1.59 0.63
-8.57 1.61 0.63
-3.89 0.76 1.46
-8.46 1.63 0.65
-8.54 1.66 0.63
-6.04 1.21 1.07
-3.71 0.77 1.49
-3.77 0.79 1.47
-3.88 0.82 1.46
-3.77 0.81 1.47
-3.57 0.78 1.51
-3.60 0.80 1.50
-3.64 0.81 1.50
-3.51 0.80 1.52
-3.74 0.85 1.48
-3.66 0.85 1.49
-3.68 0.86 1.49
-3.73 0.88 1.48
-3.79 0.91 1.47
-3.76 0.91 1.47
-3.76 0.93 1.47
-3.71 0.93 1.48
-3.75 0.96 1.47
-3.62 0.95 1.49
-3.67 0.98 1.48
-3.73 1.00 1.47
-3.91 1.06 1.44
-3.97 1.09 1.42
-4.04 1.12 1.41
-3.97 1.11 1.42
-3.78 1.07 1.46
-3.92 1.12 1.43
-3.90 1.12 1.43
-3.86 1.12 1.44
-3.96 1.16 1.42
-3.62 1.08 1.48
-3.89 1.17 1.43
-3.71 1.14 1.46
-4.04 1.24 1.40
-3.91 1.21 1.43
-4.23 1.32 1.37
-3.95 1.25 1.42
-3.92 1.26 1.42
-4.12 1.33 1.38
-4.10 1.36 1.39
-4.19 1.40 1.37
-3.85 1.31 1.43
-3.66 1.26 1.46
-3.69 1.30 1.46
-3.56 1.27 1.48
-3.71 1.35 1.45
-3.75 1.39 1.44
-3.83 1.43 1.42
-3.56 1.41 1.47
-3.33 1.35 1.51
-3.53 1.45 1.47
-3.46 1.44 1.48
-3.51 1.54 1.46
-1.15 -1.57 1.54
-0.96 -1.47 1.57
-1.13 -1.53 1.54
-0.94 -1.42 1.58
-1.03 -1.44 1.56
-0.80 -1.33 1.61
-1.26 -1.52 1.52
-0.99 -1.28 1.58
-1.13 -1.32 1.55
-2.06 -1.46 1.39
-2.16 -1.49 1.37
-2.04 -1.44 1.40
-1.99 -1.41 1.41
-2.26 -1.48 1.36
-1.71 -1.29 1.46
-1.98 -1.36 1.41
-2.12 -1.39 1.38
-1.84 -1.30 1.43
-2.51 -1.44 1.32
-1.66 -1.18 1.47
-2.35 -1.36 1.35
-2.16 -1.28 1.38
-1.62 -1.12 1.48
-2.00 -1.21 1.41
-1.89 -1.17 1.43
-2.14 -1.20 1.39
-1.91 -1.12 1.43
-1.66 -1.05 1.47
-1.95 -1.11 1.42
-1.67 -1.03 1.47
-2.26 -1.13 1.37
-2.34 -1.11 1.35
-1.97 -1.00 1.42
-1.85 -0.96 1.44
-2.08 -0.96 1.40
-1.89 -0.86 1.44
-2.34 -0.92 1.36
-7.33 -1.68 0.49
-4.66 -1.12 0.96
-4.99 -1.15 0.90
-5.08 -1.15 0.89
-4.90 -1.10 0.92
-4.99 -1.10 0.90
-5.15 -1.10 0.88
-5.17 -1.09 0.87
-4.96 -1.04 0.91
-5.04 -1.03 0.89
-5.02 -1.01 0.90
-4.97 -0.99 0.91
-5.01 -0.98 0.90
-5.22 -0.99 0.86
-5.28 -0.98 0.85
-4.96 -0.92 0.91
-5.05 -0.91 0.89
-3.46 -0.70 1.17
-3.50 -0.69 1.16
-3.52 -0.68 1.16
-4.18 -0.74 1.04
-4.08 -0.71 1.06
-3.44 -0.63 1.17
-3.43 -0.62 1.17
-3.25 -0.58 1.20
-3.51 -0.60 1.16
-3.32 -0.56 1.19
-3.39 -0.56 1.18
-3.41 -0.54 1.18
-3.55 -0.54 1.15
-3.70 -0.54 1.13
-3.68 -0.53 1.13
-3.89 -0.53 1.09
-3.60 -0.49 1.14
-3.71 -0.48 1.13
-3.84 -0.48 1.10
-3.62 -0.45 1.14
-3.57 -0.43 1.15
-3.38 -0.40 1.18
-3.47 -0.39 1.17
-3.44 -0.38 1.17
-3.44 -0.36 1.17
-3.47 -0.35 1.17
-3.45 -0.34 1.17
-3.59 -0.33 1.14
-3.45 -0.31 1.17
-3.65 -0.31 1.13
-3.57 -0.29 1.15
-3.54 -0.27 1.15
-3.53 -0.26 1.15
-3.58 -0.24 1.14
-3.50 -0.23 1.16
-3.20 -0.20 1.21
-3.52 -0.20 1.16
-3.66 -0.19 1.13
-3.40 -0.17 1.18
-3.60 -0.16 1.14
-3.44 -0.14 1.17
-3.59 -0.13 1.14
-3.54 -0.12 1.15
-3.63 -0.10 1.14
-3.57 -0.09 1.15
-3.57 -0.07 1.14
-3.63 -0.06 1.13
-3.67 -0.04 1.13
-3.57 -0.03 1.14
-3.63 -0.02 1.13
-7.01 0.00 0.89
-7.24 0.02 0.85
-7.09 0.03 0.87
-6.93 0.05 0.90
-7.27 0.07 0.84
-6.97 0.08 0.90
-9.62 0.14 0.42
-7.08 0.12 0.87
-6.94 0.14 0.90
-9.79 0.21 0.38
-8.61 0.21 0.60
-8.39 0.24 0.64
-8.57 0.27 0.60
-9.25 0.31 0.48
-8.44 0.31 0.63
-8.45 0.33 0.62
-8.43 0.35 0.63
-8.32 0.36 0.65
-8.35 0.39 0.64
-8.27 0.40 0.65
-8.39 0.43 0.63
-8.49 0.45 0.61
-4.45 0.25 1.34
-8.44 0.49 0.62
-8.52 0.52 0.61
-8.46 0.53 0.62
-8.46 0.56 0.62
-8.72 0.59 0.57
-8.60 0.61 0.59
-8.45 0.62 0.62
-8.60 0.65 0.59
-8.44 0.66 0.62
-8.60 0.69 0.59
-8.73 0.72 0.56
-8.57 0.73 0.59
-8.66 0.76 0.58
-8.53 0.77 0.60
-8.49 0.79 0.60
-8.62 0.82 0.58
-8.39 0.82 0.62
-8.41 0.84 0.62
-8.46 0.87 0.61
-8.36 0.88 0.62
-7.73 0.83 0.74
-7.79 0.86 0.73
-7.84 0.88 0.72
-7.94 0.91 0.70
-7.95 0.93 0.70
-7.96 0.96 0.69
-8.04 0.98 0.68
-8.15 1.02 0.66
-8.04 1.02 0.68
-8.25 1.07 0.64
-8.16 1.08 0.65
-8.34 1.12 0.62
-8.23 1.13 0.64
-8.52 1.19 0.59
-8.75 1.24 0.54
-8.56 1.24 0.57
-8.48 1.25 0.59
-8.73 1.31 0.54
-6.92 1.06 0.87
-8.71 1.35 0.54
-8.80 1.38 0.53
-8.59 1.37 0.56
-8.78 1.42 0.53
-8.67 1.43 0.55
-8.90 1.49 0.51
-8.68 1.47 0.54
-8.77 1.51 0.53
-8.83 1.54 0.51
-8.82 1.56 0.52
-8.94 1.60 0.49
-8.51 1.55 0.57
-8.71 1.61 0.53
-8.53 1.60 0.56
-8.65 1.64 0.54
-8.52 1.64 0.56
-7.36 1.44 0.78
-7.01 1.39 0.84
-6.82 1.38 0.88
-6.72 1.37 0.89
-6.85 1.43 0.87
-6.61 1.40 0.91
-6.50 1.40 0.93
-6.28 1.37 0.97
-6.34 1.40 0.96
-6.56 1.46 0.92
-6.28 1.42 0.97
-6.33 1.45 0.96
-6.59 1.52 0.91
-6.36 1.48 0.95
-6.60 1.56 0.90
-6.74 1.61 0.88
-6.79 1.63 0.87
-6.73 1.64 0.88
-6.88 1.69 0.85
-6.73 1.69 0.87
-6.54 1.68 0.91
-4.30 1.24 1.32
-4.42 1.31 1.29
-4.64 1.46 1.25
-4.54 1.46 1.27
-4.06 1.38 1.35
-2.82 -1.49 1.22
-3.49 -1.67 1.10
-2.99 -1.29 1.20
-3.37 -1.37 1.12
-2.89 -1.24 1.21
-4.34 -1.55 0.95
-3.01 -1.23 1.19
-4.11 -1.46 0.99
-2.80 -1.14 1.23
-2.83 -1.14 1.23
-2.88 -1.13 1.22
-3.63 -1.28 1.08
-4.27 -1.40 0.96
-4.34 -1.40 0.95
-4.15 -1.34 0.99
-4.31 -1.36 0.96
-4.28 -1.33 0.96
-4.34 -1.33 0.95
-4.12 -1.27 0.99
-4.17 -1.27 0.98
-4.22 -1.26 0.97
-4.16 -1.23 0.99
-4.44 -1.27 0.94
-4.55 -1.27 0.92
-3.64 -1.09 1.08
-3.96 -1.13 1.03
-4.16 -1.15 0.99
-4.03 -1.11 1.01
-4.26 -1.14 0.97
-4.45 -1.15 0.94
-4.55 -1.15 0.92
-4.50 -1.13 0.93
-4.53 -1.11 0.92
-4.74 -1.13 0.88
-4.73 -1.11 0.89
-4.90 -1.12 0.86
-4.80 -1.09 0.87
-4.84 -1.08 0.87
-5.08 -1.10 0.82
-5.06 -1.07 0.83
-5.06 -1.06 0.83
-5.04 -1.04 0.83
-5.14 -1.03 0.81
-5.12 -1.01 0.82
-5.15 -1.00 0.81
-5.26 -0.99 0.79
-5.23 -0.97 0.80
-5.29 -0.96 0.79
-5.02 -0.91 0.84
-5.26 -0.92 0.79
-5.01 -0.87 0.84
-4.49 -0.79 0.93
-4.74 -0.81 0.89
-4.35 -0.75 0.96
-4.51 -0.75 0.93
-3.61 -0.64 1.09
-3.89 -0.65 1.04
-3.67 -0.61 1.08
-3.91 -0.62 1.04
-4.08 -0.62 1.01
-4.06 -0.61 1.01
-3.73 -0.56 1.07
-3.89 -0.56 1.04
-4.07 -0.56 1.01
-4.02 -0.54 1.02
-3.78 -0.50 1.06
-4.33 -0.53 0.96
-3.60 -0.46 1.09
-3.66 -0.45 1.08
-3.66 -0.44 1.08
-3.68 -0.42 1.08
-3.78 -0.42 1.06
-3.75 -0.40 1.07
-3.60 -0.38 1.09
-3.49 -0.35 1.11
-3.37 -0.33 1.13
-3.43 -0.32 1.12
-3.46 -0.31 1.12
-3.58 -0.30 1.10
-3.59 -0.29 1.09
-3.66 -0.28 1.08
-3.57 -0.26 1.10
-3.72 -0.25 1.07
-3.56 -0.23 1.10
-3.61 -0.22 1.09
-3.61 -0.20 1.09
-3.74 -0.19 1.07
-3.59 -0.17 1.09
-3.50 -0.16 1.11
-3.63 -0.15 1.09
-3.67 -0.13 1.08
-3.77 -0.12 1.06
-3.85 -0.11 1.05
-7.60 -0.11 0.79
-7.29 -0.09 0.84
-7.23 -0.07 0.85
-7.45 -0.05 0.81
-7.13 -0.03 0.87
-7.40 -0.02 0.82
-5.90 -0.00 0.60
-6.00 0.02 0.59
-3.51 0.03 1.05
-3.17 0.04 1.12
-3.07 0.05 1.14
-2.94 0.06 1.16
-3.16 0.08 1.12
-3.02 0.09 1.15
-3.11 0.10 1.13
-6.05 0.18 0.57
-2.91 0.13 1.17
-8.98 0.26 0.45
-8.49 0.27 0.54
-8.68 0.31 0.51
-8.71 0.34 0.50
-8.45 0.35 0.55
-8.46 0.37 0.55
-8.48 0.39 0.54
-8.37 0.41 0.57
-8.39 0.43 0.56
-8.36 0.47 0.56
-8.04 0.49 0.63
-8.55 0.54 0.53
-8.31 0.54 0.57
-4.22 0.29 1.35
-8.65 0.61 0.51
-8.69 0.65 0.50
-8.66 0.69 0.50
-8.70 0.72 0.49
-8.83 0.75 0.47
-8.87 0.78 0.46
-8.61 0.77 0.51
-7.77 0.78 0.67
-8.11 0.83 0.60
-8.19 0.86 0.59
-7.69 0.83 0.68
-7.80 0.86 0.66
-7.74 0.87 0.67
-7.89 0.91 0.64
-7.96 0.95 0.62
-7.95 0.97 0.62
-8.04 1.00 0.61
-8.00 1.02 0.61
-8.03 1.04 0.61
-5.13 0.69 1.16
-8.18 1.12 0.58
-8.35 1.16 0.54
-8.34 1.18 0.54
-8.51 1.23 0.51
-8.55 1.26 0.50
-9.18 1.37 0.38
-9.15 1.39 0.38
-8.51 1.33 0.51
-8.48 1.35 0.51
-8.49 1.37 0.51
-8.45 1.39 0.51
-8.69 1.45 0.47
-8.85 1.50 0.44
-8.80 1.53 0.44
-9.32 1.65 0.34
-8.69 1.56 0.46
-6.56 1.20 0.87
-3.47 0.66 1.47
-6.43 1.21 0.90
-3.61 0.71 1.44
-3.58 0.72 1.45
-3.44 0.71 1.47
-3.67 0.76 1.43
-3.62 0.76 1.44
-3.49 0.74 1.46
-3.68 0.79 1.42
-3.65 0.79 1.43
-3.65 0.80 1.43
-3.69 0.83 1.42
-3.84 0.87 1.39
-3.79 0.87 1.40
-3.74 0.87 1.41
-3.87 0.91 1.38
-3.90 0.93 1.38
-6.46 1.52 0.87
-3.94 0.96 1.37
-4.21 1.04 1.31
-3.85 0.98 1.38
-3.58 0.92 1.43
-3.57 0.93 1.43
-3.65 0.96 1.42
-3.73 0.99 1.40
-3.77 1.02 1.39
-3.71 1.02 1.40
-3.83 1.06 1.38
-3.77 1.11 1.39
-3.78 1.12 1.38
-3.78 1.13 1.38
-3.99 1.21 1.34
-3.94 1.21 1.35
-3.95 1.27 1.34
-4.30 1.39 1.27
-3.49 1.24 1.43
-3.24 1.20 1.47
-3.80 1.42 1.36
-3.74 1.42 1.37
-4.22 1.64 1.26
-3.60 1.62 1.37
-0.79 -1.46 1.55
-1.10 -1.58 1.48
-1.02 -1.53 1.50
-1.19 -1.60 1.47
-1.18 -1.57 1.47
-1.00 -1.47 1.51
-1.13 -1.50 1.48
-1.19 -1.35 1.48
-1.51 -1.44 1.42
-1.39 -1.31 1.44
-1.83 -1.33 1.36
-2.05 -1.39 1.32
-2.02 -1.34 1.33
-1.86 -1.28 1.36
-2.36 -1.42 1.26
-1.95 -1.28 1.34
-1.96 -1.27 1.34
-2.67 -1.47 1.20
-2.37 -1.37 1.26
-2.14 -1.30 1.31
-2.40 -1.36 1.26
-2.00 -1.23 1.33
-2.22 -1.28 1.29
-2.03 -1.22 1.33
-2.00 -1.20 1.33
-1.87 -1.15 1.36
-2.05 -1.19 1.33
-1.74 -1.10 1.39
-2.62 -1.31 1.22
-2.24 -1.20 1.29
-2.17 -1.17 1.30
-1.84 -1.05 1.37
-1.90 -1.06 1.36
-2.45 -1.18 1.25
-2.03 -1.07 1.33
-1.93 -1.02 1.35
-2.59 -1.14 1.23
-2.32 -1.07 1.28
-1.77 -0.93 1.38
-2.14 -1.00 1.31
-1.94 -0.95 1.35
-2.89 -1.14 1.17
-2.30 -1.01 1.28
-1.95 -0.85 1.35
-1.91 -0.83 1.36
-4.68 -1.17 0.83
-4.68 -1.15 0.84
-4.70 -1.14 0.83
-4.91 -1.16 0.79
-4.55 -1.07 0.86
-4.68 -1.07 0.84
-5.32 -1.15 0.71
-5.22 -1.11 0.73
-5.28 -1.10 0.72
-5.27 -1.08 0.72
-5.08 -1.04 0.76
-5.21 -1.04 0.74
-3.68 -0.82 1.03
-3.93 -0.83 0.98
-3.73 -0.79 1.02
-3.74 -0.78 1.02
-3.71 -0.76 1.02
-3.55 -0.73 1.05
-3.59 -0.72 1.04
-3.43 -0.68 1.08
-3.54 -0.68 1.05
-3.50 -0.66 1.06
-3.38 -0.64 1.08
-3.90 -0.68 0.99
-3.61 -0.63 1.04
-3.92 -0.65 0.98
-4.16 -0.66 0.94
-3.70 -0.60 1.02
-3.69 -0.58 1.03
-3.83 -0.58 1.00
-4.17 -0.60 0.94
-3.89 -0.56 0.99
-3.63 -0.52 1.04
-3.64 -0.51 1.04
-3.13 -0.45 1.13
-3.23 -0.45 1.11
-3.17 -0.43 1.12
-3.29 -0.42 1.10
-3.30 -0.41 1.10
-3.34 -0.40 1.09
-3.22 -0.38 1.11
-3.17 -0.36 1.12
-3.10 -0.34 1.14
-3.28 -0.34 1.10
-3.24 -0.33 1.11
-3.29 -0.31 1.10
-3.26 -0.30 1.11
-3.37 -0.29 1.09
-3.36 -0.28 1.09
-3.43 -0.27 1.07
-3.29 -0.25 1.10
-3.30 -0.23 1.10
-3.04 -0.21 1.15
-3.15 -0.20 1.13
-3.19 -0.19 1.12
-2.95 -0.17 1.16
-3.20 -0.16 1.12
-3.32 -0.15 1.09
-2.93 -0.13 1.17
-3.41 -0.13 1.08
-3.39 -0.11 1.08
-3.01 -0.09 1.15
-3.31 -0.08 1.09
-5.97 -0.10 0.59
-3.66 -0.06 1.03
-3.36 -0.04 1.08
-3.54 -0.03 1.05
-3.29 -0.02 1.10
-6.68 0.03 0.83
-6.93 0.07 0.78
-6.70 0.10 0.82
-4.96 0.10 1.17
-8.78 0.21 0.41
-8.40 0.24 0.48
-8.67 0.29 0.43
-8.45 0.33 0.47
-8.14 0.36 0.53
-8.18 0.40 0.52
-8.22 0.44 0.51
-8.00 0.47 0.56
-8.11 0.51 0.53
-8.22 0.56 0.51
-8.31 0.61 0.49
-8.46 0.66 0.46
-8.84 0.73 0.38
-8.56 0.75 0.44
-7.58 0.74 0.63
-7.60 0.78 0.62
-7.63 0.82 0.62
-7.35 0.83 0.67
-7.47 0.88 0.65
-7.74 0.95 0.59
-8.11 1.03 0.52
-8.08 1.07 0.52
-4.94 0.69 1.15
-8.44 1.20 0.44
-8.37 1.23 0.46
-8.50 1.29 0.43
-8.91 1.40 0.34
-8.92 1.44 0.34
-8.82 1.47 0.36
-6.67 1.16 0.79
-6.53 1.17 0.82
-6.41 1.18 0.84
-6.43 1.22 0.83
-6.54 1.27 0.81
-3.86 0.79 1.35
-6.49 1.33 0.81
-6.44 1.33 0.83
-6.26 1.32 0.86
-6.59 1.41 0.79
-6.19 1.37 0.87
-6.29 1.42 0.85
-6.34 1.45 0.84
-6.46 1.49 0.81
-6.42 1.51 0.82
-6.27 1.51 0.85
-6.17 1.52 0.86
-6.20 1.55 0.86
-6.25 1.58 0.84
-6.34 1.67 0.82
-4.04 1.11 1.29
-4.09 1.13 1.28
-4.62 1.28 1.17
-4.35 1.26 1.23
-4.26 1.26 1.24
-4.56 1.37 1.18
-4.67 1.48 1.15
-2.21 -1.51 1.24
-2.46 -1.54 1.19
-3.13 -1.69 1.06
-2.61 -1.47 1.16
-2.64 -1.45 1.16
-3.46 -1.62 1.00
-2.91 -1.44 1.11
-3.05 -1.44 1.08
-2.58 -1.31 1.17
-3.10 -1.43 1.07
-3.06 -1.39 1.08
-4.01 -1.60 0.89
-2.26 -1.15 1.24
-3.11 -1.31 1.07
-3.19 -1.31 1.06
-4.27 -1.55 0.84
-3.08 -1.26 1.08
-2.84 -1.19 1.13
-4.03 -1.44 0.89
-3.40 -1.29 1.02
-3.69 -1.34 0.96
-3.69 -1.31 0.96
-4.21 -1.40 0.86
-3.94 -1.33 0.91
-3.85 -1.30 0.93
-3.83 -1.28 0.93
-3.90 -1.28 0.92
-4.04 -1.29 0.89
-4.26 -1.32 0.85
-4.14 -1.28 0.87
-4.00 -1.24 0.90
-4.03 -1.23 0.89
-3.79 -1.16 0.94
-3.96 -1.18 0.91
-4.04 -1.18 0.89
-4.17 -1.19 0.87
-4.26 -1.19 0.85
-4.17 -1.16 0.87
-4.11 -1.13 0.88
-4.39 -1.15 0.82
-4.55 -1.16 0.79
-4.43 -1.12 0.82
-4.71 -1.15 0.76
-4.68 -1.12 0.77
-4.67 -1.11 0.77
-5.00 -1.14 0.71
-5.22 -1.16 0.66
-5.33 -1.15 0.64
-5.20 -1.12 0.67
-5.25 -1.10 0.66
-5.35 -1.10 0.64
-5.35 -1.08 0.64
-5.38 -1.07 0.63
-5.26 -1.03 0.66
-5.33 -1.02 0.64
-5.23 -0.99 0.66
-5.11 -0.96 0.68
-3.63 -0.75 0.98
-3.57 -0.73 0.99
-3.60 -0.72 0.99
-4.74 -0.84 0.76
-4.54 -0.80 0.80
-3.64 -0.68 0.98
-4.10 -0.72 0.89
-4.32 -0.73 0.84
-3.76 -0.65 0.95
-4.42 -0.71 0.82
-4.31 -0.68 0.85
-4.01 -0.63 0.90
-3.99 -0.61 0.91
-3.91 -0.59 0.92
-4.02 -0.59 0.90
-3.88 -0.56 0.93
-3.73 -0.53 0.96
-3.96 -0.54 0.91
-3.90 -0.52 0.93
-4.66 -0.56 0.78
-4.81 -0.56 0.75
-3.86 -0.47 0.93
-4.48 -0.50 0.81
-3.52 -0.41 1.00
-3.11 -0.37 1.08
-4.41 -0.44 0.83
-3.79 -0.39 0.95
-4.13 -0.39 0.88
-3.43 -0.34 1.02
-3.39 -0.32 1.03
-3.36 -0.31 1.03
-3.23 -0.29 1.06
-3.21 -0.27 1.06
-3.19 -0.26 1.07
-3.23 -0.25 1.06
-3.10 -0.23 1.08
-3.01 -0.21 1.10
-5.03 -0.17 1.16
-4.86 -0.16 1.19
-4.92 -0.15 1.18
-4.82 -0.12 1.20
-5.21 -0.10 1.12
-5.16 -0.08 1.13
-4.92 -0.05 1.18
-4.63 -0.02 1.23
-5.78 -0.00 0.49
-6.03 0.02 0.43
-5.97 0.04 0.45
-2.63 0.03 1.13
-2.76 0.05 1.11
-2.78 0.06 1.10
-6.41 0.12 0.36
-6.23 0.16 0.39
-6.26 0.18 0.39
-6.19 0.26 0.40
-5.97 0.36 0.44
-5.97 0.38 0.44
-8.55 0.41 0.38
-8.40 0.43 0.41
-8.11 0.43 0.47
-8.03 0.45 0.49
-7.96 0.46 0.50
-7.95 0.48 0.50
-8.19 0.52 0.45
-8.25 0.54 0.44
-8.14 0.55 0.46
-8.24 0.58 0.44
-8.17 0.59 0.46
-8.30 0.62 0.43
-8.37 0.65 0.41
-4.57 0.37 1.20
-8.22 0.68 0.44
-8.31 0.71 0.42
-7.97 0.70 0.49
-7.86 0.71 0.52
-7.75 0.72 0.54
-7.90 0.75 0.51
-7.78 0.76 0.53
-7.59 0.76 0.57
-7.56 0.77 0.57
-7.48 0.78 0.59
-7.48 0.80 0.59
-7.46 0.82 0.59
-7.56 0.87 0.57
-7.45 0.87 0.59
-7.45 0.89 0.59
-8.05 0.98 0.46
-7.98 0.99 0.48
-8.02 1.02 0.47
-8.13 1.05 0.45
-8.17 1.08 0.44
-8.41 1.13 0.39
-8.23 1.12 0.42
-8.23 1.15 0.42
-8.18 1.18 0.43
-8.48 1.26 0.37
-7.65 1.18 0.54
-6.55 1.17 0.76
-3.44 0.67 1.41
-3.34 0.66 1.43
-3.61 0.72 1.38
-3.45 0.69 1.41
-3.56 0.72 1.39
-3.64 0.75 1.37
-3.71 0.77 1.35
-3.84 0.81 1.32
-3.47 0.74 1.40
-3.61 0.79 1.37
-3.80 0.84 1.33
-3.55 0.80 1.38
-3.73 0.85 1.34
-3.56 0.82 1.38
-3.58 0.83 1.37
-3.67 0.86 1.35
-3.58 0.87 1.37
-3.65 0.90 1.36
-3.72 0.93 1.34
-3.87 0.97 1.31
-3.72 0.95 1.34
-3.79 0.97 1.32
-3.57 0.93 1.37
-4.18 1.09 1.24
-4.46 1.17 1.18
-3.97 1.09 1.28
-4.09 1.16 1.25
-4.13 1.18 1.24
-4.18 1.23 1.23
-4.08 1.21 1.25
-3.96 1.19 1.27
-4.17 1.26 1.23
-4.11 1.25 1.24
-3.97 1.22 1.27
-4.05 1.32 1.24
-0.89 -1.66 1.46
-0.94 -1.60 1.45
-1.73 -1.24 1.31
-1.72 -1.22 1.32
-1.90 -1.27 1.28
-1.95 -1.27 1.27
-1.60 -1.16 1.34
-1.64 -1.16 1.33
-2.15 -1.30 1.23
-1.67 -1.15 1.33
-1.55 -1.08 1.36
-1.58 -1.07 1.35
-2.38 -1.28 1.18
-1.75 -1.10 1.31
-1.66 -1.06 1.33
-2.56 -1.26 1.14
-1.52 -0.97 1.36
-2.03 -0.98 1.26
-2.09 -0.94 1.25
-2.23 -0.96 1.22
-1.92 -0.84 1.29
-1.79 -0.70 1.31
-4.55 -1.12 0.74
-4.72 -1.13 0.71
-4.84 -1.13 0.68
-5.33 -1.19 0.58
-5.35 -1.17 0.58
-1.27 -0.55 1.42
-5.21 -1.11 0.61
-3.90 -0.91 0.88
-5.38 -1.10 0.57
-5.47 -1.09 0.55
-5.42 -1.07 0.56
-5.48 -1.06 0.55
-5.29 -1.01 0.59
-5.27 -0.99 0.59
-5.17 -0.96 0.62
-5.20 -0.95 0.61
-4.93 -0.90 0.67
-5.70 -0.97 0.51
-5.22 -0.89 0.61
-4.73 -0.82 0.71
-4.92 -0.82 0.67
-3.78 -0.68 0.90
-3.51 -0.64 0.96
-5.86 -0.87 0.47
-3.49 -0.61 0.96
-4.37 -0.68 0.78
-5.99 -0.82 0.45
-3.62 -0.58 0.94
-3.64 -0.56 0.93
-3.65 -0.55 0.93
-3.67 -0.54 0.93
-3.77 -0.53 0.91
-3.54 -0.50 0.95
-3.36 -0.47 0.99
-3.39 -0.46 0.98
-4.75 -0.55 0.70
-4.69 -0.53 0.72
-4.50 -0.50 0.76
-3.11 -0.38 1.04
-3.15 -0.37 1.03
-2.94 -0.35 1.08
-2.89 -0.33 1.09
-2.97 -0.32 1.07
-3.26 -0.33 1.01
-2.86 -0.29 1.09
-2.95 -0.28 1.07
-2.77 -0.26 1.11
-2.75 -0.25 1.11
-2.92 -0.24 1.08
-3.03 -0.24 1.06
-2.85 -0.22 1.09
-3.00 -0.21 1.06
-2.97 -0.20 1.07
-2.91 -0.18 1.08
-2.97 -0.17 1.07
-2.86 -0.15 1.09
-2.93 -0.14 1.08
-2.93 -0.13 1.08
-2.80 -0.11 1.10
-2.78 -0.10 1.11
-2.90 -0.09 1.08
-5.79 -0.12 0.49
-5.81 -0.10 0.48
-3.20 -0.06 1.02
-5.81 -0.06 0.48
-5.91 -0.04 0.46
-5.79 -0.02 0.48
-6.79 -0.00 0.68
-6.76 0.01 0.69
-4.95 0.02 1.08
-6.56 0.05 0.73
-4.55 0.04 1.16
-6.75 0.08 0.69
-4.94 0.07 1.08
-7.03 0.12 0.63
-7.28 0.16 0.57
-7.02 0.17 0.63
-7.35 0.20 0.56
-7.09 0.21 0.61
-7.35 0.23 0.56
-7.06 0.24 0.62
-7.38 0.27 0.55
-7.53 0.29 0.51
-7.11 0.40 0.60
-7.14 0.43 0.60
-8.03 0.51 0.40
-8.46 0.55 0.31
-6.96 0.48 0.63
-8.22 0.58 0.36
-8.15 0.59 0.37
-6.97 0.53 0.63
-7.06 0.55 0.61
-7.03 0.57 0.61
-7.48 0.62 0.52
-7.30 0.62 0.55
-7.45 0.66 0.52
-7.27 0.66 0.56
-7.29 0.68 0.55
-7.16 0.68 0.58
-7.11 0.70 0.59
-7.13 0.72 0.59
-7.46 0.77 0.52
-7.45 0.78 0.52
-7.46 0.80 0.51
-7.39 0.81 0.53
-7.63 0.86 0.48
-7.53 0.87 0.50
-7.62 0.90 0.48
-6.34 0.77 0.75
-7.91 0.97 0.41
-8.00 1.00 0.39
-7.83 1.00 0.42
-7.87 1.02 0.42
-8.05 1.07 0.38
-8.14 1.14 0.35
-7.88 1.12 0.41
-8.05 1.17 0.37
-7.92 1.17 0.40
-7.72 1.16 0.44
-7.93 1.21 0.39
-6.38 1.14 0.73
-6.54 1.19 0.69
-5.72 1.06 0.87
-5.92 1.11 0.82
-5.67 1.08 0.88
-5.75 1.11 0.86
-5.74 1.12 0.86
-5.79 1.15 0.85
-5.93 1.19 0.82
-5.86 1.19 0.83
-5.92 1.22 0.82
-5.97 1.24 0.81
-5.77 1.22 0.85
-5.57 1.19 0.89
-5.52 1.19 0.90
-5.65 1.24 0.87
-5.68 1.26 0.86
-5.73 1.28 0.85
-5.82 1.32 0.83
-5.77 1.32 0.84
-5.79 1.34 0.84
-5.80 1.36 0.83
-5.83 1.38 0.83
-5.83 1.40 0.82
-5.66 1.37 0.86
-5.79 1.42 0.83
