# .PCD v0.7 - Point Cloud Data file format
VERSION 0.7
FIELDS x y z
SIZE 4 4 4
TYPE F F F
COUNT 1 1 1
WIDTH 2872
HEIGHT 1
VIEWPOINT 0 0 0 1 0 0 0
POINTS 2872
DATA ASCII
-9.75 0.62 1.36
-10.34 0.68 1.31
-10.11 0.69 1.33
-10.00 0.71 1.33
-10.31 0.76 1.31
-9.96 0.76 1.34
-10.27 0.80 1.31
-10.27 0.83 1.31
-10.26 0.85 1.31
-10.22 0.87 1.31
-10.24 0.90 1.31
-9.92 0.92 1.34
-8.91 0.87 1.42
-6.22 0.69 1.64
-6.44 0.75 1.63
-6.28 0.81 1.64
-6.73 1.07 1.59
-6.67 1.09 1.60
-7.03 1.17 1.57
-6.12 1.10 1.64
-5.91 1.50 1.65
-2.42 -1.67 1.78
-2.26 -1.56 1.79
-1.77 -1.37 1.83
-2.14 -1.47 1.80
-2.01 -1.40 1.81
-4.47 -1.39 1.61
-5.81 -1.62 1.50
-5.83 -1.60 1.50
-3.83 -1.20 1.66
-5.93 -1.56 1.49
-6.31 -1.57 1.46
-6.13 -1.47 1.47
-5.07 -1.13 1.56
-5.14 -1.06 1.56
-6.34 -1.21 1.46
-6.06 -1.15 1.48
-5.96 -1.04 1.49
-5.99 -1.02 1.49
-5.64 -0.96 1.52
-5.55 -0.93 1.52
-5.98 -0.96 1.49
-5.97 -0.94 1.49
-5.18 -0.83 1.55
-4.97 -0.79 1.57
-5.29 -0.81 1.54
-5.15 -0.77 1.56
-5.08 -0.75 1.56
-5.12 -0.73 1.56
-5.02 -0.71 1.57
-2.23 -0.43 1.80
-4.92 -0.66 1.57
-5.08 -0.66 1.56
-5.16 -0.65 1.55
-5.17 -0.63 1.55
-5.34 -0.63 1.54
-5.16 -0.59 1.55
-5.03 -0.57 1.57
-5.48 -0.58 1.53
-5.44 -0.56 1.53
-5.20 -0.52 1.55
-6.84 -0.61 1.41
-5.50 -0.51 1.53
-6.91 -0.57 1.41
-6.72 -0.54 1.42
-6.08 -0.48 1.48
-7.70 -0.42 1.54
-7.46 -0.39 1.56
-7.49 -0.38 1.55
-7.41 -0.35 1.56
-7.43 -0.34 1.56
-7.67 -0.33 1.54
-7.71 -0.31 1.54
-7.58 -0.29 1.55
-7.65 -0.27 1.54
-7.61 -0.25 1.54
-7.63 -0.24 1.54
-7.69 -0.22 1.54
-7.85 -0.20 1.52
-7.95 -0.19 1.51
-7.94 -0.17 1.52
-8.03 -0.15 1.51
-8.08 -0.13 1.50
-8.07 -0.11 1.50
-8.02 -0.09 1.51
-8.10 -0.07 1.50
-4.79 -0.03 1.77
-8.29 -0.04 1.48
-8.30 -0.01 1.48
-6.83 0.03 1.36
-9.09 0.05 1.37
-9.24 0.07 1.36
-9.53 0.10 1.33
-9.32 0.12 1.35
-9.08 0.14 1.37
-8.93 0.16 1.38
-9.18 0.18 1.36
-9.20 0.21 1.36
-9.58 0.24 1.32
-9.62 0.31 1.32
-10.18 0.35 1.27
-10.97 0.40 1.20
-11.00 0.43 1.20
-9.93 0.41 1.29
-9.80 0.43 1.30
-9.72 0.50 1.31
-8.60 0.46 1.41
-8.53 0.52 1.41
-10.67 0.68 1.22
-10.38 0.68 1.25
-10.46 0.71 1.24
-10.37 0.73 1.25
-10.42 0.76 1.24
-10.24 0.77 1.26
-10.23 0.80 1.26
-9.91 0.80 1.29
-10.21 0.85 1.26
-10.31 0.88 1.25
-10.24 0.90 1.26
-10.30 0.93 1.25
-7.30 0.99 1.51
-4.70 0.89 1.74
-0.53 -0.85 1.92
-6.10 -1.67 1.43
-5.99 -1.59 1.44
-6.13 -1.59 1.43
-6.02 -1.49 1.44
-6.22 -1.25 1.42
-6.23 -1.19 1.42
-6.11 -1.16 1.43
-6.13 -1.06 1.43
-6.13 -1.02 1.43
-5.32 -0.86 1.50
-5.41 -0.86 1.49
-5.29 -0.80 1.50
-5.24 -0.76 1.51
-5.24 -0.74 1.51
-5.09 -0.69 1.52
-5.12 -0.68 1.52
-5.29 -0.66 1.50
-5.23 -0.62 1.51
-5.32 -0.60 1.50
-5.42 -0.58 1.49
-5.59 -0.57 1.48
-6.00 -0.56 1.44
-6.05 -0.52 1.44
-6.05 -0.50 1.44
-6.51 -0.48 1.39
-6.76 -0.48 1.37
-6.41 -0.42 1.40
-6.66 -0.38 1.38
-6.46 -0.35 1.40
-6.13 -0.30 1.43
-6.60 -0.30 1.38
-6.14 -0.26 1.43
-6.49 -0.25 1.39
-6.62 -0.21 1.38
-6.61 -0.19 1.38
-6.97 -0.15 1.35
-5.01 -0.10 1.52
-6.75 -0.10 1.37
-4.96 -0.07 1.53
-7.66 -0.04 1.29
-9.30 0.01 1.29
-9.55 0.03 1.27
-9.48 0.05 1.28
-9.30 0.07 1.29
-8.75 0.09 1.35
-8.88 0.11 1.33
-9.33 0.14 1.29
-8.86 0.16 1.33
-9.08 0.18 1.31
-9.35 0.21 1.29
-9.36 0.23 1.29
-9.45 0.26 1.28
-9.59 0.28 1.26
-6.37 0.21 1.57
-6.67 0.23 1.54
-6.12 0.23 1.59
-5.97 0.24 1.60
-9.35 0.39 1.28
-9.23 0.41 1.30
-9.24 0.43 1.29
-9.68 0.47 1.25
-6.08 0.32 1.59
-6.77 0.37 1.53
-8.61 0.48 1.35
-10.53 0.62 1.17
-10.51 0.64 1.17
-8.57 0.55 1.35
-10.11 0.67 1.21
-9.93 0.68 1.23
-8.43 0.60 1.37
-10.10 0.74 1.21
-10.53 0.80 1.17
-10.18 0.79 1.20
-6.54 0.53 1.55
-10.30 0.85 1.19
-10.28 0.88 1.19
-10.21 0.90 1.20
-10.43 0.94 1.17
-10.62 0.98 1.16
-10.54 1.00 1.16
-10.21 1.00 1.19
-10.17 1.02 1.20
-9.65 0.99 1.25
-6.94 0.84 1.50
-7.29 0.93 1.47
-7.42 1.02 1.45
-6.92 1.01 1.50
-5.72 0.87 1.61
-7.04 1.10 1.49
-4.53 0.87 1.72
-4.23 0.83 1.75
-4.53 0.91 1.72
-4.76 1.34 1.69
-2.61 -1.66 1.70
-2.05 -1.41 1.76
-2.19 -1.44 1.74
-2.52 -1.53 1.71
-2.16 -1.17 1.75
-5.58 -1.61 1.43
-5.76 -1.61 1.41
-5.56 -1.55 1.43
-5.67 -1.55 1.42
-5.82 -1.56 1.41
-6.00 -1.57 1.39
-5.66 -1.45 1.42
-6.34 -1.53 1.36
-6.13 -1.41 1.38
-5.91 -1.35 1.40
-5.73 -1.28 1.42
-6.23 -1.24 1.37
-6.09 -1.20 1.38
-6.13 -1.18 1.38
-6.21 -1.17 1.37
-6.09 -1.13 1.38
-6.05 -1.11 1.39
-5.95 -1.07 1.40
-5.96 -1.06 1.39
-5.79 -1.02 1.41
-5.70 -0.99 1.42
-5.85 -0.98 1.40
-5.76 -0.95 1.41
-5.67 -0.92 1.42
-5.48 -0.88 1.44
-5.29 -0.84 1.46
-5.43 -0.84 1.44
-5.12 -0.79 1.47
-4.94 -0.75 1.49
-4.87 -0.73 1.50
-5.05 -0.73 1.48
-4.98 -0.70 1.49
-4.94 -0.68 1.49
-5.14 -0.68 1.47
-4.99 -0.65 1.48
-5.06 -0.64 1.48
-5.23 -0.64 1.46
-5.38 -0.63 1.45
-5.50 -0.62 1.44
-5.51 -0.60 1.44
-5.50 -0.58 1.44
-5.55 -0.57 1.43
-5.58 -0.55 1.43
-5.72 -0.54 1.41
-5.68 -0.52 1.42
-5.93 -0.51 1.39
-5.75 -0.48 1.41
-5.86 -0.47 1.40
-5.90 -0.45 1.40
-6.23 -0.45 1.37
-6.35 -0.43 1.36
-5.99 -0.40 1.39
-6.53 -0.40 1.34
-6.41 -0.37 1.35
-6.78 -0.37 1.31
-6.76 -0.35 1.32
-6.44 -0.31 1.35
-4.97 -0.24 1.48
-6.21 -0.26 1.37
-6.09 -0.24 1.38
-5.11 -0.19 1.47
-5.06 -0.17 1.47
-6.33 -0.18 1.35
-5.12 -0.14 1.47
-6.39 -0.14 1.35
-7.97 -0.11 1.42
-7.92 -0.09 1.42
-8.31 -0.08 1.39
-8.52 -0.06 1.37
-8.56 -0.04 1.36
-8.85 -0.02 1.34
-6.62 0.00 1.27
-6.63 0.03 1.27
-6.67 0.05 1.27
-6.58 0.07 1.28
-6.70 0.09 1.26
-6.75 0.11 1.26
-6.68 0.13 1.26
-7.08 0.16 1.22
-6.95 0.18 1.24
-6.67 0.20 1.27
-7.17 0.23 1.21
-9.57 0.26 1.21
-9.51 0.28 1.21
-9.46 0.30 1.22
-9.38 0.32 1.23
-9.58 0.35 1.21
-9.45 0.37 1.22
-9.32 0.39 1.23
-9.13 0.40 1.25
-9.55 0.44 1.21
-9.57 0.47 1.21
-9.55 0.49 1.21
-9.80 0.53 1.18
-10.11 0.57 1.15
-8.72 0.51 1.29
-8.78 0.54 1.28
-6.00 0.38 1.56
-9.41 0.62 1.22
-9.34 0.64 1.22
-4.55 0.33 1.71
-10.56 0.77 1.10
-4.53 0.35 1.71
-4.36 0.35 1.73
-4.54 0.37 1.71
-4.58 0.39 1.70
-10.65 0.91 1.09
-10.50 0.92 1.10
-5.34 0.49 1.63
-10.31 0.95 1.12
-10.18 0.97 1.14
-10.10 0.98 1.14
-10.21 1.02 1.13
-4.66 0.50 1.69
-5.09 0.57 1.65
-7.39 0.85 1.41
-7.46 0.92 1.41
-4.38 0.63 1.72
-7.25 1.03 1.42
-5.11 0.80 1.64
-4.00 0.65 1.75
-4.15 0.68 1.74
-6.92 1.22 1.45
-4.79 1.00 1.67
-2.19 -1.63 1.71
-1.92 -1.51 1.74
-2.05 -1.47 1.73
-1.69 -1.31 1.77
-1.83 -1.26 1.75
-1.67 -1.17 1.77
-1.36 -1.06 1.80
-2.01 -1.21 1.74
-1.84 -1.12 1.75
-1.91 -1.11 1.75
-1.53 -0.99 1.79
-2.03 -1.10 1.74
-1.72 -0.95 1.77
-1.75 -0.89 1.76
-5.57 -1.60 1.38
-5.65 -1.60 1.37
-5.52 -1.56 1.39
-1.24 -0.71 1.82
-6.27 -1.66 1.31
-5.88 -1.53 1.35
-5.93 -1.51 1.35
-6.12 -1.53 1.33
-6.05 -1.50 1.33
-6.19 -1.50 1.32
-6.52 -1.53 1.29
-6.81 -1.56 1.26
-6.19 -1.44 1.32
-1.77 -0.69 1.76
-6.59 -1.46 1.28
-6.21 -1.38 1.32
-6.39 -1.38 1.30
-5.87 -1.26 1.35
-6.03 -1.25 1.34
-6.40 -1.28 1.30
-6.19 -1.23 1.32
-6.23 -1.21 1.32
-6.21 -1.19 1.32
-6.05 -1.15 1.33
-6.09 -1.13 1.33
-6.02 -1.10 1.34
-6.05 -1.09 1.34
-6.05 -1.07 1.34
-5.96 -1.04 1.34
-5.79 -0.99 1.36
-5.76 -0.97 1.36
-5.86 -0.96 1.35
-5.77 -0.93 1.36
-5.56 -0.89 1.38
-5.53 -0.87 1.39
-5.16 -0.81 1.42
-5.11 -0.79 1.43
-5.34 -0.79 1.41
-4.97 -0.74 1.44
-5.57 -0.78 1.38
-5.09 -0.71 1.43
-5.14 -0.70 1.43
-5.16 -0.68 1.42
-5.18 -0.67 1.42
-5.61 -0.69 1.38
-5.79 -0.68 1.36
-5.67 -0.65 1.37
-5.53 -0.62 1.39
-6.25 -0.66 1.31
-5.49 -0.58 1.39
-5.58 -0.57 1.38
-5.67 -0.55 1.37
-5.59 -0.53 1.38
-5.83 -0.53 1.36
-5.85 -0.51 1.35
-5.81 -0.49 1.36
-5.66 -0.46 1.37
-5.61 -0.44 1.38
-5.64 -0.42 1.37
-5.90 -0.41 1.35
-5.80 -0.39 1.36
-6.22 -0.39 1.32
-6.33 -0.37 1.30
-6.48 -0.36 1.29
-6.45 -0.33 1.29
-6.22 -0.30 1.32
-4.95 -0.24 1.44
-6.15 -0.26 1.32
-5.95 -0.24 1.34
-5.27 -0.20 1.41
-5.20 -0.18 1.42
-5.05 -0.16 1.43
-4.98 -0.14 1.44
-4.89 -0.12 1.45
-4.91 -0.10 1.44
-6.51 -0.10 1.28
-6.59 -0.08 1.28
-6.49 -0.06 1.29
-6.50 -0.04 1.29
-6.53 -0.02 1.28
-8.53 0.00 1.26
-8.52 0.02 1.26
-8.09 0.04 1.30
-7.95 0.06 1.32
-8.52 0.09 1.26
-8.74 0.11 1.23
-8.86 0.13 1.22
-9.19 0.16 1.19
-9.33 0.18 1.17
-9.31 0.21 1.17
-9.31 0.23 1.17
-9.50 0.26 1.15
-9.21 0.27 1.18
-9.31 0.30 1.17
-5.94 0.21 1.53
-9.23 0.34 1.18
-9.51 0.37 1.15
-9.32 0.39 1.17
-6.18 0.27 1.50
-6.06 0.28 1.52
-6.06 0.30 1.52
-9.08 0.47 1.19
-8.95 0.48 1.21
-8.90 0.50 1.21
-8.73 0.51 1.23
-8.73 0.53 1.23
-9.25 0.59 1.17
-8.96 0.59 1.20
-5.71 0.40 1.55
-9.34 0.66 1.16
-9.41 0.69 1.15
-9.89 0.75 1.10
-5.98 0.47 1.52
-10.25 0.82 1.06
-10.32 0.85 1.05
-10.51 0.90 1.03
-10.45 0.92 1.04
-10.25 0.92 1.06
-10.17 0.94 1.07
-10.30 0.98 1.05
-10.14 0.99 1.07
-10.06 1.01 1.08
-10.04 1.03 1.08
-8.96 0.96 1.20
-5.42 0.62 1.58
-5.15 0.60 1.61
-5.71 0.69 1.54
-6.83 0.86 1.42
-7.18 0.92 1.38
-6.93 0.91 1.41
-6.98 0.93 1.40
-6.75 0.92 1.43
-6.53 0.90 1.45
-7.05 0.99 1.40
-6.68 0.96 1.44
-7.07 1.03 1.39
-6.90 1.02 1.41
-6.97 1.05 1.40
-6.66 1.02 1.44
-5.48 0.86 1.56
-6.44 1.02 1.46
-5.87 0.98 1.52
-5.49 0.98 1.56
-5.98 1.07 1.50
-6.47 1.18 1.45
-4.66 0.91 1.65
-5.04 0.99 1.60
-4.71 0.96 1.64
-4.25 1.11 1.68
-5.37 1.51 1.55
-1.81 -1.40 1.72
-1.83 -1.38 1.72
-2.62 -1.63 1.63
-2.69 -1.62 1.63
-2.89 -1.67 1.61
-1.94 -1.36 1.71
-2.25 -1.45 1.68
-2.02 -1.36 1.70
-1.80 -1.25 1.73
-2.07 -1.32 1.70
-2.22 -1.36 1.68
-2.27 -1.30 1.68
-2.40 -1.33 1.66
-2.09 -1.22 1.70
-2.07 -1.20 1.70
-2.38 -1.24 1.67
-2.35 -1.17 1.67
-2.53 -1.08 1.65
-5.58 -1.65 1.32
-5.80 -1.68 1.30
-5.86 -1.67 1.29
-5.52 -1.58 1.33
-5.46 -1.55 1.34
-5.69 -1.57 1.31
-5.59 -1.53 1.32
-5.45 -1.49 1.34
-5.44 -1.47 1.34
-6.41 -1.63 1.24
-5.86 -1.45 1.30
-5.83 -1.42 1.30
-6.27 -1.45 1.25
-6.49 -1.47 1.23
-6.25 -1.41 1.26
-5.96 -1.34 1.29
-6.51 -1.41 1.23
-5.46 -1.22 1.34
-5.93 -1.28 1.29
-6.09 -1.28 1.27
-6.02 -1.25 1.28
-5.99 -1.22 1.28
-5.86 -1.19 1.30
-5.98 -1.18 1.29
-2.93 -0.74 1.61
-2.77 -0.71 1.63
-5.87 -1.11 1.30
-5.78 -1.07 1.31
-5.98 -1.08 1.28
-5.62 -1.02 1.32
-5.62 -1.00 1.32
-5.36 -0.95 1.35
-5.12 -0.90 1.38
-5.26 -0.90 1.36
-5.62 -0.92 1.32
-2.92 -0.60 1.61
-5.33 -0.85 1.35
-4.85 -0.78 1.41
-4.98 -0.78 1.39
-5.07 -0.77 1.38
-4.91 -0.73 1.40
-4.92 -0.72 1.40
-5.15 -0.72 1.37
-5.41 -0.73 1.35
-5.82 -0.74 1.30
-5.35 -0.68 1.35
-5.34 -0.66 1.35
-5.01 -0.62 1.39
-4.87 -0.59 1.40
-4.81 -0.57 1.41
-2.10 -0.34 1.70
-5.37 -0.57 1.35
-5.38 -0.56 1.35
-5.55 -0.55 1.33
-5.50 -0.53 1.34
-5.47 -0.51 1.34
-5.58 -0.49 1.33
-5.63 -0.48 1.32
-5.80 -0.47 1.30
-5.65 -0.44 1.32
-5.87 -0.43 1.30
-5.78 -0.41 1.31
-5.91 -0.39 1.29
-6.07 -0.38 1.27
-5.75 -0.35 1.31
-5.78 -0.33 1.30
-5.06 -0.28 1.38
-7.28 -0.26 1.39
-7.77 -0.26 1.34
-7.67 -0.24 1.35
-7.93 -0.23 1.32
-8.21 -0.21 1.29
-8.11 -0.19 1.30
-8.14 -0.17 1.30
-8.10 -0.15 1.31
-8.12 -0.13 1.30
-8.19 -0.11 1.30
-8.32 -0.10 1.28
-8.61 -0.08 1.25
-8.45 -0.06 1.27
-8.40 -0.04 1.27
-8.44 -0.02 1.27
-6.75 0.00 1.14
-6.84 0.03 1.13
-7.93 0.05 1.01
-7.52 0.10 1.05
-6.64 0.13 1.15
-9.73 0.45 1.06
-10.05 0.49 1.03
-10.19 0.54 1.01
-9.97 0.56 1.03
-9.71 0.57 1.06
-9.90 0.60 1.04
-9.95 0.63 1.03
-9.78 0.64 1.05
-10.02 0.68 1.02
-10.58 0.77 0.96
-10.36 0.81 0.98
-10.49 0.84 0.97
-10.63 0.88 0.95
-10.62 0.90 0.95
-10.70 0.93 0.94
-10.25 0.95 0.99
-8.97 0.85 1.14
-0.84 -0.97 1.81
-1.19 -1.06 1.77
-0.96 -0.98 1.80
-0.96 -0.96 1.80
-6.63 -1.55 1.16
-6.46 -1.46 1.18
-6.15 -1.37 1.21
-6.45 -1.39 1.18
-6.34 -1.33 1.19
-6.24 -1.30 1.20
-6.12 -1.26 1.22
-6.01 -1.22 1.23
-6.01 -1.18 1.23
-5.90 -1.15 1.24
-6.07 -1.15 1.22
-6.10 -1.13 1.22
-6.23 -1.13 1.20
-5.97 -1.08 1.23
-5.97 -1.06 1.23
-6.24 -1.07 1.20
-5.81 -0.98 1.25
-6.02 -0.96 1.23
-5.54 -0.89 1.28
-6.42 -0.94 1.18
-5.61 -0.82 1.27
-5.99 -0.84 1.23
-6.85 -0.90 1.13
-5.17 -0.72 1.32
-5.82 -0.76 1.25
-4.66 -0.64 1.38
-6.87 -0.81 1.13
-7.13 -0.81 1.10
-4.96 -0.61 1.35
-6.88 -0.75 1.13
-7.95 -0.76 1.01
-5.25 -0.54 1.32
-5.67 -0.56 1.27
-5.18 -0.50 1.32
-5.64 -0.51 1.27
-5.88 -0.51 1.24
-6.03 -0.50 1.23
-5.97 -0.48 1.23
-5.87 -0.45 1.24
-5.69 -0.42 1.26
-5.98 -0.42 1.23
-5.92 -0.39 1.24
-5.65 -0.36 1.27
-5.52 -0.34 1.28
-5.81 -0.33 1.25
-5.67 -0.30 1.27
-4.90 -0.26 1.35
-5.06 -0.25 1.33
-4.79 -0.22 1.36
-5.28 -0.22 1.31
-5.36 -0.20 1.30
-6.12 -0.20 1.21
-5.54 -0.17 1.28
-6.29 -0.14 1.19
-6.27 -0.12 1.20
-6.52 -0.10 1.17
-6.44 -0.08 1.18
-6.50 -0.06 1.17
-6.75 -0.04 1.14
-7.70 -0.02 1.03
-8.45 0.00 1.15
-8.82 0.05 1.10
-8.93 0.07 1.09
-9.29 0.09 1.05
-9.37 0.14 1.04
-9.56 0.17 1.01
-9.20 0.18 1.06
-9.54 0.21 1.02
-9.47 0.23 1.02
-9.48 0.26 1.02
-9.65 0.31 1.00
-9.67 0.33 1.00
-9.73 0.36 0.99
-9.69 0.38 1.00
-9.59 0.40 1.01
-9.70 0.43 0.99
-9.69 0.45 0.99
-9.69 0.50 0.99
-9.90 0.53 0.97
-9.80 0.55 0.98
-9.89 0.58 0.97
-9.95 0.61 0.96
-9.79 0.62 0.98
-9.14 0.60 1.06
-10.03 0.68 0.95
-10.15 0.74 0.93
-10.10 0.76 0.94
-10.30 0.85 0.91
-10.58 0.90 0.88
-10.50 0.95 0.89
-10.53 0.97 0.88
-9.10 0.87 1.06
-9.19 1.03 1.04
-5.17 0.70 1.53
-1.29 -1.30 1.73
-1.38 -1.18 1.72
-1.27 -1.13 1.73
-1.26 -1.11 1.73
-1.62 -1.06 1.69
-1.48 -1.00 1.71
-6.71 -1.60 1.08
-6.42 -1.31 1.12
-5.93 -1.04 1.18
-5.91 -1.01 1.18
-5.61 -0.96 1.21
-6.33 -0.98 1.13
-6.36 -0.96 1.12
-5.82 -0.84 1.19
-5.91 -0.83 1.18
-5.99 -0.82 1.17
-5.84 -0.79 1.19
-5.07 -0.70 1.28
-6.58 -0.81 1.10
-6.99 -0.83 1.05
-6.86 -0.79 1.07
-6.85 -0.77 1.07
-7.43 -0.80 1.00
-6.84 -0.73 1.07
-6.69 -0.69 1.09
-6.66 -0.67 1.09
-6.24 -0.62 1.14
-5.82 -0.57 1.19
-5.94 -0.56 1.18
-5.72 -0.52 1.20
-5.75 -0.50 1.20
-5.98 -0.50 1.17
-5.69 -0.46 1.20
-7.26 -0.40 1.30
-8.00 -0.42 1.21
-6.19 -0.24 1.42
-8.45 -0.28 1.15
-8.86 -0.21 1.10
-8.72 -0.17 1.12
-8.67 -0.14 1.12
-8.51 -0.04 1.14
-8.65 -0.02 1.13
-6.06 0.00 1.10
-5.81 0.02 1.13
-8.21 0.04 1.12
-8.51 0.06 1.09
-9.15 0.09 1.00
-8.76 0.11 1.05
-9.42 0.14 0.97
-9.12 0.16 1.01
-9.19 0.18 1.00
-9.37 0.21 0.97
-9.23 0.23 0.99
-9.30 0.25 0.98
-9.38 0.27 0.97
-9.37 0.30 0.97
-9.68 0.33 0.93
-9.51 0.35 0.95
-9.60 0.37 0.94
-9.69 0.40 0.93
-9.68 0.42 0.93
-9.80 0.45 0.92
-9.80 0.48 0.92
-9.53 0.49 0.95
-8.29 0.44 1.11
-8.30 0.46 1.11
-8.54 0.50 1.07
-5.97 0.37 1.40
-8.64 0.55 1.06
-9.01 0.59 1.01
-4.59 0.32 1.58
-8.67 0.61 1.06
-9.60 0.70 0.94
-6.60 0.50 1.32
-5.07 0.40 1.51
-5.39 0.44 1.47
-5.24 0.44 1.49
-10.26 0.87 0.85
-5.00 0.45 1.52
-5.53 0.50 1.45
-6.34 0.59 1.35
-8.78 0.83 1.04
-5.25 0.52 1.49
-5.44 0.55 1.46
-6.38 0.66 1.34
-5.38 0.57 1.47
-9.18 1.03 0.98
-4.97 0.60 1.52
-5.32 0.75 1.47
-4.17 0.70 1.62
-4.46 0.87 1.57
-4.30 0.93 1.59
-1.40 -1.36 1.69
-1.38 -1.34 1.69
-1.51 -1.36 1.67
-1.52 -1.35 1.67
-1.46 -1.30 1.68
-1.50 -1.31 1.68
-1.40 -1.25 1.69
-1.55 -1.22 1.67
-1.55 -1.20 1.67
-1.43 -1.16 1.69
-1.63 -1.21 1.66
-1.60 -1.19 1.67
-1.51 -1.14 1.68
-1.78 -1.21 1.64
-1.73 -1.19 1.65
-1.35 -1.07 1.70
-1.57 -1.10 1.67
-5.88 -1.69 1.12
-5.93 -1.68 1.12
-6.27 -1.69 1.07
-6.39 -1.69 1.06
-6.54 -1.69 1.04
-6.43 -1.65 1.05
-6.37 -1.62 1.06
-5.88 -1.51 1.13
-5.91 -1.47 1.12
-6.35 -1.53 1.07
-6.30 -1.50 1.07
-6.60 -1.44 1.04
-6.30 -1.37 1.07
-6.49 -1.38 1.05
-6.50 -1.36 1.05
-6.45 -1.33 1.05
-6.24 -1.16 1.08
-6.16 -1.12 1.09
-5.97 -1.08 1.12
-5.95 -1.06 1.12
-6.41 -1.09 1.06
-5.71 -0.99 1.15
-6.60 -1.07 1.04
-6.70 -1.06 1.02
-6.20 -0.98 1.09
-6.37 -0.98 1.07
-6.19 -0.94 1.09
-6.24 -0.93 1.08
-6.08 -0.89 1.10
-5.46 -0.81 1.18
-5.81 -0.82 1.14
-5.95 -0.82 1.12
-6.22 -0.82 1.08
-6.33 -0.81 1.07
-6.43 -0.80 1.06
-6.77 -0.81 1.02
-6.85 -0.79 1.00
-7.02 -0.78 0.98
-6.88 -0.75 1.00
-6.77 -0.72 1.02
-6.64 -0.69 1.03
-5.80 -0.60 1.14
-6.12 -0.61 1.10
-5.73 -0.56 1.15
-5.71 -0.54 1.15
-5.73 -0.52 1.15
-5.75 -0.50 1.14
-5.93 -0.50 1.12
-5.62 -0.46 1.16
-5.53 -0.43 1.17
-5.63 -0.42 1.16
-5.64 -0.40 1.16
-5.73 -0.39 1.15
-5.41 -0.35 1.19
-5.48 -0.34 1.18
-6.04 -0.34 1.11
-5.34 -0.29 1.20
-5.37 -0.28 1.19
-5.29 -0.25 1.20
-5.00 -0.23 1.24
-5.03 -0.21 1.23
-5.07 -0.19 1.23
-4.99 -0.17 1.24
-5.00 -0.16 1.24
-5.16 -0.14 1.22
-5.09 -0.12 1.22
-5.13 -0.11 1.22
-5.10 -0.09 1.22
-5.12 -0.07 1.22
-5.30 -0.05 1.20
-5.83 -0.04 1.13
-5.57 -0.02 1.16
-7.71 0.00 1.13
-7.88 0.02 1.11
-8.54 0.06 1.02
-8.01 0.08 1.09
-8.16 0.10 1.07
-8.98 0.15 0.96
-9.37 0.18 0.90
-9.26 0.20 0.92
-9.43 0.25 0.90
-9.58 0.28 0.87
-9.32 0.30 0.91
-9.33 0.34 0.91
-9.55 0.37 0.88
-9.52 0.39 0.88
-9.64 0.45 0.86
-6.19 0.30 1.33
-8.17 0.42 1.06
-6.19 0.35 1.33
-6.16 0.36 1.33
-5.99 0.37 1.35
-5.92 0.39 1.36
-6.04 0.42 1.35
-5.73 0.41 1.39
-5.94 0.45 1.36
-5.36 0.42 1.43
-5.07 0.41 1.47
-5.31 0.45 1.44
-8.61 0.76 0.99
-6.68 0.61 1.26
-6.67 0.62 1.26
-6.53 0.63 1.27
-6.67 0.66 1.25
-5.08 0.52 1.47
-6.88 0.71 1.23
-5.06 0.59 1.47
-4.98 0.61 1.48
-7.28 0.93 1.17
-5.76 0.78 1.37
-5.72 0.79 1.38
-6.23 0.88 1.31
-6.01 0.88 1.34
-6.03 0.90 1.33
-5.98 0.94 1.34
-6.26 0.99 1.30
-6.30 1.02 1.29
-6.23 1.04 1.30
-6.63 1.12 1.25
-6.51 1.11 1.26
-6.04 1.07 1.33
-4.32 0.79 1.56
-5.94 1.09 1.34
-4.21 0.83 1.57
-4.26 0.85 1.56
-4.19 1.28 1.55
-2.08 -1.63 1.56
-2.17 -1.66 1.55
-1.86 -1.52 1.59
-1.84 -1.48 1.60
-2.15 -1.54 1.56
-2.22 -1.54 1.55
-2.03 -1.46 1.57
-1.69 -1.28 1.62
-1.89 -1.33 1.59
-2.00 -1.34 1.58
-1.98 -1.33 1.58
-1.89 -1.29 1.59
-1.97 -1.29 1.58
-2.03 -1.30 1.58
-1.96 -1.27 1.59
-2.16 -1.30 1.56
-2.10 -1.22 1.57
-1.94 -1.06 1.59
-3.42 -1.32 1.39
-3.62 -1.33 1.37
-4.62 -1.54 1.23
-3.77 -1.28 1.35
-5.87 -1.69 1.06
-5.92 -1.68 1.06
-6.06 -1.69 1.04
-5.99 -1.61 1.05
-6.21 -1.63 1.02
-6.25 -1.62 1.01
-6.18 -1.58 1.02
-6.20 -1.57 1.02
-3.35 -1.04 1.40
-6.31 -1.55 1.01
-6.14 -1.49 1.03
-3.07 -0.94 1.44
-6.37 -1.49 1.00
-2.80 -0.87 1.48
-2.83 -0.87 1.48
-2.61 -0.82 1.50
-2.73 -0.82 1.49
-2.87 -0.83 1.47
-2.82 -0.81 1.48
-2.78 -0.79 1.48
-3.14 -0.82 1.43
-3.59 -0.88 1.37
-3.12 -0.79 1.44
-3.21 -0.79 1.43
-2.36 -0.65 1.54
-6.04 -1.13 1.04
-5.31 -1.01 1.14
-5.50 -1.02 1.12
-2.41 -0.61 1.53
-5.13 -0.94 1.17
-4.94 -0.90 1.19
-6.24 -1.03 1.02
-6.11 -1.00 1.04
-6.34 -1.00 1.00
-6.15 -0.96 1.03
-6.09 -0.93 1.04
-5.94 -0.90 1.06
-5.81 -0.86 1.08
-5.73 -0.83 1.09
-6.35 -0.88 1.00
-6.58 -0.88 0.97
-6.58 -0.86 0.97
-6.53 -0.83 0.98
-6.52 -0.81 0.98
-5.38 -0.69 1.13
-7.02 -0.81 0.91
-4.96 -0.62 1.19
-4.83 -0.59 1.21
-6.71 -0.72 0.96
-6.56 -0.68 0.98
-6.49 -0.66 0.99
-5.82 -0.59 1.07
-5.88 -0.57 1.07
-5.56 -0.53 1.11
-5.67 -0.52 1.09
-5.58 -0.49 1.11
-5.87 -0.49 1.07
-5.70 -0.46 1.09
-5.85 -0.45 1.07
-5.26 -0.40 1.15
-5.27 -0.38 1.15
-5.52 -0.38 1.11
-5.54 -0.36 1.11
-5.35 -0.33 1.14
-5.36 -0.31 1.14
-5.61 -0.30 1.10
-5.27 -0.27 1.15
-5.29 -0.26 1.14
-5.36 -0.24 1.13
-5.30 -0.22 1.14
-5.22 -0.20 1.15
-5.29 -0.18 1.14
-5.12 -0.16 1.17
-5.02 -0.14 1.18
-5.21 -0.13 1.15
-7.48 -0.11 1.16
-7.50 -0.07 1.16
-7.57 -0.05 1.15
-7.71 -0.04 1.13
-7.67 -0.02 1.14
-5.69 0.00 1.03
-6.05 0.02 0.98
-6.05 0.04 0.98
-6.22 0.06 0.95
-6.15 0.08 0.96
-6.62 0.11 0.90
-6.51 0.13 0.91
-6.47 0.15 0.92
-6.28 0.17 0.94
-5.45 0.17 1.06
-4.90 0.18 1.14
-9.67 0.26 0.79
-9.07 0.26 0.88
-9.15 0.29 0.87
-8.85 0.30 0.91
-8.96 0.33 0.89
-9.27 0.36 0.85
-9.65 0.40 0.79
-9.90 0.43 0.76
-8.26 0.38 0.99
-8.05 0.39 1.02
-8.06 0.41 1.02
-5.88 0.32 1.33
-5.86 0.33 1.33
-5.86 0.34 1.33
-5.82 0.36 1.33
-5.96 0.38 1.31
-5.98 0.40 1.31
-6.03 0.41 1.30
-6.09 0.43 1.29
-6.06 0.45 1.30
-6.37 0.48 1.25
-6.22 0.49 1.27
-6.39 0.52 1.25
-6.10 0.51 1.29
-6.42 0.55 1.24
-6.59 0.58 1.22
-10.59 0.98 0.65
-6.64 0.63 1.21
-6.78 0.66 1.19
-6.83 0.69 1.18
-6.91 0.71 1.17
-5.24 0.57 1.41
-6.83 0.75 1.18
-6.78 0.76 1.19
-6.76 0.78 1.19
-4.38 0.58 1.53
-4.54 0.63 1.51
-3.96 0.85 1.57
-2.00 -1.62 1.54
-1.82 -1.52 1.57
-1.96 -1.56 1.55
-1.60 -1.36 1.60
-1.25 -1.16 1.66
-1.80 -1.22 1.58
-1.85 -1.21 1.57
-1.60 -1.13 1.61
-1.47 -1.04 1.63
-3.16 -1.26 1.39
-5.27 -1.55 1.09
-5.72 -1.58 1.03
-6.16 -1.64 0.96
-4.48 -1.29 1.20
-6.13 -1.57 0.97
-6.06 -1.54 0.98
-6.14 -1.53 0.97
-4.12 -1.14 1.26
-2.71 -0.87 1.46
-6.29 -1.46 0.95
-6.30 -1.44 0.95
-4.03 -1.05 1.27
-2.99 -0.86 1.42
-2.96 -0.85 1.42
-2.91 -0.83 1.43
-6.37 -1.34 0.94
-2.58 -0.75 1.48
-5.46 -1.16 1.07
-5.71 -1.18 1.03
-5.79 -1.17 1.02
-5.49 -1.11 1.06
-2.40 -0.67 1.50
-2.12 -0.62 1.54
-2.12 -0.60 1.54
-2.21 -0.61 1.53
-5.06 -0.96 1.12
-5.46 -0.99 1.07
-5.24 -0.95 1.10
-6.04 -1.03 0.99
-5.66 -0.96 1.04
-6.03 -0.99 0.99
-5.48 -0.88 1.07
-5.87 -0.91 1.01
-5.74 -0.87 1.03
-5.45 -0.82 1.07
-5.82 -0.84 1.02
-5.11 -0.75 1.12
-7.11 -0.93 0.83
-5.11 -0.72 1.12
-4.55 -0.65 1.20
-4.61 -0.63 1.19
-4.83 -0.64 1.16
-4.65 -0.61 1.18
-4.85 -0.60 1.15
-5.25 -0.62 1.10
-4.91 -0.57 1.15
-6.56 -0.68 0.91
-6.50 -0.66 0.92
-6.51 -0.64 0.92
-6.33 -0.60 0.94
-6.10 -0.57 0.98
-6.25 -0.56 0.96
-5.89 -0.51 1.01
-5.80 -0.49 1.02
-6.04 -0.48 0.98
-5.80 -0.45 1.02
-5.54 -0.42 1.06
-5.66 -0.40 1.04
-5.95 -0.40 1.00
-5.33 -0.35 1.08
-5.36 -0.33 1.08
-5.22 -0.31 1.10
-5.33 -0.29 1.08
-5.33 -0.28 1.08
-5.28 -0.26 1.09
-5.26 -0.24 1.09
-5.26 -0.22 1.09
-5.29 -0.20 1.09
-5.39 -0.18 1.07
-5.33 -0.16 1.08
-5.37 -0.15 1.08
-5.31 -0.13 1.09
-5.47 -0.11 1.06
-5.39 -0.09 1.07
-5.47 -0.07 1.06
-5.54 -0.06 1.05
-5.34 -0.04 1.08
-5.55 -0.02 1.05
-7.47 0.00 1.05
-7.29 0.02 1.07
-7.37 0.04 1.06
-7.50 0.06 1.04
-7.84 0.08 0.99
-7.60 0.09 1.03
-7.56 0.11 1.03
-7.88 0.13 0.98
-7.96 0.16 0.97
-7.92 0.17 0.98
-7.88 0.19 0.98
-7.74 0.21 1.00
-7.81 0.23 0.99
-8.16 0.26 0.94
-6.11 0.21 1.25
-6.15 0.23 1.24
-5.93 0.23 1.27
-6.15 0.26 1.24
-6.08 0.27 1.25
-5.93 0.28 1.27
-5.95 0.29 1.27
-5.73 0.30 1.30
-5.75 0.31 1.30
-5.79 0.33 1.29
-5.73 0.34 1.30
-5.93 0.36 1.27
-5.92 0.38 1.27
-6.04 0.40 1.25
-6.19 0.43 1.23
-6.18 0.44 1.23
-6.21 0.46 1.22
-6.38 0.49 1.20
-6.24 0.49 1.22
-6.08 0.49 1.24
-6.41 0.53 1.19
-6.15 0.53 1.23
-6.21 0.55 1.22
-6.27 0.57 1.21
-6.28 0.59 1.21
-6.35 0.61 1.20
-6.37 0.63 1.20
-6.58 0.66 1.16
-6.60 0.68 1.16
-6.59 0.70 1.16
-6.48 0.70 1.18
-6.59 0.73 1.16
-6.81 0.77 1.13
-6.72 0.78 1.14
-6.73 0.79 1.14
-6.76 0.81 1.13
-6.77 0.83 1.13
-6.84 0.86 1.12
-6.81 0.87 1.12
-6.92 0.90 1.11
-6.67 0.89 1.14
-6.91 0.94 1.11
-6.46 0.89 1.17
-6.42 0.90 1.18
-5.51 0.79 1.32
-6.12 0.90 1.22
-6.17 0.92 1.22
-6.11 0.92 1.22
-6.25 0.96 1.20
-6.08 0.95 1.23
-6.27 0.99 1.20
-6.24 1.01 1.20
-6.41 1.05 1.18
-6.45 1.07 1.17
-6.13 1.04 1.22
-6.43 1.10 1.17
-6.37 1.11 1.18
-6.28 1.11 1.19
-6.09 1.09 1.22
-6.22 1.13 1.20
-5.66 1.05 1.29
-6.01 1.14 1.23
-6.19 1.20 1.20
-6.06 1.20 1.22
-4.31 1.14 1.47
-4.42 1.31 1.45
-2.20 -1.67 1.47
-1.79 -1.42 1.54
-2.11 -1.50 1.49
-2.09 -1.48 1.49
-1.68 -1.31 1.56
-2.34 -1.51 1.46
-1.89 -1.33 1.53
-2.12 -1.34 1.49
-2.55 -1.42 1.43
-2.33 -1.34 1.46
-2.58 -1.40 1.42
-2.37 -1.31 1.46
-2.18 -1.23 1.49
-2.04 -1.14 1.51
-4.57 -1.53 1.13
-4.11 -1.41 1.20
-4.75 -1.52 1.10
-5.53 -1.66 0.99
-4.67 -1.46 1.12
-5.43 -1.55 1.00
-4.58 -1.36 1.13
-4.51 -1.33 1.14
-5.81 -1.56 0.95
-5.89 -1.55 0.93
-5.79 -1.52 0.95
-6.00 -1.51 0.92
-6.00 -1.49 0.92
-4.48 -1.21 1.15
-5.94 -1.40 0.93
-5.99 -1.39 0.92
-6.12 -1.37 0.90
-3.47 -0.93 1.30
-3.29 -0.89 1.33
-3.59 -0.92 1.28
-3.10 -0.82 1.35
-6.28 -1.27 0.88
-6.17 -1.23 0.90
-3.81 -0.88 1.25
-6.18 -1.19 0.90
-6.09 -1.16 0.91
-2.38 -0.64 1.46
-5.29 -1.01 1.03
-5.00 -0.96 1.07
-5.12 -0.95 1.05
-5.47 -0.98 1.00
-5.02 -0.91 1.07
-4.99 -0.89 1.07
-4.92 -0.86 1.08
-5.75 -0.94 0.96
-5.84 -0.93 0.95
-5.41 -0.86 1.01
-5.63 -0.86 0.98
-5.49 -0.83 1.00
-5.53 -0.82 0.99
-5.62 -0.81 0.98
-5.43 -0.77 1.01
-5.23 -0.73 1.04
-5.59 -0.75 0.98
-5.70 -0.74 0.97
-4.77 -0.64 1.11
-6.43 -0.76 0.86
-4.68 -0.59 1.12
-6.37 -0.71 0.87
-6.40 -0.69 0.86
-6.01 -0.64 0.92
-6.15 -0.63 0.90
-6.27 -0.62 0.88
-5.23 -0.53 1.04
-5.23 -0.51 1.04
-5.01 -0.48 1.07
-5.00 -0.46 1.07
-5.89 -0.50 0.94
-5.96 -0.48 0.93
-5.56 -0.44 0.99
-5.62 -0.42 0.98
-5.74 -0.41 0.96
-5.54 -0.38 0.99
-5.47 -0.36 1.00
-5.56 -0.34 0.99
-5.46 -0.32 1.00
-5.54 -0.30 0.99
-5.44 -0.28 1.00
-7.05 -0.24 1.11
-6.86 -0.22 1.14
-7.06 -0.20 1.11
-6.96 -0.18 1.13
-6.98 -0.17 1.12
-7.09 -0.15 1.11
-6.95 -0.13 1.13
-7.08 -0.12 1.11
-7.15 -0.10 1.10
-7.21 -0.09 1.09
-7.22 -0.07 1.09
-7.31 -0.05 1.07
-7.35 -0.03 1.07
-7.46 -0.02 1.05
-6.39 0.02 0.80
-6.35 0.04 0.81
-6.79 0.07 0.74
-7.09 0.11 0.69
-7.03 0.16 0.70
-5.36 0.17 0.96
-3.83 0.17 1.20
-4.78 0.31 1.05
-8.83 0.41 0.78
-8.44 0.41 0.84
-8.32 0.42 0.86
-8.55 0.48 0.82
-8.95 0.52 0.76
-5.71 0.35 1.26
-8.37 0.55 0.85
-8.76 0.59 0.78
-5.96 0.42 1.22
-5.66 0.43 1.27
-5.96 0.47 1.22
-6.12 0.49 1.20
-6.46 0.54 1.14
-6.33 0.54 1.16
-5.99 0.53 1.21
-6.49 0.60 1.13
-6.42 0.61 1.15
-6.45 0.63 1.14
-6.29 0.63 1.16
-6.44 0.66 1.14
-3.94 0.57 1.53
-2.47 1.59 1.67
-0.90 -1.24 1.65
-1.24 -1.33 1.60
-1.07 -1.22 1.63
-1.40 -1.28 1.57
-1.12 -1.14 1.62
-1.40 -1.13 1.58
-1.29 -1.08 1.60
-1.28 -1.02 1.60
-1.47 -1.05 1.57
-1.59 -1.07 1.55
-1.29 -0.96 1.60
-5.53 -1.44 0.94
-6.23 -1.47 0.83
-6.07 -1.40 0.85
-2.54 -0.79 1.41
-2.19 -0.71 1.46
-2.24 -0.70 1.45
-2.33 -0.70 1.44
-2.42 -0.70 1.43
-1.94 -0.62 1.50
-5.42 -1.03 0.96
-2.20 -0.59 1.46
-6.11 -1.08 0.85
-2.58 -0.61 1.40
-2.48 -0.57 1.42
-2.90 -0.59 1.35
-5.54 -0.81 0.94
-5.60 -0.78 0.93
-5.78 -0.76 0.90
-5.68 -0.73 0.92
-5.67 -0.71 0.92
-6.72 -0.78 0.75
-5.17 -0.63 1.00
-6.74 -0.72 0.75
-6.87 -0.68 0.73
-6.37 -0.63 0.81
-6.53 -0.60 0.78
-6.33 -0.56 0.81
-5.99 -0.50 0.87
-6.21 -0.47 0.83
-6.35 -0.46 0.81
-6.20 -0.43 0.83
-6.38 -0.42 0.81
-6.12 -0.39 0.85
-5.76 -0.33 0.90
-5.61 -0.29 0.92
-5.45 -0.26 0.95
-5.51 -0.24 0.94
-5.83 -0.23 0.89
-5.68 -0.21 0.91
-5.76 -0.17 0.90
-5.60 -0.13 0.93
-5.70 -0.12 0.91
-5.88 -0.10 0.88
-5.97 -0.08 0.87
-6.12 -0.06 0.84
-6.14 -0.02 0.84
-7.12 0.00 0.99
-7.25 0.02 0.96
-7.06 0.03 0.99
-7.02 0.05 1.00
-7.01 0.07 1.00
-7.02 0.09 1.00
-7.12 0.10 0.98
-7.12 0.12 0.98
-7.47 0.15 0.93
-7.32 0.16 0.95
-7.50 0.18 0.92
-8.38 0.22 0.78
-7.98 0.23 0.84
-8.43 0.27 0.77
-9.34 0.32 0.62
-5.93 0.22 1.18
-8.17 0.32 0.81
-5.98 0.25 1.17
-5.77 0.25 1.20
-5.74 0.27 1.21
-5.69 0.28 1.22
-5.82 0.30 1.19
-5.92 0.32 1.18
-5.90 0.33 1.18
-5.73 0.34 1.21
-5.75 0.35 1.20
-5.89 0.38 1.18
-6.01 0.40 1.16
-6.03 0.42 1.16
-6.22 0.44 1.12
-6.18 0.45 1.13
-6.23 0.47 1.12
-6.45 0.51 1.09
-6.64 0.54 1.05
-6.79 0.57 1.03
-6.78 0.58 1.03
-6.50 0.57 1.07
-6.80 0.62 1.02
-6.62 0.62 1.05
-6.61 0.63 1.06
-6.44 0.63 1.08
-6.44 0.65 1.08
-6.45 0.67 1.08
-6.56 0.69 1.06
-6.53 0.71 1.06
-6.74 0.75 1.03
-6.59 0.75 1.05
-6.54 0.76 1.06
-6.83 0.81 1.01
-6.75 0.81 1.03
-6.82 0.84 1.01
-6.71 0.84 1.03
-6.80 0.87 1.02
-6.87 0.90 1.00
-6.77 0.90 1.02
-6.86 0.93 1.00
-6.66 0.92 1.04
-5.31 0.78 1.26
-5.39 0.82 1.25
-3.70 1.15 1.50
-1.83 -1.67 1.45
-1.82 -1.52 1.46
-1.50 -1.39 1.52
-1.43 -1.35 1.53
-1.78 -1.44 1.47
-1.50 -1.34 1.52
-1.62 -1.37 1.50
-1.80 -1.41 1.47
-1.80 -1.39 1.47
-1.83 -1.38 1.47
-1.56 -1.26 1.51
-1.64 -1.21 1.50
-1.63 -1.19 1.50
-1.52 -1.12 1.52
-1.71 -1.13 1.49
-1.87 -1.16 1.46
-1.76 -1.07 1.48
-4.50 -1.67 1.03
-4.38 -1.61 1.05
-4.56 -1.56 1.02
-4.56 -1.53 1.02
-4.43 -1.42 1.04
-5.53 -1.62 0.86
-4.72 -1.44 1.00
-4.75 -1.41 0.99
-4.42 -1.30 1.05
-4.81 -1.36 0.98
-4.58 -1.26 1.02
-4.57 -1.24 1.02
-4.82 -1.27 0.98
-4.35 -1.17 1.06
-4.74 -1.22 1.00
-3.97 -1.04 1.12
-2.72 -0.83 1.33
-6.01 -1.27 0.79
-6.13 -1.25 0.77
-2.41 -0.70 1.38
-6.24 -1.22 0.75
-6.15 -1.19 0.77
-6.11 -1.16 0.77
-6.03 -1.13 0.79
-3.13 -0.73 1.26
-3.00 -0.70 1.29
-3.35 -0.73 1.23
-3.03 -0.68 1.28
-6.23 -1.06 0.75
-3.37 -0.69 1.22
-4.94 -0.86 0.97
-4.68 -0.82 1.01
-4.18 -0.74 1.09
-5.76 -0.90 0.83
-5.59 -0.86 0.86
-5.32 -0.82 0.90
-5.05 -0.77 0.95
-5.25 -0.77 0.92
-5.21 -0.75 0.92
-5.24 -0.73 0.92
-5.11 -0.70 0.94
-5.17 -0.69 0.93
-5.08 -0.66 0.94
-4.94 -0.63 0.97
-5.04 -0.62 0.95
-5.17 -0.62 0.93
-5.02 -0.59 0.95
-5.11 -0.58 0.94
-5.17 -0.56 0.93
-5.25 -0.55 0.92
-5.07 -0.52 0.94
-5.22 -0.51 0.92
-5.60 -0.52 0.86
-6.43 -0.55 0.72
-4.98 -0.44 0.96
-5.59 -0.46 0.86
-6.17 -0.35 1.15
-6.54 -0.35 1.09
-6.54 -0.33 1.09
-6.65 -0.32 1.07
-6.64 -0.31 1.07
-6.80 -0.30 1.04
-6.65 -0.27 1.07
-6.72 -0.26 1.05
-6.83 -0.25 1.04
-7.05 -0.24 1.00
-6.77 -0.21 1.05
-6.81 -0.20 1.04
-6.73 -0.18 1.05
-6.85 -0.17 1.03
-6.89 -0.15 1.03
-6.78 -0.13 1.04
-6.97 -0.12 1.01
-6.89 -0.10 1.03
-6.86 -0.08 1.03
-6.82 -0.07 1.04
-6.95 -0.05 1.01
-7.05 -0.03 1.00
-7.24 -0.02 0.97
-6.17 0.00 0.69
-6.14 0.02 0.70
-6.13 0.04 0.70
-7.13 0.05 0.93
-7.05 0.09 0.94
-7.19 0.12 0.92
-7.16 0.14 0.92
-7.24 0.16 0.91
-7.38 0.18 0.88
-7.36 0.20 0.89
-5.70 0.18 1.17
-5.63 0.21 1.18
-5.69 0.22 1.17
-5.87 0.24 1.14
-5.72 0.25 1.17
-5.71 0.26 1.17
-5.69 0.29 1.17
-5.73 0.32 1.16
-5.72 0.34 1.17
-5.50 0.34 1.20
-5.65 0.36 1.18
-5.51 0.36 1.20
-5.57 0.40 1.19
-5.46 0.42 1.21
-5.63 0.44 1.18
-5.85 0.47 1.14
-6.09 0.51 1.10
-6.38 0.55 1.05
-6.42 0.57 1.04
-6.41 0.58 1.04
-6.49 0.62 1.02
-6.20 0.61 1.07
-6.34 0.64 1.05
-6.46 0.66 1.03
-6.46 0.68 1.03
-6.51 0.72 1.02
-6.51 0.75 1.02
-6.60 0.78 1.00
-6.67 0.80 0.99
-6.63 0.81 0.99
-6.49 0.81 1.02
-6.71 0.87 0.98
-6.69 0.89 0.98
-5.65 0.82 1.16
-3.84 0.77 1.47
-3.94 0.85 1.44
-3.83 0.91 1.46
-4.23 1.11 1.38
-1.06 -1.33 1.56
-1.67 -1.54 1.45
-1.37 -1.41 1.51
-1.60 -1.49 1.47
-1.38 -1.39 1.51
-1.20 -1.30 1.54
-1.72 -1.48 1.45
-1.73 -1.45 1.45
-1.50 -1.35 1.49
-1.47 -1.31 1.50
-1.64 -1.34 1.47
-1.53 -1.29 1.49
-1.50 -1.25 1.49
-1.46 -1.23 1.50
-1.70 -1.29 1.46
-1.91 -1.35 1.42
-1.46 -1.20 1.50
-1.68 -1.26 1.46
-1.77 -1.27 1.45
-1.40 -1.15 1.51
-1.34 -1.12 1.52
-1.51 -1.14 1.49
-1.53 -1.13 1.49
-1.48 -1.11 1.50
-1.45 -1.09 1.51
-1.36 -1.05 1.52
-1.51 -1.09 1.50
-1.58 -1.10 1.48
-1.41 -1.04 1.51
-1.31 -1.00 1.53
-1.36 -1.01 1.52
-1.41 -1.01 1.51
-1.60 -1.05 1.48
-1.41 -0.99 1.52
-1.50 -1.01 1.50
-1.52 -1.00 1.50
-1.62 -1.02 1.48
-1.78 -1.04 1.45
-4.47 -1.66 0.98
-4.61 -1.66 0.95
-4.54 -1.62 0.97
-4.46 -1.57 0.98
-4.44 -1.55 0.99
-4.67 -1.58 0.95
-4.81 -1.60 0.92
-4.57 -1.53 0.96
-4.24 -1.42 1.02
-4.35 -1.38 1.00
-1.93 -0.88 1.43
-4.34 -1.33 1.01
-2.11 -0.88 1.40
-2.22 -0.89 1.38
-4.32 -1.28 1.01
-3.78 -1.16 1.11
-4.43 -1.25 0.99
-4.44 -1.21 0.99
-2.05 -0.76 1.41
-2.65 -0.81 1.30
-2.14 -0.71 1.39
-2.40 -0.71 1.35
-2.69 -0.73 1.30
-2.54 -0.70 1.32
-2.60 -0.70 1.31
-2.53 -0.67 1.33
-2.94 -0.72 1.26
-2.97 -0.71 1.25
-2.77 -0.67 1.29
-3.11 -0.70 1.23
-2.94 -0.67 1.26
-3.15 -0.68 1.22
-3.80 -0.74 1.11
-3.83 -0.73 1.10
-4.56 -0.80 0.97
-4.34 -0.76 1.01
-4.34 -0.74 1.01
-5.43 -0.84 0.82
-5.03 -0.78 0.90
-5.33 -0.79 0.84
-5.24 -0.77 0.86
-5.19 -0.74 0.87
-5.17 -0.72 0.87
-4.98 -0.69 0.90
-5.02 -0.67 0.90
-4.95 -0.65 0.91
-4.72 -0.61 0.95
-4.84 -0.61 0.93
-4.83 -0.59 0.93
-4.81 -0.57 0.93
-4.85 -0.55 0.93
-4.87 -0.54 0.92
-5.02 -0.53 0.90
-5.02 -0.51 0.90
-5.05 -0.50 0.89
-5.03 -0.48 0.89
-5.01 -0.46 0.90
-6.68 -0.54 0.61
-5.20 -0.44 0.86
-5.63 -0.44 0.79
-5.43 -0.41 0.82
-5.67 -0.41 0.78
-5.63 -0.38 0.79
-5.02 -0.34 0.90
-5.37 -0.33 0.84
-5.21 -0.31 0.86
-5.29 -0.29 0.85
-5.60 -0.29 0.80
-5.53 -0.27 0.81
-5.44 -0.24 0.82
-5.62 -0.23 0.79
-5.63 -0.21 0.79
-5.68 -0.19 0.78
-5.72 -0.17 0.77
-5.74 -0.16 0.77
-5.70 -0.14 0.78
-5.76 -0.12 0.77
-5.89 -0.10 0.74
-5.93 -0.08 0.74
-6.21 -0.06 0.69
-5.85 -0.04 0.75
-6.20 -0.02 0.69
-6.95 -0.00 0.90
-7.08 0.02 0.88
-7.08 0.03 0.88
-7.12 0.05 0.87
-7.25 0.07 0.85
-7.26 0.09 0.84
-7.40 0.11 0.82
-7.39 0.12 0.82
-7.43 0.14 0.81
-7.30 0.16 0.84
-7.34 0.18 0.83
-7.26 0.19 0.84
-6.00 0.18 1.07
-7.42 0.23 0.81
-7.54 0.26 0.79
-6.09 0.22 1.05
-5.94 0.23 1.08
-6.00 0.25 1.07
-6.09 0.27 1.05
-6.01 0.28 1.06
-5.87 0.29 1.09
-5.90 0.30 1.08
-5.92 0.32 1.08
-5.74 0.32 1.11
-5.78 0.34 1.10
-5.93 0.36 1.08
-5.70 0.36 1.12
-5.68 0.38 1.12
-5.83 0.40 1.09
-6.09 0.43 1.05
-5.54 0.41 1.14
-6.27 0.48 1.01
-8.16 0.63 0.67
-6.12 0.49 1.04
-6.15 0.51 1.03
-6.22 0.53 1.02
-6.35 0.56 0.99
-6.17 0.56 1.03
-6.25 0.58 1.01
-6.30 0.60 1.00
-6.50 0.64 0.97
-6.35 0.64 0.99
-6.34 0.65 0.99
-6.31 0.67 1.00
-6.25 0.68 1.01
-6.41 0.71 0.98
-6.42 0.73 0.98
-6.41 0.74 0.98
-6.46 0.76 0.97
-6.34 0.76 0.99
-6.45 0.79 0.97
-6.40 0.80 0.98
-6.55 0.84 0.95
-6.51 0.85 0.96
-6.58 0.87 0.94
-6.57 0.89 0.94
-6.62 0.91 0.93
-6.53 0.92 0.95
-6.22 0.89 1.01
-5.84 0.85 1.08
-7.61 1.12 0.75
-6.43 0.97 0.97
-6.39 0.98 0.97
-6.67 1.04 0.92
-6.83 1.08 0.89
-6.66 1.07 0.92
-6.98 1.14 0.86
-6.85 1.13 0.88
-6.86 1.15 0.88
-7.16 1.22 0.83
-7.05 1.22 0.85
-6.92 1.21 0.87
-6.92 1.23 0.87
-6.98 1.26 0.86
-7.05 1.29 0.84
-6.91 1.28 0.87
-7.06 1.33 0.84
-6.96 1.33 0.86
-6.98 1.35 0.85
-7.34 1.44 0.78
-7.26 1.44 0.80
-4.23 1.09 1.34
-2.10 -1.57 1.34
-2.32 -1.63 1.30
-2.17 -1.55 1.33
-1.97 -1.47 1.37
-2.14 -1.45 1.34
-2.67 -1.61 1.24
-2.71 -1.57 1.23
-2.23 -1.38 1.33
-3.00 -1.59 1.18
-2.11 -1.30 1.35
-2.07 -1.22 1.36
-2.30 -1.26 1.32
-1.83 -1.10 1.40
-2.34 -1.20 1.31
-2.00 -1.08 1.38
-2.06 -1.09 1.36
-4.68 -1.68 0.88
-4.78 -1.68 0.87
-4.73 -1.63 0.88
-4.61 -1.59 0.90
-4.47 -1.54 0.92
-4.52 -1.53 0.92
-4.69 -1.56 0.88
-4.82 -1.57 0.86
-4.51 -1.48 0.92
-4.56 -1.48 0.91
-4.45 -1.44 0.93
-4.59 -1.45 0.90
-4.81 -1.48 0.86
-4.95 -1.49 0.84
-4.91 -1.46 0.85
-4.50 -1.36 0.92
-4.50 -1.34 0.92
-4.65 -1.36 0.89
-4.99 -1.40 0.83
-5.14 -1.41 0.81
-5.06 -1.38 0.82
-4.05 -1.18 1.01
-5.54 -1.43 0.73
-4.83 -1.29 0.86
-4.36 -1.19 0.95
-4.15 -1.13 0.99
-4.17 -1.12 0.98
-4.16 -1.10 0.99
-4.06 -1.07 1.01
-3.84 -1.02 1.05
-4.18 -1.06 0.98
-3.76 -0.98 1.06
-4.09 -1.01 1.00
-3.86 -0.96 1.04
-3.59 -0.91 1.09
-3.87 -0.93 1.04
-3.67 -0.89 1.08
-3.32 -0.82 1.14
-3.65 -0.86 1.08
-3.75 -0.86 1.06
-3.70 -0.83 1.07
-4.11 -0.87 1.00
-3.74 -0.81 1.06
-3.87 -0.81 1.04
-4.03 -0.82 1.01
-4.10 -0.81 1.00
-4.59 -0.86 0.91
-4.54 -0.83 0.92
-4.52 -0.81 0.92
-4.39 -0.78 0.95
-4.47 -0.77 0.93
-4.90 -0.81 0.86
-4.89 -0.79 0.86
-4.37 -0.71 0.95
-4.67 -0.73 0.90
-4.80 -0.73 0.87
-4.76 -0.70 0.88
-5.14 -0.72 0.81
-4.89 -0.68 0.86
-4.73 -0.65 0.89
-4.91 -0.65 0.85
-4.82 -0.62 0.87
-4.93 -0.61 0.85
-4.86 -0.59 0.86
-4.97 -0.58 0.84
-5.13 -0.58 0.81
-5.33 -0.57 0.78
-5.15 -0.54 0.81
-5.39 -0.54 0.77
-5.32 -0.52 0.78
-5.16 -0.49 0.81
-5.19 -0.47 0.80
-5.09 -0.45 0.82
-5.18 -0.44 0.80
-5.69 -0.45 0.71
-5.12 -0.40 0.82
-4.94 -0.37 0.85
-5.04 -0.36 0.83
-5.26 -0.35 0.79
-5.31 -0.33 0.78
-5.30 -0.31 0.78
-5.60 -0.31 0.73
-5.45 -0.28 0.75
-5.70 -0.27 0.71
-5.61 -0.25 0.73
-5.64 -0.23 0.72
-5.65 -0.21 0.72
-5.73 -0.20 0.70
-5.52 -0.17 0.74
-5.30 -0.15 0.78
-5.37 -0.13 0.77
-6.79 -0.10 0.93
-6.92 -0.08 0.91
-6.81 -0.07 0.93
-6.95 -0.05 0.90
-7.02 -0.03 0.89
-6.84 -0.02 0.92
-5.92 -0.00 0.60
-5.94 0.02 0.59
-4.68 0.03 0.83
-5.75 0.06 0.63
-6.36 0.08 0.51
-6.06 0.10 0.57
-5.37 0.11 0.70
-5.12 0.13 0.74
-4.80 0.14 0.81
-4.85 0.16 0.80
-4.61 0.17 0.84
-6.20 0.16 0.98
-5.86 0.17 1.04
-5.68 0.18 1.08
-5.37 0.18 1.14
-5.33 0.19 1.14
-5.86 0.23 1.04
-5.76 0.24 1.06
-5.67 0.25 1.08
-5.70 0.26 1.07
-6.05 0.29 1.01
-5.77 0.30 1.06
-5.66 0.30 1.08
-5.59 0.31 1.09
-5.66 0.33 1.08
-5.84 0.36 1.04
-5.55 0.35 1.10
-5.57 0.37 1.09
-5.59 0.38 1.09
-5.32 0.38 1.14
-5.61 0.41 1.08
-5.56 0.42 1.09
-5.55 0.43 1.10
-5.67 0.46 1.07
-5.61 0.47 1.08
-5.70 0.49 1.06
-5.55 0.49 1.09
-5.35 0.49 1.13
-5.75 0.54 1.05
-5.59 0.53 1.08
-5.73 0.56 1.06
-6.07 0.61 0.99
-5.88 0.60 1.03
-5.71 0.60 1.06
-6.19 0.67 0.97
-5.34 0.59 1.13
-5.37 0.61 1.12
-5.17 0.60 1.16
-5.44 0.64 1.11
-5.24 0.63 1.15
-5.33 0.66 1.13
-5.11 0.64 1.17
-5.04 0.65 1.18
-6.01 0.78 1.00
-5.19 0.69 1.15
-5.21 0.71 1.15
-4.98 0.69 1.19
-5.14 0.73 1.16
-4.98 0.72 1.19
-4.84 0.76 1.21
-1.78 -1.66 1.36
-1.73 -1.63 1.37
-1.34 -1.46 1.45
-1.42 -1.49 1.43
-1.65 -1.57 1.39
-1.30 -1.42 1.46
-1.46 -1.47 1.42
-1.38 -1.43 1.44
-1.46 -1.45 1.42
-1.44 -1.43 1.43
-1.54 -1.46 1.41
-1.51 -1.44 1.42
-1.55 -1.44 1.41
-1.33 -1.35 1.45
-1.45 -1.38 1.43
-1.74 -1.47 1.37
-1.75 -1.47 1.37
-1.51 -1.37 1.42
-1.82 -1.47 1.36
-1.63 -1.39 1.40
-1.57 -1.36 1.41
-1.57 -1.35 1.41
-1.67 -1.36 1.39
-1.57 -1.30 1.41
-1.58 -1.29 1.41
-1.43 -1.23 1.44
-1.50 -1.25 1.43
-1.39 -1.20 1.45
-1.69 -1.29 1.39
-1.61 -1.25 1.40
-1.59 -1.24 1.41
-1.66 -1.25 1.40
-1.37 -1.15 1.45
-1.32 -1.12 1.46
-1.44 -1.15 1.44
-1.75 -1.24 1.38
-1.42 -1.13 1.44
-1.31 -1.08 1.47
-1.65 -1.17 1.40
-1.46 -1.11 1.44
-1.50 -1.11 1.43
-1.53 -1.11 1.42
-1.76 -1.15 1.38
-1.33 -1.03 1.46
-1.48 -1.06 1.43
-1.77 -1.13 1.38
-1.59 -1.07 1.41
-1.89 -1.14 1.36
-1.95 -1.13 1.34
-2.22 -1.19 1.29
-1.50 -1.00 1.43
-1.72 -1.04 1.39
-1.92 -1.05 1.35
-4.55 -1.68 0.85
-1.91 -1.03 1.35
-4.70 -1.68 0.82
-4.63 -1.64 0.83
-4.69 -1.64 0.82
-4.73 -1.61 0.81
-1.70 -0.92 1.40
-1.61 -0.89 1.41
-1.26 -0.80 1.48
-4.94 -1.59 0.78
-1.16 -0.76 1.50
-4.82 -1.53 0.80
-4.48 -1.44 0.87
-4.71 -1.47 0.82
-4.54 -1.42 0.85
-4.59 -1.41 0.84
-4.52 -1.38 0.86
-1.81 -0.83 1.38
-4.51 -1.34 0.86
-4.27 -1.28 0.91
-4.37 -1.28 0.89
-3.95 -1.17 0.97
-3.69 -1.11 1.02
-2.19 -0.81 1.31
-1.89 -0.74 1.36
-2.24 -0.79 1.30
-2.11 -0.76 1.32
-2.10 -0.72 1.32
-2.05 -0.69 1.33
-2.93 -0.82 1.17
-3.00 -0.81 1.15
-2.92 -0.79 1.17
-3.04 -0.79 1.15
-3.35 -0.83 1.09
-2.79 -0.73 1.19
-3.14 -0.77 1.13
-2.55 -0.68 1.24
-2.55 -0.66 1.24
-2.58 -0.66 1.23
-3.21 -0.73 1.11
-3.41 -0.74 1.08
-3.47 -0.73 1.07
-5.85 -1.01 0.61
-3.78 -0.74 1.01
-4.23 -0.78 0.92
-5.70 -0.93 0.64
-4.88 -0.82 0.80
-4.44 -0.75 0.88
-4.47 -0.74 0.87
-5.54 -0.84 0.67
-4.76 -0.74 0.82
-4.61 -0.70 0.85
-4.41 -0.67 0.89
-4.68 -0.68 0.84
-4.84 -0.68 0.81
-4.97 -0.67 0.78
-4.97 -0.65 0.78
-5.56 -0.69 0.67
-5.49 -0.66 0.68
-4.89 -0.59 0.80
-5.16 -0.60 0.75
-5.09 -0.57 0.76
-5.25 -0.57 0.73
-5.30 -0.55 0.72
-5.22 -0.53 0.73
-5.26 -0.51 0.73
-5.33 -0.50 0.71
-5.17 -0.47 0.74
-5.01 -0.44 0.77
-5.27 -0.44 0.72
-5.17 -0.42 0.74
-5.59 -0.42 0.66
-5.72 -0.41 0.64
-5.73 -0.39 0.64
-5.98 -0.38 0.59
-5.72 -0.35 0.64
-5.67 -0.33 0.65
-5.63 -0.31 0.66
-5.63 -0.29 0.66
-5.86 -0.28 0.61
-5.64 -0.25 0.65
-5.72 -0.23 0.64
-5.74 -0.21 0.63
-5.46 -0.19 0.69
-5.51 -0.17 0.67
-5.49 -0.15 0.68
-5.67 -0.14 0.65
-5.75 -0.12 0.63
-5.66 -0.10 0.65
-5.70 -0.08 0.64
-5.79 -0.06 0.62
-5.73 -0.04 0.63
-5.98 -0.02 0.59
-7.16 -0.00 0.73
-7.13 0.02 0.74
-7.20 0.03 0.73
-7.24 0.05 0.72
-7.24 0.07 0.72
-7.20 0.09 0.72
-7.37 0.11 0.69
-7.52 0.13 0.66
-7.55 0.14 0.66
-7.58 0.16 0.65
-7.49 0.18 0.67
-5.90 0.16 0.98
-5.89 0.17 0.98
-6.03 0.19 0.95
-6.06 0.21 0.95
-5.96 0.22 0.97
-5.90 0.23 0.98
-5.97 0.25 0.96
-6.06 0.27 0.95
-6.02 0.28 0.95
-5.90 0.29 0.98
-5.93 0.30 0.97
-5.98 0.32 0.96
-5.92 0.33 0.97
-5.80 0.34 0.99
-5.78 0.35 1.00
-5.84 0.37 0.99
-6.01 0.40 0.95
-5.91 0.40 0.97
-5.87 0.42 0.98
-5.94 0.44 0.96
-5.92 0.45 0.97
-5.92 0.46 0.97
-5.83 0.47 0.98
-5.89 0.49 0.97
-6.20 0.53 0.91
-6.34 0.56 0.88
-6.48 0.59 0.85
-5.60 0.52 1.03
-5.83 0.56 0.98
-6.16 0.60 0.92
-6.14 0.62 0.92
-6.33 0.65 0.88
-6.25 0.66 0.89
-6.22 0.67 0.90
-6.39 0.71 0.87
-6.13 0.69 0.92
-6.05 0.70 0.93
-6.24 0.74 0.89
-6.50 0.78 0.84
-6.40 0.79 0.86
-6.49 0.81 0.84
-6.46 0.83 0.85
-6.44 0.84 0.85
-5.45 0.73 1.05
-6.68 0.90 0.80
-5.57 0.77 1.02
-5.16 0.73 1.11
-5.17 0.75 1.10
-5.25 0.77 1.09
-5.33 0.79 1.07
-5.24 0.80 1.09
-5.71 0.88 0.99
-5.32 0.83 1.07
-5.32 0.85 1.07
-5.34 0.86 1.06
-5.33 0.88 1.06
-5.39 0.90 1.05
-5.08 0.86 1.11
-4.97 0.91 1.13
-7.96 1.53 0.52
-2.07 -1.57 1.26
-2.04 -1.55 1.27
-2.29 -1.50 1.22
-2.17 -1.34 1.25
-2.10 -1.30 1.27
-2.99 -1.47 1.09
-2.15 -1.18 1.26
-4.44 -1.69 0.80
-4.42 -1.67 0.81
-4.55 -1.66 0.78
-4.56 -1.65 0.78
-4.78 -1.69 0.73
-4.77 -1.66 0.74
-4.72 -1.63 0.75
-4.64 -1.60 0.76
-4.58 -1.57 0.78
-4.68 -1.57 0.76
-4.81 -1.58 0.73
-4.76 -1.56 0.74
-4.54 -1.49 0.79
-4.43 -1.45 0.81
-4.49 -1.45 0.80
-4.86 -1.51 0.72
-4.68 -1.45 0.76
-4.83 -1.46 0.73
-4.81 -1.44 0.74
-4.69 -1.40 0.76
-4.95 -1.43 0.71
-4.27 -1.29 0.84
-4.28 -1.27 0.84
-4.23 -1.25 0.85
-5.22 -1.41 0.66
-4.13 -1.20 0.87
-4.04 -1.16 0.89
-3.73 -1.08 0.95
-3.90 -1.09 0.92
-3.96 -1.09 0.91
-3.85 -1.05 0.93
-4.58 -1.16 0.79
-3.95 -1.04 0.91
-4.52 -1.12 0.80
-3.98 -1.01 0.91
-3.58 -0.94 0.99
-3.33 -0.88 1.03
-3.30 -0.87 1.04
-3.42 -0.87 1.02
-3.06 -0.80 1.09
-3.34 -0.83 1.03
-3.51 -0.84 1.00
-3.33 -0.80 1.04
-3.25 -0.78 1.05
-3.64 -0.81 0.97
-3.65 -0.80 0.97
-3.66 -0.79 0.97
-3.75 -0.78 0.95
-5.63 -1.00 0.58
-5.42 -0.96 0.62
-5.52 -0.95 0.60
-5.37 -0.91 0.63
-4.23 -0.77 0.86
-5.21 -0.86 0.66
-4.81 -0.80 0.74
-4.51 -0.75 0.80
-4.54 -0.73 0.80
-4.48 -0.71 0.81
-4.38 -0.68 0.83
-4.30 -0.66 0.84
-4.57 -0.67 0.79
-5.42 -0.73 0.62
-4.62 -0.64 0.78
-4.67 -0.63 0.77
-4.49 -0.60 0.81
-4.61 -0.59 0.78
-4.66 -0.58 0.77
-5.31 -0.61 0.65
-5.31 -0.59 0.65
-5.19 -0.56 0.67
-4.90 -0.53 0.73
-4.94 -0.51 0.72
-5.04 -0.50 0.70
-5.11 -0.49 0.68
-5.06 -0.47 0.69
-4.94 -0.44 0.72
-5.01 -0.43 0.70
-5.34 -0.43 0.64
-5.43 -0.41 0.62
-5.82 -0.41 0.54
-5.64 -0.39 0.58
-5.35 -0.35 0.64
-5.04 -0.32 0.70
-5.23 -0.31 0.66
-5.45 -0.30 0.62
-6.46 -0.24 0.87
-6.52 -0.22 0.86
-6.46 -0.21 0.88
-6.48 -0.19 0.87
-6.55 -0.18 0.86
-6.61 -0.16 0.84
-6.55 -0.14 0.86
-6.56 -0.13 0.85
-6.82 -0.12 0.80
-6.98 -0.10 0.77
-6.93 -0.09 0.78
-6.92 -0.07 0.78
-6.99 -0.05 0.77
-7.07 -0.04 0.75
-7.20 -0.02 0.73
-2.96 -0.00 1.07
-5.94 0.02 0.45
-6.48 0.04 0.34
-6.24 0.06 0.39
-6.79 0.09 0.27
-2.76 0.06 1.11
-2.71 0.07 1.11
-7.13 0.16 0.20
-5.42 0.19 0.55
-4.88 0.24 0.66
-4.27 0.24 0.79
-4.28 0.25 0.79
-4.32 0.27 0.78
-4.19 0.30 0.80
-5.73 0.28 0.97
-5.58 0.28 1.00
-5.65 0.30 0.98
-5.73 0.32 0.97
-5.59 0.33 0.99
-5.72 0.35 0.97
-5.52 0.35 1.01
-5.74 0.38 0.96
-5.81 0.40 0.95
-5.78 0.41 0.95
-5.80 0.42 0.95
-5.82 0.44 0.94
-5.27 0.41 1.06
-5.64 0.45 0.98
-5.14 0.43 1.08
-5.50 0.47 1.01
-5.27 0.46 1.06
-5.42 0.49 1.02
-5.21 0.48 1.07
-5.34 0.51 1.04
-5.57 0.54 0.99
-5.55 0.56 0.99
-5.53 0.57 1.00
-5.34 0.56 1.04
-5.27 0.57 1.05
-5.11 0.57 1.08
-5.15 0.58 1.07
-5.32 0.61 1.04
-5.16 0.61 1.07
-5.65 0.68 0.97
-5.01 0.62 1.10
-5.00 0.63 1.10
-5.09 0.65 1.08
-4.86 0.65 1.13
-5.10 0.69 1.08
-4.94 0.68 1.11
-4.95 0.70 1.11
-4.87 0.70 1.12
-4.84 0.71 1.13
-4.86 0.72 1.13
-4.50 0.73 1.20
-4.01 0.67 1.30
-7.22 1.37 0.62
-1.40 -1.20 1.38
-1.43 -1.19 1.37
-1.35 -1.16 1.39
-1.05 -1.04 1.46
-1.36 -1.13 1.39
-1.44 -1.14 1.37
-1.19 -1.06 1.43
-1.27 -1.07 1.41
-1.41 -1.09 1.38
-1.17 -1.01 1.43
-1.16 -1.00 1.43
-1.92 -1.17 1.28
-2.23 -1.23 1.21
-4.44 -1.68 0.75
-4.54 -1.69 0.73
-4.54 -1.67 0.73
-4.52 -1.65 0.73
-4.75 -1.67 0.69
-4.63 -1.63 0.71
-4.56 -1.59 0.73
-4.56 -1.57 0.73
-4.81 -1.61 0.67
-1.28 -0.81 1.42
-4.49 -1.51 0.74
-5.29 -1.65 0.58
-5.49 -1.67 0.53
-5.10 -1.57 0.62
-5.76 -1.69 0.48
-4.01 -1.25 0.85
-4.09 -1.25 0.83
-5.13 -1.43 0.61
-4.03 -1.20 0.84
-3.96 -1.16 0.86
-5.77 -1.45 0.48
-3.27 -0.94 1.00
-2.33 -0.77 1.20
-2.29 -0.74 1.21
-2.60 -0.78 1.14
-2.16 -0.70 1.24
-2.55 -0.75 1.16
-2.58 -0.74 1.15
-2.44 -0.71 1.18
-2.31 -0.68 1.20
-2.52 -0.70 1.16
-2.58 -0.69 1.15
-2.33 -0.65 1.20
-2.51 -0.66 1.16
-2.56 -0.65 1.15
-2.67 -0.66 1.13
-2.86 -0.67 1.09
-2.50 -0.61 1.17
-3.67 -0.74 0.92
-3.11 -0.66 1.04
-3.18 -0.65 1.03
-2.90 -0.61 1.08
-3.57 -0.67 0.94
-5.29 -0.85 0.59
-5.35 -0.83 0.58
-4.96 -0.77 0.66
-4.86 -0.75 0.68
-5.06 -0.75 0.64
-4.79 -0.71 0.69
-4.63 -0.67 0.73
-4.87 -0.68 0.68
-5.06 -0.68 0.64
-6.40 -0.78 0.36
-4.48 -0.59 0.76
-4.55 -0.58 0.74
-4.81 -0.59 0.69
-5.02 -0.59 0.65
-4.95 -0.56 0.66
-5.02 -0.55 0.65
-5.06 -0.54 0.64
-5.08 -0.52 0.63
-4.95 -0.49 0.66
-5.22 -0.49 0.60
-5.27 -0.48 0.59
-5.05 -0.45 0.64
-4.99 -0.42 0.65
-5.28 -0.42 0.59
-5.18 -0.40 0.61
-5.30 -0.39 0.59
-5.79 -0.39 0.49
-5.42 -0.36 0.56
-5.02 -0.32 0.64
-5.14 -0.31 0.62
-5.45 -0.30 0.55
-5.95 -0.30 0.45
-5.70 -0.27 0.50
-5.79 -0.26 0.48
-5.75 -0.24 0.49
-5.55 -0.21 0.53
-5.43 -0.19 0.56
-5.61 -0.17 0.52
-5.52 -0.15 0.54
-5.49 -0.13 0.55
-5.61 -0.12 0.52
-5.73 -0.10 0.49
-5.63 -0.08 0.52
-2.89 -0.04 1.08
-5.89 -0.04 0.46
-2.86 -0.01 1.08
-7.23 -0.00 0.59
-7.19 0.01 0.60
-7.27 0.03 0.58
-6.39 0.04 0.77
-7.49 0.07 0.53
-7.69 0.09 0.49
-7.68 0.11 0.49
-7.84 0.13 0.45
-6.38 0.12 0.77
-6.13 0.13 0.82
-5.96 0.14 0.86
-5.87 0.16 0.88
-5.77 0.17 0.90
-5.91 0.19 0.87
-5.81 0.20 0.89
-5.78 0.21 0.89
-6.09 0.24 0.83
-5.90 0.24 0.87
-5.86 0.26 0.88
-5.92 0.27 0.86
-5.97 0.29 0.85
-5.91 0.30 0.86
-5.98 0.32 0.85
-6.01 0.34 0.84
-6.05 0.35 0.83
-5.73 0.35 0.90
-5.89 0.37 0.87
-5.99 0.40 0.84
-5.87 0.40 0.87
-5.63 0.40 0.92
-5.17 0.38 1.02
-4.93 0.38 1.07
-4.93 0.39 1.07
-5.00 0.41 1.06
-5.01 0.42 1.05
-5.11 0.44 1.03
-5.08 0.45 1.04
-5.26 0.48 1.00
-5.36 0.50 0.98
-5.34 0.51 0.98
-5.35 0.53 0.98
-5.37 0.54 0.97
-5.76 0.60 0.88
-5.89 0.62 0.86
-5.51 0.60 0.94
-5.14 0.57 1.02
-5.21 0.59 1.00
-5.14 0.60 1.02
-5.08 0.60 1.03
-5.08 0.62 1.03
-5.20 0.64 1.00
-5.18 0.65 1.01
-5.22 0.67 1.00
-5.19 0.68 1.00
-5.05 0.68 1.03
-5.11 0.70 1.02
-5.09 0.71 1.02
-5.19 0.73 1.00
-5.07 0.73 1.03
-5.04 0.74 1.03
-4.97 0.74 1.05
-5.02 0.76 1.03
-5.10 0.79 1.02
-5.10 0.80 1.02
-5.20 0.83 0.99
-5.11 0.83 1.01
-5.23 0.86 0.99
-5.31 0.89 0.97
-5.62 0.95 0.90
-5.35 0.93 0.96
-5.68 1.02 0.88
-4.52 0.87 1.13
-4.97 0.96 1.03
-6.93 1.56 0.59
-4.06 0.94 1.23
-4.38 -1.69 0.69
-4.35 -1.67 0.69
-4.36 -1.65 0.69
-4.40 -1.65 0.68
-4.45 -1.64 0.67
-4.41 -1.62 0.68
-4.41 -1.60 0.68
-4.30 -1.56 0.71
-4.66 -1.62 0.63
-4.58 -1.59 0.65
-4.98 -1.66 0.56
-4.69 -1.58 0.62
-4.89 -1.61 0.58
-4.79 -1.57 0.60
-4.65 -1.52 0.64
-4.68 -1.51 0.63
-4.84 -1.52 0.59
-4.82 -1.50 0.60
-4.62 -1.44 0.64
-4.13 -1.33 0.75
-5.11 -1.50 0.54
-5.28 -1.52 0.50
-4.18 -1.29 0.74
-3.81 -1.20 0.82
-3.79 -1.18 0.83
-3.87 -1.18 0.81
-3.79 -1.15 0.83
-3.69 -1.12 0.85
-3.59 -1.08 0.87
-3.68 -1.09 0.85
-3.58 -1.05 0.87
-3.72 -1.06 0.84
-3.71 -1.05 0.85
-3.70 -1.03 0.85
-3.58 -1.00 0.87
-3.65 -0.99 0.86
-3.56 -0.96 0.88
-3.59 -0.95 0.87
-3.52 -0.93 0.89
-3.92 -0.98 0.80
-3.99 -0.97 0.79
-4.17 -0.98 0.75
-3.95 -0.93 0.80
-4.14 -0.94 0.76
-4.13 -0.93 0.76
-3.58 -0.84 0.88
-3.01 -0.74 1.00
-4.27 -0.90 0.73
-4.08 -0.86 0.77
-4.10 -0.85 0.76
-4.59 -0.89 0.66
-4.32 -0.84 0.72
-4.45 -0.84 0.69
-5.43 -0.94 0.48
-5.35 -0.91 0.50
-5.22 -0.88 0.52
-5.30 -0.87 0.51
-5.37 -0.86 0.49
-5.23 -0.83 0.52
-5.37 -0.82 0.49
-5.26 -0.79 0.51
-4.83 -0.73 0.61
-4.89 -0.72 0.60
-4.92 -0.71 0.59
-5.08 -0.70 0.55
-5.23 -0.70 0.52
-5.78 -0.73 0.40
-5.30 -0.67 0.51
-4.54 -0.58 0.67
-4.42 -0.56 0.70
-4.52 -0.55 0.68
-4.38 -0.52 0.71
-4.93 -0.55 0.59
-4.71 -0.51 0.63
-4.72 -0.50 0.63
-4.87 -0.49 0.60
-4.96 -0.48 0.58
-4.85 -0.45 0.60
-4.81 -0.43 0.61
-4.82 -0.42 0.61
-6.74 -0.38 0.70
-6.73 -0.36 0.70
-6.67 -0.34 0.71
-6.72 -0.33 0.70
-6.61 -0.31 0.73
-6.56 -0.29 0.74
-6.60 -0.27 0.73
-6.68 -0.26 0.71
-6.54 -0.24 0.74
-6.60 -0.23 0.73
-6.76 -0.22 0.69
-6.76 -0.20 0.69
-6.66 -0.18 0.71
-6.78 -0.17 0.69
-6.75 -0.15 0.69
-6.80 -0.13 0.68
-6.87 -0.12 0.67
-6.87 -0.10 0.67
-6.92 -0.09 0.66
-7.00 -0.07 0.64
-7.01 -0.05 0.64
-7.13 -0.04 0.61
-7.19 -0.02 0.60
-3.08 -0.00 0.93
-3.23 0.01 0.90
-2.64 0.02 1.03
-4.70 0.03 1.09
-7.34 0.07 0.49
-7.55 0.11 0.44
-8.17 0.15 0.30
-6.32 0.14 0.72
-6.15 0.18 0.76
-5.67 0.19 0.87
-5.82 0.21 0.83
-5.56 0.23 0.89
-5.73 0.26 0.85
-5.81 0.28 0.83
-5.75 0.31 0.84
-6.00 0.33 0.79
-6.19 0.38 0.74
-5.68 0.36 0.86
-5.54 0.36 0.89
-4.91 0.34 1.03
-5.30 0.39 0.94
-5.22 0.40 0.96
-4.96 0.40 1.02
-5.04 0.43 1.00
-4.97 0.44 1.01
-4.86 0.45 1.04
-5.00 0.48 1.01
-4.88 0.49 1.03
-4.85 0.51 1.04
-4.86 0.53 1.03
-4.71 0.54 1.07
-4.81 0.57 1.04
-4.91 0.59 1.02
-4.90 0.62 1.02
-4.93 0.63 1.01
-4.95 0.66 1.01
-4.81 0.66 1.04
-5.07 0.72 0.98
-4.94 0.72 1.01
-4.98 0.74 1.00
-5.07 0.78 0.98
-4.99 0.78 0.99
-5.03 0.81 0.98
-5.01 0.83 0.99
-4.83 0.82 1.02
-4.12 0.73 1.19
-4.37 -1.47 0.63
-4.53 -1.49 0.60
-4.21 -1.40 0.67
-4.21 -1.39 0.67
-4.12 -1.35 0.69
-4.02 -1.32 0.71
-3.81 -1.26 0.76
-3.55 -1.19 0.82
-3.55 -1.18 0.82
-3.87 -1.22 0.75
-3.70 -1.18 0.79
-3.68 -1.16 0.79
-3.71 -1.15 0.79
-3.67 -1.13 0.80
-3.61 -1.10 0.81
-3.55 -1.07 0.83
-3.59 -1.07 0.82
-3.55 -1.05 0.83
-3.58 -1.04 0.82
-3.54 -1.01 0.83
-3.60 -1.01 0.81
-3.75 -1.02 0.78
-3.36 -0.94 0.87
-3.59 -0.96 0.82
-3.17 -0.88 0.91
-3.23 -0.88 0.90
-3.40 -0.89 0.86
-3.37 -0.87 0.87
-3.39 -0.86 0.87
-3.24 -0.83 0.90
-3.56 -0.86 0.83
-3.38 -0.82 0.87
-3.68 -0.85 0.80
-3.67 -0.83 0.80
-3.86 -0.84 0.76
-3.28 -0.75 0.89
-4.00 -0.83 0.73
-3.77 -0.79 0.78
-3.77 -0.77 0.78
-3.89 -0.77 0.75
-3.68 -0.73 0.80
-4.71 -0.84 0.57
-5.11 -0.86 0.48
-4.52 -0.78 0.61
-4.84 -0.80 0.54
-4.59 -0.76 0.60
-4.57 -0.74 0.60
-4.59 -0.72 0.59
-4.57 -0.70 0.60
-4.36 -0.67 0.65
-4.11 -0.63 0.70
-5.56 -0.74 0.38
-4.92 -0.67 0.52
-4.94 -0.65 0.52
-6.29 -0.75 0.21
-2.12 -0.38 1.15
-1.79 -0.34 1.23
-1.80 -0.33 1.22
-1.71 -0.32 1.24
-1.96 -0.33 1.19
-1.65 -0.29 1.26
-1.93 -0.30 1.19
-1.78 -0.28 1.23
-4.42 -0.44 0.63
-4.74 -0.45 0.56
-1.97 -0.26 1.19
-4.79 -0.42 0.55
-1.80 -0.23 1.22
-4.71 -0.38 0.57
-4.20 -0.33 0.68
-4.00 -0.31 0.73
-4.50 -0.32 0.61
-4.73 -0.31 0.56
-4.66 -0.29 0.58
-4.96 -0.28 0.51
-5.40 -0.28 0.41
-6.08 -0.29 0.26
-5.18 -0.24 0.46
-5.47 -0.23 0.39
-6.00 -0.22 0.27
-5.28 -0.19 0.44
-5.77 -0.18 0.33
-6.00 -0.16 0.27
-6.09 -0.15 0.25
-6.13 -0.13 0.24
-5.98 -0.10 0.28
-6.23 -0.09 0.22
-6.11 -0.06 0.25
-5.83 -0.04 0.31
-6.05 -0.02 0.26
-7.39 0.01 0.41
-7.43 0.03 0.40
-7.45 0.05 0.39
-7.46 0.07 0.39
-7.48 0.09 0.39
-7.41 0.10 0.40
-8.04 0.13 0.25
-8.25 0.16 0.21
-6.52 0.14 0.61
-6.82 0.16 0.54
-8.13 0.21 0.23
-8.26 0.24 0.20
-6.88 0.23 0.52
-7.23 0.26 0.44
-7.15 0.27 0.46
-8.17 0.33 0.22
-7.10 0.31 0.47
-7.15 0.33 0.46
-6.97 0.34 0.50
-6.84 0.35 0.53
-8.16 0.43 0.22
-7.04 0.39 0.48
-7.14 0.41 0.46
-6.99 0.42 0.49
-6.95 0.44 0.50
-6.65 0.44 0.57
-6.43 0.44 0.62
-6.34 0.45 0.64
-6.45 0.47 0.62
-6.38 0.48 0.63
