# .PCD v0.7 - Point Cloud Data file format
VERSION 0.7
FIELDS x y z
SIZE 4 4 4
TYPE F F F
COUNT 1 1 1
WIDTH 2060
HEIGHT 1
VIEWPOINT 0 0 0 1 0 0 0
POINTS 2060
DATA ASCII
-9.77 0.21 2.23
-9.97 0.24 2.23
-10.32 -0.49 2.23
-10.04 -0.43 2.23
-9.81 -0.01 2.23
-9.67 1.00 2.11
-9.61 -0.52 2.14
-9.39 -0.48 2.14
-9.65 0.09 2.05
-9.51 0.18 2.05
-9.40 0.22 2.05
-9.46 0.25 2.05
-10.09 -0.56 2.05
-10.18 -0.54 2.05
-9.64 -0.49 2.06
-10.23 -0.46 2.05
-10.25 -0.44 2.05
-9.86 -0.40 2.05
-10.02 -0.38 2.05
-9.73 -0.35 2.05
-9.81 -0.32 2.05
-9.89 -0.25 2.05
-8.33 -0.01 2.07
-9.36 0.27 2.00
-10.42 -1.14 1.94
-9.45 0.06 1.94
-9.32 0.08 1.94
-9.50 0.11 1.94
-9.56 0.13 1.94
-9.57 0.20 1.94
-9.36 0.25 1.94
-9.29 0.27 1.94
-10.23 -0.91 1.91
-9.62 -0.49 1.92
-10.05 -0.23 1.93
-10.14 -0.21 1.93
-10.33 -0.19 1.92
-10.04 -0.16 1.93
-10.08 -0.14 1.93
-8.76 0.09 1.90
-9.24 -0.59 1.90
-9.53 0.04 1.88
-9.72 0.06 1.87
-9.21 0.26 1.89
-7.76 0.26 1.93
-9.01 -0.63 1.86
-10.32 -0.55 1.86
-10.06 -0.51 1.87
-10.05 -0.48 1.87
-9.97 -0.43 1.87
-9.84 -0.40 1.87
-10.14 -0.36 1.86
-10.18 -0.24 1.86
-9.99 -0.21 1.87
-9.50 -0.18 1.88
-9.22 -0.73 1.78
-9.02 -0.63 1.78
-9.61 -0.37 1.76
-11.57 -0.13 1.74
-9.44 -0.03 1.82
-9.86 -0.01 1.80
-4.37 0.92 1.97
-9.61 -0.23 1.72
-8.45 -0.05 1.76
-7.73 -0.02 1.79
-8.76 0.08 1.77
-8.28 0.32 1.79
-8.24 0.38 1.79
-8.20 0.48 1.79
-8.01 1.47 1.79
-9.19 -0.61 1.69
-9.47 -0.60 1.68
-9.38 -0.57 1.68
-7.72 -0.42 1.75
-9.32 -0.45 1.68
-10.12 -0.34 1.71
-10.40 -0.32 1.70
-10.31 -0.24 1.70
-9.70 -0.18 1.73
-9.54 -0.04 1.74
-9.48 -0.01 1.74
-9.07 0.01 1.68
-8.87 0.05 1.69
-8.26 0.07 1.72
-9.29 0.20 1.66
-7.17 0.21 1.78
-8.42 0.39 1.71
-8.15 0.46 1.72
-7.91 0.81 1.73
-9.49 -0.80 1.57
-9.25 -0.73 1.59
-9.91 -0.55 1.63
-7.47 -0.40 1.76
-9.68 -0.49 1.65
-9.96 -0.48 1.63
-9.51 -0.44 1.66
-9.49 -0.41 1.66
-10.00 -0.36 1.63
-9.81 -0.33 1.64
-10.51 -0.32 1.60
-9.99 -0.28 1.63
-9.35 -0.10 1.66
-9.26 -0.08 1.67
-6.50 -1.09 1.69
-8.27 0.01 1.64
-8.45 -0.79 1.53
-8.18 -0.72 1.54
-8.14 -0.66 1.55
-8.40 -0.55 1.53
-8.69 -0.54 1.51
-7.56 -0.36 1.58
-7.49 -0.33 1.58
-7.60 -0.31 1.58
-7.56 -0.29 1.58
-8.15 -0.28 1.54
-8.09 -0.23 1.55
-9.47 -0.08 1.57
-6.82 0.09 1.57
-8.72 0.44 1.56
-8.70 0.59 1.56
-8.13 -0.87 1.49
-7.86 -0.77 1.51
-7.82 -0.67 1.51
-8.12 -0.66 1.49
-8.91 -0.60 1.44
-7.58 -0.41 1.52
-7.36 -0.38 1.54
-7.43 -0.36 1.53
-7.05 0.15 1.64
-8.90 0.34 1.50
-9.00 0.43 1.50
-8.74 0.44 1.51
-8.94 0.48 1.50
-8.85 0.49 1.51
-8.80 0.51 1.51
-8.88 0.56 1.50
-8.76 0.58 1.51
-8.83 0.60 1.51
-9.84 1.11 1.43
-9.92 1.17 1.42
-9.78 1.23 1.43
-7.38 0.98 1.60
-7.58 1.42 1.58
-8.37 1.69 1.52
-7.76 1.65 1.56
-2.67 -0.81 1.82
-7.93 -0.83 1.45
-7.97 -0.81 1.45
-8.40 -0.73 1.42
-6.30 -0.57 1.56
-7.91 -0.60 1.45
-8.22 -0.59 1.43
-8.12 -0.56 1.44
-9.48 -0.60 1.34
-8.74 -0.54 1.39
-9.41 -0.54 1.35
-7.53 -0.43 1.48
-7.52 -0.41 1.48
-7.75 -0.39 1.46
-7.37 -0.36 1.49
-9.84 -0.33 1.44
-9.77 -0.30 1.45
-9.96 -0.28 1.43
-9.85 -0.26 1.44
-9.71 -0.23 1.45
-9.40 -0.20 1.47
-7.59 -0.11 1.60
-11.75 -0.10 1.30
-8.17 -0.74 1.38
-8.00 -0.58 1.39
-7.64 -0.54 1.42
-7.26 -0.28 1.44
-8.86 -0.24 1.32
-7.03 -0.07 1.46
-8.63 0.05 1.43
-12.80 0.11 1.08
-7.29 0.08 1.54
-8.87 0.14 1.41
-8.54 0.29 1.43
-8.84 0.34 1.41
-9.00 0.39 1.39
-8.60 0.46 1.43
-6.93 0.48 1.56
-8.04 0.57 1.47
-8.45 0.68 1.44
-7.53 0.63 1.51
-7.28 0.65 1.53
-7.25 0.74 1.53
-7.52 1.21 1.50
-7.66 1.33 1.49
-7.50 1.36 1.50
-7.93 1.62 1.46
-9.47 -1.12 1.21
-7.98 -0.78 1.33
-7.89 -0.75 1.34
-8.12 -0.74 1.32
-7.65 -0.69 1.36
-7.84 -0.67 1.34
-7.82 -0.65 1.34
-7.90 -0.63 1.34
-7.66 -0.56 1.36
-8.42 -0.45 1.45
-8.06 -0.41 1.48
-8.11 -0.40 1.48
-8.01 -0.37 1.48
-7.69 -0.34 1.51
-7.81 -0.32 1.50
-7.65 -0.30 1.51
-7.32 -0.27 1.54
-8.19 -0.26 1.47
-7.84 -0.23 1.50
-9.68 -0.21 1.34
-9.14 -0.17 1.39
-7.53 -0.12 1.52
-9.54 -0.13 1.36
-9.58 -0.11 1.35
-7.02 0.05 1.35
-9.51 1.00 1.29
-7.79 -0.77 1.29
-7.83 -0.72 1.29
-8.03 -0.71 1.27
-7.79 -0.67 1.29
-7.91 -0.65 1.28
-8.43 -0.66 1.23
-7.89 -0.60 1.28
-8.13 -0.59 1.26
-8.29 -0.52 1.25
-7.82 -0.47 1.29
-7.46 -0.31 1.32
-7.53 -0.29 1.31
-7.43 -0.26 1.32
-7.46 -0.24 1.32
-7.33 -0.21 1.33
-7.49 -0.19 1.31
-6.90 -0.07 1.36
-6.87 -0.04 1.37
-7.12 0.17 1.47
-7.20 0.21 1.46
-9.42 0.59 1.25
-7.59 0.50 1.42
-7.68 0.53 1.41
-7.47 0.53 1.43
-8.44 0.64 1.34
-8.67 0.72 1.31
-8.03 0.71 1.37
-8.05 0.73 1.37
-7.80 0.73 1.39
-8.57 0.84 1.32
-7.89 0.86 1.38
-7.27 1.10 1.44
-6.30 -0.92 1.36
-8.33 -0.91 1.18
-8.18 -0.85 1.19
-8.28 -0.83 1.18
-8.45 -0.82 1.17
-8.28 -0.78 1.18
-8.28 -0.75 1.18
-7.87 -0.70 1.22
-8.22 -0.70 1.19
-8.26 -0.67 1.18
-7.94 -0.63 1.21
-7.89 -0.60 1.22
-7.77 -0.57 1.23
-7.78 -0.55 1.23
-7.64 -0.51 1.24
-7.58 -0.49 1.25
-7.54 -0.46 1.25
-7.77 -0.45 1.23
-8.22 -0.41 1.19
-7.06 -0.35 1.29
-7.30 -0.33 1.27
-7.24 -0.31 1.28
-7.13 -0.28 1.29
-7.31 -0.26 1.27
-7.14 -0.23 1.28
-7.86 -0.22 1.22
-7.59 -0.19 1.24
-8.24 -0.18 1.18
-7.71 -0.09 1.42
-4.59 -0.00 1.47
-4.57 0.05 1.48
-8.78 0.14 1.06
-8.72 0.16 1.07
-8.92 0.19 1.05
-8.45 0.56 1.28
-8.88 0.60 1.24
-7.67 0.54 1.36
-9.20 0.67 1.21
-8.92 0.72 1.23
-8.69 0.72 1.26
-8.90 0.76 1.24
-8.70 0.79 1.26
-8.17 0.78 1.31
-7.79 0.87 1.34
-8.20 0.97 1.30
-7.64 1.38 1.35
-10.28 -1.69 0.92
-10.12 -1.61 0.94
-10.24 -1.56 0.93
-9.91 -1.49 0.96
-10.02 -1.36 0.95
-9.95 -1.29 0.95
-9.57 -1.16 0.99
-9.58 -1.13 0.99
-9.17 -1.04 1.03
-8.50 -0.90 1.10
-8.38 -0.86 1.11
-8.45 -0.84 1.10
-8.23 -0.80 1.12
-8.01 -0.76 1.14
-8.37 -0.76 1.11
-8.39 -0.73 1.11
-7.90 -0.68 1.15
-8.23 -0.67 1.12
-8.08 -0.64 1.14
-8.04 -0.61 1.14
-7.67 -0.56 1.18
-7.74 -0.54 1.17
-7.65 -0.51 1.18
-7.72 -0.49 1.17
-7.74 -0.47 1.17
-7.98 -0.45 1.15
-7.59 -0.41 1.18
-7.05 -0.37 1.24
-7.29 -0.35 1.21
-7.20 -0.33 1.22
-7.40 -0.31 1.20
-7.28 -0.28 1.21
-7.07 -0.25 1.23
-7.43 -0.24 1.20
-7.98 -0.23 1.14
-7.68 -0.20 1.17
-8.05 -0.15 1.14
-5.36 -0.10 1.40
-8.22 -0.10 1.12
-6.88 -0.07 1.25
-8.62 -0.05 1.08
-6.31 -0.02 1.30
-5.33 0.01 1.57
-5.55 0.03 1.54
-8.99 0.07 1.17
-5.14 0.07 1.59
-8.94 0.14 1.18
-5.21 0.10 1.58
-6.79 0.21 1.41
-13.29 0.43 0.71
-8.06 0.29 1.27
-8.13 0.41 1.26
-7.45 0.40 1.33
-7.55 0.42 1.32
-7.52 0.44 1.33
-7.80 0.48 1.30
-7.72 0.49 1.30
-8.61 0.59 1.21
-8.87 0.63 1.18
-8.85 0.65 1.18
-7.72 0.59 1.30
-8.95 0.70 1.17
-8.42 0.68 1.23
-15.42 1.26 0.47
-7.95 0.68 1.28
-8.79 0.78 1.19
-15.55 1.38 0.45
-8.34 0.84 1.23
-7.88 0.82 1.28
-7.77 0.83 1.29
-8.09 0.96 1.26
-9.88 -1.37 0.88
-9.81 -1.25 0.89
-9.39 -1.12 0.93
-9.37 -1.09 0.93
-8.20 -0.78 1.05
-8.13 -0.72 1.06
-8.19 -0.70 1.05
-7.61 -0.64 1.11
-7.91 -0.63 1.08
-7.94 -0.61 1.08
-7.86 -0.58 1.09
-7.62 -0.54 1.11
-7.75 -0.50 1.10
-7.59 -0.46 1.12
-7.67 -0.44 1.11
-7.50 -0.41 1.13
-7.32 -0.38 1.14
-7.09 -0.35 1.17
-8.12 -0.26 1.27
-9.50 -0.27 1.12
-8.07 -0.21 1.28
-5.21 -0.11 1.58
-7.26 -0.14 1.36
-5.34 -0.09 1.57
-7.05 -0.10 1.38
-8.09 -0.09 1.27
-5.46 -0.05 1.55
-8.58 -0.06 1.22
-5.20 -0.01 1.58
-8.67 -0.00 0.93
-8.55 0.08 0.94
-8.93 0.14 0.90
-8.95 0.16 0.89
-0.82 -1.31 1.80
-10.25 -1.63 0.76
-10.99 -1.62 0.68
-9.89 -1.46 0.80
-9.89 -1.37 0.80
-7.99 -0.73 1.01
-7.88 -0.70 1.02
-7.85 -0.67 1.02
-7.85 -0.65 1.02
-7.27 -0.59 1.09
-7.85 -0.60 1.02
-8.04 -0.58 1.00
-7.63 -0.51 1.05
-7.72 -0.49 1.04
-7.54 -0.46 1.06
-7.96 -0.45 1.01
-7.14 -0.40 1.10
-7.12 -0.37 1.10
-6.97 -0.34 1.12
-6.81 -0.29 1.14
-8.47 -0.29 0.95
-8.04 -0.25 1.00
-8.64 -0.03 0.93
-9.28 0.01 1.01
-9.29 0.03 1.01
-12.64 0.13 0.61
-12.15 0.19 0.67
-10.09 0.21 0.91
-14.43 0.79 0.38
-14.70 0.98 0.35
-15.01 1.04 0.31
-14.99 1.15 0.31
-14.94 1.25 0.31
-14.96 1.51 0.31
-9.91 -1.65 0.71
-10.01 -1.63 0.69
-10.08 -1.43 0.69
-6.74 -0.74 1.08
-7.93 -0.81 0.94
-7.64 -0.74 0.97
-7.99 -0.71 0.93
-7.97 -0.68 0.93
-8.32 -0.68 0.89
-7.73 -0.62 0.96
-7.27 -0.57 1.02
-5.18 -0.06 1.51
-9.14 -0.04 1.03
-11.86 -0.00 0.37
-9.59 0.10 0.91
-12.48 0.16 0.54
-9.72 0.15 0.89
-9.83 0.20 0.88
-13.13 0.46 0.45
-12.71 0.54 0.51
-14.32 0.85 0.30
-8.18 0.58 1.08
-7.92 0.58 1.11
-7.36 0.56 1.18
-7.32 0.59 1.19
-7.54 0.63 1.16
-6.96 0.60 1.23
-7.39 0.68 1.18
-7.20 0.75 1.20
-5.75 -1.16 1.14
-5.56 -1.12 1.16
-5.45 -1.08 1.18
-5.50 -1.07 1.17
-5.56 -1.06 1.16
-5.44 -1.02 1.18
-5.66 -1.03 1.15
-5.39 -0.98 1.18
-5.60 -0.98 1.16
-5.63 -0.97 1.15
-5.66 -0.95 1.15
-5.67 -0.93 1.15
-5.75 -0.92 1.14
-5.77 -0.90 1.14
-9.56 -1.28 0.66
-5.85 -0.87 1.13
-5.90 -0.86 1.12
-5.96 -0.82 1.11
-6.03 -0.81 1.11
-5.77 -0.76 1.14
-6.04 -0.77 1.10
-6.71 -0.80 1.02
-6.40 -0.76 1.06
-6.72 -0.76 1.02
-6.77 -0.74 1.01
-6.78 -0.72 1.01
-7.42 -0.70 0.93
-7.24 -0.66 0.95
-7.42 -0.65 0.93
-7.56 -0.63 0.91
-7.20 -0.59 0.96
-6.75 -0.54 1.01
-7.43 -0.55 0.93
-7.00 -0.51 0.98
-6.98 -0.48 0.99
-6.87 -0.45 1.00
-6.90 -0.43 0.99
-6.75 -0.40 1.01
-7.00 -0.39 0.98
-7.12 -0.37 0.97
-4.63 -0.26 1.28
-4.44 -0.24 1.30
-4.35 -0.22 1.31
-6.94 -0.28 0.99
-7.01 -0.25 0.98
-4.77 -0.18 1.26
-4.85 -0.16 1.25
-4.75 -0.14 1.26
-5.46 -0.14 1.17
-7.10 -0.14 0.97
-7.08 -0.12 0.97
-7.11 -0.09 0.97
-7.26 -0.07 0.95
-5.47 -0.04 1.17
-6.12 0.00 1.30
-6.13 0.02 1.30
-6.00 0.03 1.32
-9.59 0.08 0.84
-9.74 0.10 0.82
-9.63 0.13 0.83
-12.71 0.19 0.42
-12.60 0.22 0.43
-9.75 0.20 0.81
-9.55 0.22 0.84
-9.57 0.24 0.84
-12.85 0.35 0.39
-12.98 0.39 0.38
-13.01 0.42 0.37
-6.99 0.25 1.18
-12.91 0.48 0.38
-13.25 0.53 0.34
-6.69 0.29 1.22
-7.14 0.33 1.16
-6.64 0.32 1.23
-9.94 0.52 0.78
-7.17 0.47 1.15
-7.61 0.52 1.10
-6.95 0.50 1.18
-7.13 0.56 1.16
-6.94 0.57 1.18
-7.09 0.59 1.16
-7.36 0.65 1.12
-7.25 0.70 1.14
-7.38 0.73 1.12
-7.22 0.73 1.14
-7.43 0.77 1.11
-7.40 0.83 1.12
-7.29 0.85 1.13
-6.75 0.81 1.20
-7.10 0.87 1.15
-7.10 0.89 1.15
-6.70 0.87 1.21
-6.73 0.93 1.20
-5.44 1.16 1.36
-5.65 -1.33 1.09
-5.71 -1.28 1.08
-5.49 -1.21 1.11
-5.61 -1.20 1.10
-5.53 -1.17 1.11
-5.70 -1.16 1.08
-5.60 -1.12 1.10
-5.49 -1.09 1.11
-5.56 -1.08 1.10
-5.49 -1.05 1.11
-5.42 -1.02 1.12
-5.49 -1.01 1.11
-5.58 -1.00 1.10
-5.52 -0.98 1.11
-5.52 -0.96 1.11
-5.77 -0.96 1.08
-5.75 -0.94 1.08
-5.66 -0.91 1.09
-5.87 -0.91 1.06
-5.91 -0.90 1.06
-6.06 -0.89 1.04
-5.91 -0.86 1.06
-6.04 -0.85 1.04
-6.04 -0.83 1.04
-6.26 -0.83 1.01
-6.16 -0.80 1.02
-5.99 -0.76 1.05
-6.40 -0.78 0.99
-6.85 -0.79 0.93
-6.64 -0.75 0.96
-6.84 -0.75 0.93
-7.11 -0.75 0.90
-7.47 -0.75 0.85
-6.96 -0.69 0.92
-6.91 -0.66 0.92
-4.61 -0.49 1.23
-6.80 -0.61 0.94
-6.79 -0.59 0.94
-4.47 -0.43 1.25
-6.81 -0.54 0.94
-6.75 -0.52 0.95
-6.67 -0.49 0.96
-6.83 -0.48 0.94
-6.71 -0.45 0.95
-6.89 -0.43 0.93
-4.63 -0.31 1.22
-6.95 -0.39 0.92
-4.49 -0.27 1.24
-4.29 -0.25 1.27
-4.50 -0.24 1.24
-4.90 -0.24 1.19
-7.04 -0.28 0.91
-6.63 -0.25 0.96
-6.74 -0.23 0.95
-6.82 -0.21 0.93
-5.19 -0.15 1.15
-4.87 -0.13 1.19
-8.91 -0.13 0.93
-9.09 -0.11 0.91
-6.53 -0.06 1.25
-7.12 -0.05 1.17
-6.04 -0.03 1.32
-5.75 -0.01 1.35
-4.24 -0.00 1.22
-5.57 0.04 1.04
-5.48 0.06 1.05
-5.32 0.07 1.07
-4.92 0.09 1.13
-5.72 0.12 1.02
-5.38 0.15 1.06
-5.13 0.18 1.10
-4.84 0.19 1.14
-12.70 0.38 0.32
-12.85 0.42 0.30
-13.00 0.45 0.28
-12.83 0.48 0.30
-12.97 0.51 0.28
-10.09 0.58 0.69
-10.17 0.61 0.68
-10.26 0.64 0.66
-10.26 0.67 0.66
-7.08 0.49 1.11
-6.54 0.47 1.19
-6.70 0.50 1.17
-6.79 0.52 1.15
-7.22 0.57 1.09
-7.12 0.58 1.11
-7.19 0.60 1.10
-6.91 0.60 1.14
-7.09 0.63 1.11
-7.54 0.74 1.04
-7.17 0.73 1.10
-7.52 0.78 1.04
-4.61 0.51 1.46
-6.78 0.74 1.15
-7.11 0.79 1.10
-6.82 0.78 1.14
-7.38 0.88 1.06
-6.98 0.87 1.12
-5.17 1.16 1.36
-5.68 -1.41 1.03
-5.55 -1.35 1.04
-5.54 -1.31 1.05
-5.52 -1.29 1.05
-5.52 -1.27 1.05
-5.63 -1.26 1.03
-5.50 -1.21 1.05
-5.39 -1.17 1.07
-5.33 -1.14 1.08
-5.44 -1.14 1.06
-5.43 -1.12 1.06
-5.32 -1.08 1.08
-5.36 -1.05 1.07
-5.39 -1.04 1.07
-5.52 -1.03 1.05
-5.46 -1.01 1.06
-5.61 -1.00 1.04
-5.64 -0.99 1.03
-5.86 -0.99 1.00
-6.01 -0.99 0.98
-5.92 -0.94 0.99
-6.03 -0.93 0.98
-6.14 -0.92 0.96
-6.14 -0.90 0.96
-6.15 -0.88 0.96
-6.29 -0.87 0.94
-6.31 -0.85 0.94
-6.22 -0.80 0.95
-7.60 -0.90 0.76
-6.65 -0.80 0.89
-7.27 -0.83 0.81
-6.89 -0.77 0.86
-6.63 -0.73 0.90
-7.25 -0.76 0.81
-6.68 -0.69 0.89
-7.18 -0.68 0.82
-6.79 -0.63 0.87
-6.76 -0.61 0.88
-6.95 -0.60 0.85
-6.82 -0.57 0.87
-6.80 -0.54 0.87
-6.67 -0.51 0.89
-6.80 -0.47 0.87
-6.85 -0.45 0.87
-6.58 -0.42 0.90
-5.82 -0.36 1.01
-5.06 -0.31 1.11
-4.88 -0.29 1.14
-7.66 -0.35 0.75
-7.27 -0.31 0.81
-4.95 -0.22 1.13
-7.26 -0.26 0.81
-6.34 -0.22 0.93
-5.43 -0.18 1.06
-6.04 -0.17 0.97
-5.11 -0.11 1.10
-4.47 -0.09 1.19
-6.07 -0.07 0.97
-7.83 -0.05 0.73
-6.17 -0.02 0.96
-5.52 0.00 1.30
-5.37 0.02 1.32
-5.57 0.03 1.29
-5.57 0.05 1.29
-5.62 0.06 1.28
-5.52 0.07 1.29
-5.56 0.09 1.29
-5.41 0.10 1.31
-5.26 0.11 1.33
-5.36 0.13 1.32
-5.14 0.14 1.35
-5.05 0.15 1.36
-5.24 0.16 1.33
-5.14 0.18 1.35
-4.81 0.18 1.40
-9.71 0.37 0.66
-5.37 0.22 1.31
-5.33 0.24 1.32
-9.98 0.45 0.62
-5.41 0.27 1.31
-6.02 0.31 1.22
-5.95 0.32 1.23
-6.22 0.35 1.18
-10.18 0.58 0.59
-6.47 0.40 1.15
-6.54 0.42 1.13
-6.63 0.44 1.12
-7.25 0.50 1.03
-6.58 0.47 1.13
-7.18 0.53 1.04
-7.12 0.54 1.05
-7.14 0.56 1.04
-6.72 0.55 1.10
-7.40 0.62 1.00
-7.42 0.64 1.00
-7.19 0.64 1.03
-6.81 0.63 1.09
-7.15 0.69 1.04
-6.83 0.68 1.09
-7.02 0.71 1.06
-7.02 0.73 1.05
-6.98 0.75 1.06
-7.07 0.77 1.05
-7.10 0.80 1.04
-6.84 0.86 1.08
-8.08 1.21 0.88
-8.31 1.28 0.85
-5.01 1.11 1.34
-5.06 1.14 1.33
-5.03 1.14 1.33
-5.06 1.17 1.33
-5.03 1.17 1.33
-5.12 1.21 1.32
-4.76 1.44 1.36
-5.45 -1.38 0.99
-5.50 -1.37 0.99
-5.51 -1.33 0.98
-5.52 -1.31 0.98
-5.38 -1.27 1.00
-5.64 -1.27 0.96
-5.50 -1.23 0.99
-5.66 -1.23 0.96
-5.42 -1.18 1.00
-5.44 -1.16 1.00
-5.47 -1.15 0.99
-5.41 -1.12 1.00
-5.59 -1.12 0.97
-5.47 -1.09 0.99
-5.64 -1.09 0.97
-5.54 -1.06 0.98
-5.66 -1.05 0.96
-5.85 -1.06 0.94
-5.77 -1.03 0.95
-5.72 -1.00 0.96
-5.92 -1.00 0.93
-5.80 -0.97 0.94
-5.96 -0.97 0.92
-6.08 -0.96 0.90
-6.06 -0.94 0.91
-5.99 -0.91 0.92
-2.20 -0.50 1.47
-6.51 -0.92 0.84
-6.38 -0.89 0.86
-6.29 -0.85 0.87
-7.10 -0.91 0.75
-6.85 -0.86 0.79
-7.01 -0.85 0.77
-2.19 -0.42 1.47
-7.05 -0.81 0.76
-7.01 -0.79 0.77
-7.04 -0.77 0.76
-6.96 -0.74 0.77
-6.46 -0.68 0.85
-2.10 -0.34 1.49
-2.37 -0.35 1.45
-6.53 -0.62 0.84
-6.56 -0.60 0.83
-6.67 -0.58 0.82
-6.60 -0.55 0.83
-6.94 -0.55 0.78
-6.88 -0.53 0.78
-4.86 -0.40 1.08
-6.76 -0.47 0.80
-6.57 -0.44 0.83
-4.86 -0.34 1.08
-4.65 -0.32 1.11
-5.03 -0.31 1.06
-7.32 -0.38 0.72
-4.82 -0.27 1.09
-7.28 -0.25 1.03
-7.02 -0.22 1.07
-7.79 -0.23 0.96
-7.61 -0.20 0.98
-7.79 -0.19 0.96
-7.25 -0.16 1.04
-6.33 -0.12 1.18
-6.37 -0.11 1.17
-6.07 -0.09 1.21
-5.89 -0.07 1.24
-5.80 -0.05 1.25
-5.90 -0.04 1.24
-5.68 -0.03 1.27
-5.51 -0.01 1.30
-8.32 -0.00 0.49
-8.41 0.02 0.48
-8.17 0.05 0.52
-8.22 0.07 0.51
-8.10 0.10 0.53
-8.42 0.13 0.48
-8.57 0.16 0.45
-8.09 0.17 0.53
-8.03 0.22 0.54
-7.50 0.24 0.62
-10.05 0.50 0.54
-10.12 0.53 0.53
-10.40 0.57 0.48
-10.59 0.68 0.45
-10.42 0.73 0.48
-7.01 0.76 1.01
-5.60 -1.34 0.91
-5.71 -1.32 0.90
-5.66 -1.27 0.91
-5.43 -1.14 0.94
-5.64 -1.13 0.91
-5.61 -1.10 0.92
-5.84 -1.09 0.88
-5.93 -1.06 0.87
-6.27 -1.08 0.81
-6.11 -1.00 0.84
-6.42 -1.02 0.79
-6.33 -0.98 0.81
-6.35 -0.97 0.80
-6.99 -1.01 0.70
-6.97 -0.96 0.71
-7.05 -0.95 0.69
-6.62 -0.88 0.76
-6.55 -0.83 0.77
-7.16 -0.87 0.68
-7.14 -0.84 0.68
-7.09 -0.81 0.69
-7.30 -0.76 0.66
-7.56 -0.76 0.62
-6.86 -0.66 0.72
-7.15 -0.66 0.68
-7.15 -0.63 0.68
-6.71 -0.56 0.75
-7.03 -0.56 0.70
-6.93 -0.53 0.71
-6.88 -0.50 0.72
-7.12 -0.49 0.68
-6.54 -0.44 0.77
-7.56 -0.46 0.62
-4.25 -0.28 1.12
-7.50 -0.37 0.62
-6.46 -0.26 0.78
-6.97 -0.23 0.70
-6.43 -0.20 0.79
-7.99 -0.13 0.55
-8.23 -0.06 0.51
-8.09 -0.03 0.53
-5.40 0.00 1.22
-5.40 0.02 1.22
-5.22 0.03 1.25
-5.25 0.04 1.25
-5.40 0.06 1.22
-4.96 0.07 1.29
-5.44 0.09 1.21
-5.46 0.10 1.21
-9.35 0.19 0.57
-5.23 0.12 1.25
-5.44 0.14 1.21
-5.08 0.15 1.27
-5.13 0.16 1.26
-5.15 0.18 1.26
-5.18 0.19 1.26
-4.64 0.18 1.34
-5.32 0.22 1.23
-4.70 0.21 1.33
-4.71 0.22 1.33
-10.07 0.48 0.45
-4.44 0.23 1.38
-6.29 0.34 1.07
-4.55 0.26 1.36
-6.70 0.39 1.00
-6.35 0.39 1.06
-6.54 0.42 1.03
-6.37 0.42 1.06
-6.47 0.45 1.04
-6.97 0.50 0.96
-7.25 0.53 0.91
-7.31 0.63 0.90
-7.33 0.65 0.89
-7.47 0.68 0.87
-7.57 0.71 0.85
-7.22 0.70 0.91
-7.58 0.75 0.85
-7.48 0.76 0.86
-7.62 0.79 0.84
-7.67 0.82 0.83
-7.90 0.86 0.79
-7.80 0.87 0.81
-7.64 0.87 0.83
-7.53 0.88 0.85
-6.72 0.81 0.99
-7.14 0.87 0.92
-7.68 0.97 0.83
-7.53 0.98 0.85
-7.77 1.02 0.81
-7.39 1.00 0.87
-6.80 0.94 0.97
-7.56 1.06 0.84
-7.04 1.01 0.93
-6.88 1.00 0.95
-6.95 1.03 0.94
-6.92 1.05 0.95
-7.01 1.07 0.93
-7.17 1.12 0.90
-4.93 1.03 1.27
-5.16 1.17 1.22
-5.71 -1.50 0.82
-5.49 -1.43 0.86
-5.54 -1.42 0.85
-5.58 -1.40 0.85
-5.51 -1.37 0.86
-5.66 -1.38 0.83
-5.60 -1.34 0.84
-5.54 -1.28 0.85
-5.60 -1.21 0.84
-5.53 -1.18 0.86
-5.64 -1.17 0.84
-5.73 -1.16 0.82
-5.59 -1.13 0.85
-5.55 -1.10 0.85
-5.49 -1.05 0.86
-5.92 -1.09 0.79
-6.03 -1.08 0.78
-5.77 -1.03 0.82
-5.84 -1.02 0.81
-6.04 -1.02 0.77
-5.77 -0.97 0.82
-6.31 -1.01 0.73
-6.14 -0.97 0.76
-6.29 -0.96 0.73
-6.49 -0.96 0.70
-7.10 -1.00 0.60
-6.81 -0.95 0.65
-7.13 -0.96 0.60
-6.94 -0.92 0.63
-7.02 -0.90 0.62
-6.77 -0.86 0.66
-6.75 -0.83 0.66
-6.94 -0.83 0.63
-7.34 -0.84 0.57
-7.03 -0.79 0.61
-6.64 -0.73 0.68
-6.76 -0.72 0.66
-7.05 -0.72 0.61
-6.91 -0.69 0.63
-4.75 -0.52 0.98
-6.96 -0.65 0.63
-4.26 -0.45 1.06
-6.85 -0.59 0.64
-7.17 -0.59 0.59
-6.85 -0.55 0.64
-1.96 -0.26 1.43
-7.53 -0.41 0.88
-7.73 -0.40 0.84
-7.55 -0.37 0.87
-7.44 -0.35 0.89
-7.68 -0.34 0.85
-6.76 -0.29 1.00
-7.53 -0.30 0.88
-7.09 -0.26 0.95
-7.17 -0.25 0.94
-8.16 -0.26 0.77
-8.32 -0.24 0.75
-8.22 -0.22 0.76
-8.07 -0.20 0.79
-6.59 -0.15 1.03
-6.68 -0.13 1.01
-9.27 -0.16 0.59
-6.41 -0.09 1.06
-6.39 -0.08 1.06
-9.09 -0.09 0.62
-6.65 -0.05 1.02
-5.69 -0.03 1.18
-5.28 -0.01 1.24
-3.88 -0.00 1.07
-3.49 0.01 1.14
-3.40 0.02 1.15
-5.00 0.04 1.25
-4.88 0.05 1.27
-5.14 0.07 1.22
-4.55 0.07 1.33
-5.14 0.09 1.22
-5.13 0.11 1.22
-5.27 0.12 1.20
-5.15 0.13 1.22
-5.26 0.15 1.20
-5.29 0.16 1.20
-4.94 0.17 1.26
-4.57 0.17 1.32
-4.64 0.18 1.31
-4.70 0.20 1.30
-4.58 0.20 1.32
-4.74 0.22 1.29
-4.73 0.23 1.29
-4.55 0.24 1.32
-4.43 0.24 1.34
-4.49 0.26 1.33
-4.54 0.27 1.32
-6.74 0.41 0.94
-10.27 0.64 0.33
-7.80 0.57 0.75
-7.82 0.59 0.75
-7.98 0.64 0.72
-7.24 0.60 0.85
-7.36 0.63 0.83
-7.21 0.64 0.85
-7.20 0.66 0.85
-7.05 0.66 0.88
-7.56 0.73 0.79
-7.51 0.74 0.80
-7.41 0.84 0.81
-7.85 0.91 0.74
-7.54 0.90 0.79
-7.46 0.91 0.80
-7.41 0.92 0.81
-7.43 0.94 0.81
-7.56 0.98 0.78
-7.62 1.00 0.77
-7.41 1.00 0.81
-7.23 0.99 0.84
-7.11 0.99 0.86
-7.11 1.01 0.86
-6.99 1.02 0.88
-7.05 1.04 0.87
-6.82 1.05 0.91
-4.58 0.87 1.29
-4.48 0.88 1.31
-4.98 0.99 1.22
-4.56 1.11 1.28
-5.45 -1.49 0.80
-5.43 -1.47 0.80
-5.45 -1.46 0.80
-5.49 -1.44 0.79
-5.48 -1.42 0.80
-5.57 -1.42 0.78
-5.33 -1.36 0.82
-5.35 -1.34 0.82
-5.44 -1.34 0.80
-5.65 -1.35 0.77
-5.47 -1.26 0.80
-5.42 -1.24 0.81
-5.40 -1.21 0.81
-5.35 -1.19 0.82
-5.35 -1.17 0.82
-5.28 -1.14 0.84
-5.46 -1.14 0.80
-5.23 -1.09 0.84
-5.49 -1.11 0.80
-5.26 -1.06 0.84
-5.43 -1.06 0.81
-5.82 -1.09 0.74
-5.70 -1.06 0.76
-3.50 -0.76 1.14
-5.59 -1.01 0.78
-5.69 -1.00 0.77
-5.91 -1.00 0.73
-6.03 -1.00 0.71
-6.28 -1.00 0.67
-6.28 -0.98 0.67
-7.36 -1.08 0.48
-6.47 -0.96 0.63
-1.92 -0.47 1.41
-5.70 -0.84 0.76
-7.28 -0.97 0.50
-6.99 -0.92 0.55
-6.30 -0.84 0.66
-6.54 -0.83 0.62
-6.64 -0.82 0.61
-6.93 -0.83 0.56
-6.81 -0.79 0.58
-6.96 -0.71 0.55
-6.67 -0.67 0.60
-6.87 -0.66 0.57
-7.07 -0.65 0.53
-4.18 -0.44 1.02
-6.48 -0.57 0.63
-2.62 -0.32 1.29
-6.48 -0.53 0.63
-4.14 -0.38 1.03
-4.26 -0.37 1.01
-4.14 -0.34 1.03
-4.29 -0.33 1.00
-6.79 -0.43 0.58
-4.61 -0.32 0.95
-4.60 -0.30 0.95
-6.07 -0.34 0.70
-5.92 -0.29 0.73
-4.32 -0.22 1.00
-7.70 -0.28 0.42
-4.72 -0.18 0.93
-5.65 -0.18 0.77
-7.42 -0.15 0.47
-3.65 -0.08 1.11
-3.92 -0.07 1.06
-4.12 -0.05 1.03
-4.17 -0.04 1.02
-2.97 -0.02 1.22
-5.80 0.00 1.06
-6.33 0.02 0.96
-5.41 0.03 1.13
-5.48 0.04 1.12
-5.48 0.06 1.12
-5.47 0.07 1.12
-5.48 0.09 1.12
-5.68 0.10 1.08
-5.50 0.11 1.11
-5.51 0.13 1.11
-5.60 0.15 1.09
-5.82 0.17 1.05
-6.07 0.19 1.01
-5.85 0.20 1.05
-5.79 0.21 1.06
-6.06 0.23 1.01
-6.13 0.25 1.00
-6.24 0.27 0.97
-6.19 0.29 0.98
-6.27 0.30 0.97
-6.18 0.32 0.98
-7.14 0.38 0.81
-8.35 0.46 0.59
-7.89 0.46 0.67
-8.15 0.49 0.63
-7.86 0.49 0.68
-7.94 0.52 0.66
-8.25 0.56 0.61
-8.30 0.58 0.60
-7.98 0.58 0.65
-7.81 0.59 0.68
-7.65 0.60 0.71
-7.70 0.62 0.70
-7.78 0.65 0.69
-7.32 0.63 0.77
-7.66 0.68 0.71
-7.22 0.66 0.79
-7.33 0.69 0.77
-7.43 0.71 0.75
-7.60 0.75 0.72
-7.42 0.75 0.75
-7.67 0.79 0.70
-8.04 0.85 0.63
-8.05 0.87 0.63
-7.92 0.88 0.66
-7.51 0.85 0.73
-7.45 0.87 0.74
-7.01 0.84 0.82
-7.03 0.86 0.81
-4.81 0.62 1.22
-7.20 0.91 0.78
-7.26 0.94 0.77
-7.19 0.95 0.78
-7.29 0.98 0.76
-7.17 0.98 0.78
-7.24 1.01 0.77
-7.33 1.04 0.75
-7.38 1.07 0.75
-7.49 1.10 0.72
-5.13 0.79 1.16
-7.46 1.14 0.73
-7.39 1.15 0.74
-7.23 1.14 0.77
-6.76 1.11 0.85
-5.33 0.93 1.11
-5.27 0.95 1.12
-5.49 1.00 1.08
-5.18 0.96 1.14
-4.79 0.92 1.21
-4.93 0.96 1.18
-4.94 0.98 1.18
-5.02 1.06 1.16
-5.02 1.07 1.16
-4.91 1.06 1.18
-5.01 1.10 1.16
-4.82 1.09 1.20
-4.71 1.09 1.22
-4.98 1.16 1.16
-4.57 1.08 1.24
-4.79 1.15 1.20
-4.75 1.15 1.20
-4.66 1.14 1.22
-4.87 1.20 1.18
-4.90 1.22 1.17
-4.91 1.24 1.17
-5.17 1.31 1.12
-5.15 1.34 1.12
-5.13 1.35 1.13
-4.54 1.22 1.24
-4.79 1.33 1.19
-4.97 1.42 1.15
-4.77 1.40 1.19
-5.44 -1.69 0.73
-5.39 -1.52 0.74
-5.39 -1.50 0.74
-5.43 -1.49 0.74
-5.44 -1.47 0.74
-5.50 -1.47 0.73
-5.54 -1.45 0.72
-5.47 -1.42 0.73
-5.37 -1.38 0.75
-5.51 -1.39 0.72
-5.28 -1.33 0.77
-5.30 -1.31 0.76
-5.32 -1.30 0.76
-5.53 -1.31 0.72
-5.32 -1.26 0.76
-5.37 -1.25 0.75
-5.27 -1.21 0.77
-5.41 -1.22 0.75
-5.28 -1.18 0.77
-5.38 -1.17 0.75
-5.39 -1.16 0.75
-5.18 -1.11 0.79
-5.19 -1.09 0.78
-5.35 -1.09 0.76
-5.21 -1.05 0.78
-5.22 -1.04 0.78
-5.67 -1.08 0.70
-5.74 -1.06 0.69
-5.39 -1.00 0.75
-5.46 -0.99 0.74
-5.57 -0.98 0.72
-5.77 -0.99 0.68
-5.85 -0.98 0.67
-5.96 -0.97 0.65
-2.43 -0.56 1.28
-2.82 -0.59 1.21
-2.52 -0.55 1.26
-2.33 -0.51 1.30
-5.64 -0.83 0.71
-5.42 -0.79 0.75
-5.65 -0.80 0.71
-2.14 -0.45 1.33
-2.05 -0.43 1.35
-2.55 -0.46 1.26
-6.09 -0.75 0.63
-2.30 -0.42 1.30
-6.76 -0.77 0.51
-6.59 -0.73 0.54
-6.56 -0.71 0.54
-6.88 -0.71 0.49
-2.45 -0.37 1.27
-2.39 -0.35 1.29
-2.38 -0.34 1.29
-2.34 -0.32 1.29
-6.39 -0.56 0.57
-6.38 -0.54 0.57
-6.17 -0.51 0.61
-2.69 -0.30 1.23
-6.05 -0.46 0.63
-6.16 -0.45 0.61
-6.34 -0.43 0.58
-6.28 -0.41 0.59
-6.33 -0.39 0.58
-5.71 -0.34 0.69
-5.77 -0.33 0.68
-5.73 -0.30 0.69
-5.50 -0.28 0.73
-5.66 -0.26 0.70
-4.09 -0.20 0.98
-5.64 -0.22 0.70
-5.67 -0.20 0.70
-4.15 -0.15 0.97
-3.84 -0.13 1.02
-3.28 -0.10 1.12
-6.57 -0.10 0.92
-6.56 -0.08 0.92
-6.65 -0.06 0.91
-6.67 -0.05 0.90
-6.37 -0.03 0.96
-6.66 -0.01 0.90
-3.46 -0.01 1.04
-3.41 0.02 1.05
-2.83 0.05 1.16
-3.10 0.06 1.11
-3.16 0.08 1.09
-3.10 0.09 1.10
-2.90 0.10 1.14
-3.07 0.12 1.11
-3.15 0.13 1.09
-2.95 0.14 1.13
-6.08 0.19 0.95
-5.66 0.19 1.03
-5.28 0.19 1.10
-8.97 0.34 0.40
-4.40 0.18 1.27
-4.51 0.22 1.25
-8.01 0.40 0.58
-8.00 0.42 0.58
-8.10 0.45 0.56
-8.23 0.47 0.54
-8.11 0.55 0.56
-7.90 0.56 0.60
-7.90 0.58 0.60
-8.15 0.61 0.55
-7.45 0.58 0.68
-8.03 0.64 0.57
-7.73 0.66 0.63
-7.65 0.67 0.64
-7.70 0.70 0.63
-7.81 0.73 0.61
-7.72 0.74 0.63
-7.83 0.77 0.60
-7.69 0.79 0.63
-7.94 0.84 0.58
-7.83 0.85 0.60
-6.83 0.76 0.79
-7.04 0.80 0.75
-6.98 0.81 0.76
-6.85 0.82 0.79
-5.04 0.63 1.13
-5.01 0.65 1.14
-7.23 0.93 0.71
-7.39 0.97 0.68
-7.39 0.99 0.68
-7.53 1.03 0.65
-7.47 1.04 0.66
-7.60 1.10 0.64
-7.63 1.12 0.63
-7.53 1.13 0.65
-7.63 1.18 0.63
-7.47 1.18 0.66
-4.61 0.86 1.20
-4.35 0.84 1.25
-3.82 0.78 1.35
-4.67 0.95 1.19
-3.95 0.84 1.32
-4.39 0.96 1.24
-3.63 0.82 1.39
-4.14 0.94 1.28
-4.30 0.99 1.25
-4.08 0.95 1.29
-4.26 1.03 1.26
-4.27 1.05 1.25
-4.47 1.11 1.21
-4.25 1.22 1.25
-5.45 -1.53 0.66
-5.45 -1.51 0.66
-5.61 -1.52 0.63
-5.58 -1.50 0.64
-5.46 -1.46 0.66
-5.44 -1.41 0.67
-5.40 -1.39 0.68
-5.26 -1.23 0.70
-5.24 -1.21 0.71
-5.23 -1.19 0.71
-2.27 -0.73 1.27
-5.11 -1.11 0.73
-5.17 -1.10 0.72
-5.18 -1.09 0.72
-5.17 -1.05 0.72
-5.10 -1.02 0.74
-5.28 -1.02 0.70
-5.42 -1.02 0.68
-5.40 -1.00 0.68
-5.90 -1.04 0.59
-5.86 -1.02 0.59
-5.38 -0.94 0.69
-5.90 -0.98 0.59
-5.89 -0.96 0.59
-5.92 -0.94 0.58
-5.91 -0.92 0.59
-1.92 -0.48 1.33
-5.97 -0.89 0.58
-6.02 -0.87 0.57
-5.92 -0.84 0.58
-1.96 -0.44 1.32
-2.02 -0.44 1.31
-2.02 -0.43 1.31
-1.89 -0.39 1.34
-1.98 -0.39 1.32
-2.10 -0.39 1.30
-6.58 -0.73 0.46
-1.90 -0.35 1.34
-2.05 -0.35 1.31
-2.04 -0.34 1.31
-2.09 -0.33 1.30
-2.25 -0.33 1.27
-1.89 -0.30 1.34
-6.22 -0.55 0.53
-2.01 -0.28 1.31
-6.07 -0.50 0.56
-6.07 -0.48 0.56
-6.10 -0.46 0.55
-4.31 -0.35 0.88
-6.42 -0.42 0.49
-6.62 -0.40 0.45
-6.86 -0.39 0.41
-6.49 -0.33 0.48
-6.36 -0.31 0.50
-6.65 -0.29 0.45
-6.91 -0.28 0.40
-6.24 -0.24 0.52
-7.10 -0.19 0.36
-3.35 -0.10 1.06
-6.47 -0.14 0.48
-5.24 0.00 1.06
-5.48 0.03 1.01
-5.31 0.04 1.05
-5.36 0.06 1.04
-5.70 0.09 0.97
-5.85 0.12 0.94
-5.82 0.15 0.94
-5.99 0.17 0.91
-6.02 0.19 0.90
-6.05 0.20 0.90
-5.71 0.21 0.96
-6.21 0.25 0.86
-8.33 0.38 0.44
-7.81 0.37 0.54
-7.92 0.40 0.52
-7.37 0.41 0.63
-7.86 0.47 0.53
-7.84 0.51 0.53
-7.68 0.52 0.56
-7.78 0.55 0.54
-7.93 0.60 0.51
-7.67 0.62 0.57
-7.54 0.65 0.59
-7.56 0.67 0.59
-7.49 0.68 0.60
-7.45 0.72 0.61
-7.54 0.76 0.59
-7.87 0.83 0.52
-7.72 0.84 0.55
-7.44 0.83 0.60
-7.84 0.91 0.52
-7.54 0.92 0.58
-5.20 0.68 1.05
-7.32 0.95 0.62
-5.98 0.80 0.89
-5.43 0.76 1.00
-5.59 0.81 0.97
-5.19 0.78 1.04
-5.10 0.78 1.06
-5.01 0.79 1.08
-5.00 0.81 1.08
-4.99 0.84 1.08
-4.95 0.86 1.09
-4.78 0.84 1.12
-5.00 0.89 1.08
-5.12 0.94 1.05
-4.72 0.92 1.13
-5.08 1.00 1.06
-4.81 0.97 1.11
-4.75 0.98 1.12
-4.70 1.00 1.13
-4.71 1.03 1.12
-4.51 1.00 1.17
-4.62 1.03 1.14
-4.98 1.16 1.07
-4.65 1.14 1.13
-5.06 1.26 1.04
-4.82 1.23 1.09
-4.18 1.12 1.22
-4.69 1.26 1.11
-5.50 -1.57 0.58
-5.43 -1.53 0.59
-5.43 -1.51 0.59
-5.51 -1.51 0.58
-5.46 -1.48 0.59
-5.40 -1.45 0.60
-5.37 -1.43 0.61
-5.36 -1.40 0.61
-5.37 -1.39 0.61
-5.36 -1.37 0.61
-5.44 -1.36 0.59
-5.54 -1.36 0.57
-5.35 -1.31 0.61
-5.51 -1.31 0.58
-5.21 -1.25 0.64
-5.19 -1.22 0.64
-5.09 -1.19 0.66
-5.24 -1.19 0.63
-5.29 -1.18 0.63
-5.32 -1.13 0.62
-5.14 -1.08 0.65
-5.08 -1.06 0.67
-4.98 -1.02 0.69
-5.09 -1.02 0.67
-5.14 -1.01 0.66
-5.20 -0.98 0.64
-5.30 -0.97 0.62
-4.89 -0.90 0.71
-6.12 -1.01 0.47
-5.95 -0.97 0.50
-5.86 -0.94 0.52
-5.83 -0.90 0.52
-5.81 -0.87 0.53
-5.74 -0.85 0.54
-2.38 -0.50 1.20
-2.23 -0.47 1.23
-2.45 -0.48 1.18
-2.23 -0.45 1.23
-2.32 -0.44 1.21
-2.23 -0.42 1.23
-2.20 -0.41 1.23
-2.19 -0.40 1.24
-2.20 -0.39 1.23
-2.20 -0.38 1.23
-2.41 -0.38 1.19
-2.38 -0.36 1.20
-2.20 -0.34 1.23
-2.31 -0.34 1.21
-2.15 -0.31 1.24
-2.41 -0.32 1.19
-2.36 -0.30 1.20
-2.36 -0.29 1.20
-2.54 -0.29 1.17
-4.28 -0.37 0.83
-6.24 -0.45 0.44
-6.43 -0.44 0.41
-4.09 -0.31 0.86
-4.13 -0.30 0.85
-3.73 -0.26 0.93
-3.94 -0.26 0.89
-4.03 -0.24 0.87
-6.77 -0.24 0.76
-6.72 -0.22 0.77
-6.86 -0.20 0.74
-7.46 -0.18 0.62
-8.03 -0.16 0.51
-8.45 -0.12 0.43
-5.51 -0.07 1.01
-8.54 -0.08 0.41
-5.23 -0.02 1.06
-2.87 -0.01 1.06
-3.74 0.01 0.88
-5.21 0.03 0.58
-5.04 0.05 0.61
-3.42 0.10 0.94
-3.51 0.11 0.92
-3.43 0.12 0.94
-3.31 0.14 0.96
-3.25 0.15 0.97
-3.35 0.17 0.95
-3.45 0.18 0.93
-3.42 0.20 0.94
-3.46 0.21 0.93
-3.40 0.23 0.94
-3.51 0.24 0.92
-3.67 0.27 0.89
-3.85 0.29 0.85
-8.13 0.41 0.41
-7.95 0.44 0.45
-7.96 0.46 0.45
-4.13 0.26 1.24
-8.05 0.50 0.43
-7.87 0.51 0.46
-7.67 0.52 0.51
-7.41 0.52 0.56
-7.98 0.58 0.44
-7.32 0.55 0.58
-7.83 0.61 0.47
-7.72 0.62 0.49
-7.43 0.62 0.55
-4.79 0.42 1.10
-7.22 0.64 0.59
-7.20 0.65 0.60
-7.29 0.68 0.58
-7.48 0.72 0.54
-7.56 0.74 0.52
-7.70 0.77 0.49
-7.63 0.79 0.50
-7.56 0.80 0.52
-4.85 0.54 1.08
-7.56 0.84 0.52
-7.64 0.86 0.50
-5.09 0.60 1.03
-7.88 0.93 0.45
-5.00 0.62 1.05
-5.04 0.64 1.04
-5.24 0.68 1.00
-7.70 0.99 0.48
-4.88 0.66 1.07
-4.79 0.66 1.09
-4.79 0.67 1.09
-4.85 0.69 1.08
-7.36 1.04 0.55
-7.40 1.09 0.54
-7.55 1.15 0.51
-7.57 1.17 0.50
-4.66 0.76 1.11
-4.47 0.75 1.15
-4.58 0.79 1.13
-4.06 0.79 1.23
-4.08 0.80 1.23
-4.54 0.90 1.13
-4.52 0.91 1.13
-4.09 0.84 1.22
-4.06 0.85 1.23
-4.05 0.86 1.23
-4.17 0.89 1.20
-4.55 0.97 1.12
-4.11 0.90 1.21
-4.07 0.90 1.22
-3.72 0.85 1.29
-3.75 0.86 1.29
-3.93 0.91 1.25
-3.57 0.84 1.33
-3.70 0.88 1.30
-3.83 0.92 1.27
-5.42 -1.55 0.53
-5.54 -1.55 0.51
-5.49 -1.52 0.52
-5.52 -1.51 0.51
-5.47 -1.48 0.52
-5.43 -1.45 0.53
-5.47 -1.44 0.52
-5.42 -1.41 0.53
-5.47 -1.40 0.52
-5.51 -1.39 0.52
-5.41 -1.35 0.54
-5.45 -1.34 0.53
-5.60 -1.34 0.50
-5.49 -1.30 0.52
-5.42 -1.27 0.54
-5.40 -1.25 0.54
-5.13 -1.15 0.60
-5.41 -1.18 0.54
-5.38 -1.15 0.55
-5.13 -1.10 0.60
-5.31 -1.07 0.56
-5.55 -1.08 0.51
-5.31 -1.03 0.56
-5.36 -1.01 0.55
-5.62 -1.03 0.50
-6.00 -1.05 0.42
-6.18 -1.06 0.38
-6.03 -1.02 0.42
-6.10 -1.01 0.40
-1.74 -0.48 1.29
-6.09 -0.94 0.40
-5.97 -0.91 0.43
-2.08 -0.49 1.22
-1.90 -0.46 1.26
-1.93 -0.45 1.25
-1.95 -0.43 1.25
-2.05 -0.43 1.23
-2.07 -0.42 1.23
-2.12 -0.41 1.21
-1.95 -0.39 1.25
-2.08 -0.39 1.22
-1.98 -0.37 1.24
-1.95 -0.35 1.25
-1.82 -0.33 1.28
-1.95 -0.33 1.25
-1.94 -0.32 1.25
-1.92 -0.31 1.25
-6.10 -0.57 0.40
-6.34 -0.56 0.35
-2.00 -0.28 1.24
-6.24 -0.51 0.37
-6.49 -0.42 0.32
-2.00 -0.18 1.24
-2.03 -0.16 1.23
-1.84 -0.13 1.27
-5.28 0.00 0.95
-5.24 0.01 0.96
-5.23 0.03 0.96
-5.44 0.04 0.92
-5.81 0.06 0.83
-5.50 0.07 0.90
-5.45 0.08 0.91
-5.26 0.10 0.95
-5.75 0.12 0.85
-5.96 0.14 0.80
-5.88 0.15 0.82
-6.76 0.24 0.63
-6.35 0.24 0.71
-6.78 0.27 0.62
-6.22 0.30 0.74
-7.49 0.42 0.46
-7.49 0.43 0.46
-6.68 0.41 0.64
-7.54 0.47 0.45
-7.47 0.49 0.47
-7.05 0.48 0.56
-6.74 0.48 0.62
-6.72 0.49 0.63
-6.87 0.52 0.59
-7.10 0.56 0.54
-7.01 0.57 0.56
-7.18 0.60 0.52
-7.31 0.63 0.50
-7.39 0.65 0.48
-7.31 0.67 0.49
-7.35 0.69 0.49
-7.26 0.70 0.50
-7.41 0.73 0.47
-7.37 0.74 0.48
-7.31 0.76 0.49
-7.33 0.78 0.49
-7.32 0.80 0.49
-7.29 0.81 0.49
-7.26 0.83 0.50
-7.32 0.85 0.48
-7.64 0.91 0.41
-7.67 0.93 0.41
-7.62 0.94 0.42
-5.18 0.67 0.95
-5.11 0.68 0.96
-7.49 0.99 0.44
-5.15 0.71 0.95
-5.11 0.72 0.96
-5.26 0.75 0.93
-5.11 0.75 0.96
-5.08 0.76 0.97
-5.01 0.76 0.98
-4.71 0.73 1.05
-4.78 0.75 1.03
-4.87 0.78 1.01
-4.72 0.77 1.04
-4.76 0.79 1.03
-4.83 0.81 1.02
-4.75 0.81 1.03
-4.94 0.86 0.99
-4.73 0.84 1.04
-4.74 0.85 1.03
-4.81 0.88 1.02
-4.92 0.91 0.99
-4.63 0.87 1.05
-4.59 0.88 1.06
-4.70 0.91 1.04
-4.43 0.87 1.10
-4.68 0.93 1.04
-4.48 0.91 1.08
-4.26 0.88 1.13
-4.81 0.99 1.01
-4.63 0.97 1.05
-4.57 0.97 1.06
-4.09 0.89 1.17
-4.13 0.91 1.16
-4.43 0.98 1.09
-4.26 0.96 1.13
-4.52 1.03 1.07
-4.79 1.09 1.01
-4.43 1.03 1.09
-4.62 1.08 1.04
-4.52 1.08 1.07
-4.57 1.10 1.05
-4.76 1.15 1.01
-4.61 1.13 1.04
-4.81 1.19 1.00
-4.56 1.15 1.05
-4.48 1.14 1.07
-4.55 1.17 1.05
-4.27 1.12 1.11
-4.40 1.16 1.09
-3.99 1.08 1.18
-3.85 1.05 1.21
-4.03 1.11 1.17
-3.95 1.10 1.18
-3.99 1.12 1.17
-0.61 -0.85 1.48
-5.21 -1.55 0.49
-5.35 -1.56 0.46
-5.23 -1.52 0.49
-5.35 -1.52 0.46
-5.42 -1.52 0.45
-5.23 -1.46 0.49
-5.45 -1.48 0.44
-5.51 -1.47 0.43
-5.45 -1.44 0.44
-5.52 -1.43 0.43
-5.49 -1.41 0.44
-5.50 -1.39 0.43
-5.50 -1.37 0.43
-5.51 -1.35 0.43
-5.51 -1.33 0.43
-5.42 -1.30 0.45
-5.41 -1.28 0.45
-5.52 -1.28 0.43
-5.50 -1.25 0.44
-5.52 -1.24 0.43
-5.37 -1.20 0.46
-5.35 -1.17 0.47
-5.62 -1.19 0.41
-5.50 -1.16 0.44
-5.19 -1.07 0.51
-2.97 -0.76 0.98
-5.28 -1.05 0.48
-4.97 -0.99 0.55
-5.05 -0.98 0.53
-5.03 -0.96 0.54
-5.05 -0.94 0.54
-5.12 -0.93 0.52
-5.02 -0.90 0.54
-5.19 -0.91 0.51
-5.65 -0.94 0.41
-2.69 -0.59 1.04
-2.63 -0.57 1.05
-2.89 -0.59 1.00
-2.57 -0.54 1.07
-2.97 -0.56 0.98
-2.66 -0.51 1.05
-2.15 -0.45 1.16
-2.24 -0.45 1.14
-2.01 -0.42 1.19
-2.16 -0.42 1.15
-2.23 -0.41 1.14
-2.52 -0.43 1.08
-2.15 -0.38 1.16
-2.32 -0.39 1.12
-2.28 -0.37 1.13
-2.33 -0.36 1.12
-2.33 -0.35 1.12
-2.07 -0.32 1.17
-2.30 -0.32 1.12
-4.43 -0.45 0.67
-4.28 -0.42 0.70
-7.25 -0.42 0.53
-7.15 -0.39 0.55
-7.12 -0.37 0.56
-6.96 -0.35 0.59
-6.88 -0.33 0.61
-7.04 -0.32 0.57
-7.08 -0.30 0.56
-7.12 -0.28 0.56
-7.02 -0.26 0.58
-6.99 -0.24 0.58
-7.34 -0.24 0.51
-7.63 -0.23 0.44
-5.10 -0.14 0.99
-5.41 -0.14 0.92
-5.51 -0.13 0.90
-5.35 -0.11 0.94
-4.75 -0.08 1.07
-8.11 -0.08 0.34
-5.73 -0.04 0.85
-6.13 -0.03 0.77
-5.41 -0.01 0.92
-2.85 -0.01 0.95
-2.49 0.01 1.03
-2.53 0.02 1.02
-4.87 0.04 0.99
-5.15 0.05 0.93
-5.32 0.07 0.89
-5.46 0.08 0.86
-5.19 0.09 0.92
-5.65 0.12 0.81
-4.42 0.10 1.09
-5.82 0.15 0.77
-4.44 0.14 1.08
-5.30 0.19 0.89
-6.52 0.25 0.61
-6.02 0.24 0.73
-5.85 0.25 0.76
-6.48 0.30 0.62
-4.51 0.22 1.07
-6.36 0.32 0.65
-6.41 0.34 0.64
-6.53 0.36 0.61
-6.48 0.38 0.62
-4.63 0.29 1.04
-4.56 0.30 1.05
-6.61 0.43 0.59
-6.55 0.45 0.60
-6.67 0.47 0.57
-6.78 0.50 0.55
-6.72 0.51 0.56
-6.62 0.52 0.58
-7.07 0.57 0.48
-7.24 0.60 0.44
-5.65 0.49 0.80
-7.40 0.65 0.40
-5.81 0.53 0.76
-5.66 0.54 0.80
-5.52 0.54 0.83
-5.56 0.56 0.82
-5.55 0.57 0.82
-5.49 0.58 0.83
-5.50 0.59 0.83
-5.27 0.59 0.88
-5.04 0.57 0.93
-5.38 0.62 0.86
-4.89 0.58 0.97
-4.97 0.61 0.95
-4.76 0.60 0.99
-4.84 0.62 0.98
-4.84 0.63 0.98
-4.65 0.62 1.02
-4.67 0.64 1.01
-4.67 0.65 1.01
-4.78 0.67 0.99
-4.72 0.68 1.00
-4.75 0.70 0.99
-4.66 0.70 1.01
-4.71 0.71 1.00
-4.60 0.71 1.02
-4.55 0.72 1.04
-4.43 0.71 1.06
-4.44 0.73 1.06
-4.59 0.76 1.02
-4.61 0.78 1.02
-4.57 0.78 1.03
-4.78 0.83 0.98
-4.47 0.79 1.05
-4.54 0.81 1.03
-4.31 0.79 1.08
-4.41 0.82 1.06
-4.62 0.86 1.01
-4.12 0.79 1.13
-4.00 0.78 1.15
-3.82 0.76 1.19
-3.71 0.75 1.22
-3.74 0.77 1.21
-3.70 0.77 1.22
-3.73 0.79 1.21
-3.77 0.80 1.20
-3.86 0.83 1.18
-3.79 0.83 1.20
-3.74 0.83 1.21
-3.72 0.84 1.21
-5.29 -1.54 0.40
-5.30 -1.51 0.40
-5.41 -1.49 0.37
-5.36 -1.17 0.39
-5.24 -1.13 0.42
-5.28 -1.12 0.41
-5.27 -1.10 0.41
-5.06 -1.05 0.46
-2.11 -0.64 1.12
-4.98 -1.01 0.48
-5.02 -0.99 0.47
-4.99 -0.97 0.48
-4.99 -0.95 0.48
-5.07 -0.94 0.46
-2.05 -0.56 1.13
-2.10 -0.56 1.12
-2.14 -0.55 1.11
-1.97 -0.52 1.15
-2.02 -0.52 1.14
-1.99 -0.50 1.15
-1.79 -0.47 1.19
-1.92 -0.47 1.16
-1.90 -0.46 1.17
-1.84 -0.44 1.18
-1.94 -0.44 1.16
-2.19 -0.45 1.10
-2.17 -0.44 1.11
-2.27 -0.44 1.09
-2.41 -0.44 1.05
-2.36 -0.42 1.06
-2.04 -0.38 1.14
-1.92 -0.36 1.16
-1.84 -0.35 1.18
-2.06 -0.35 1.13
-2.03 -0.34 1.14
-2.04 -0.33 1.14
-2.06 -0.31 1.13
-2.00 -0.29 1.14
-2.68 -0.32 0.99
-2.09 -0.28 1.13
-3.04 -0.32 0.91
-1.99 -0.25 1.15
-2.10 -0.24 1.12
-1.92 -0.22 1.16
-1.74 -0.20 1.20
-1.77 -0.20 1.20
-1.88 -0.19 1.17
-1.88 -0.18 1.17
-1.87 -0.17 1.17
-1.89 -0.16 1.17
-1.92 -0.15 1.16
-1.85 -0.13 1.18
-1.93 -0.13 1.16
-1.57 -0.11 1.24
-1.89 -0.10 1.17
-2.00 -0.09 1.14
-2.66 -0.02 0.99
-5.76 0.04 0.73
-5.37 0.07 0.82
-5.66 0.10 0.75
-6.74 0.32 0.49
-6.69 0.37 0.50
-6.55 0.43 0.53
-6.84 0.47 0.46
-4.93 0.59 0.90
-5.03 0.61 0.88
-4.84 0.60 0.93
-4.92 0.63 0.91
-4.83 0.63 0.93
-5.04 0.67 0.88
-4.92 0.67 0.90
-4.91 0.68 0.90
-4.94 0.70 0.90
-4.81 0.69 0.93
-4.70 0.69 0.95
-4.58 0.68 0.98
-4.86 0.74 0.91
-4.60 0.71 0.97
-4.55 0.72 0.99
-4.80 0.78 0.92
-4.58 0.76 0.98
-4.91 0.82 0.90
-4.51 0.79 0.99
-4.52 0.80 0.99
-4.72 0.84 0.94
-4.81 0.88 0.92
-4.14 0.78 1.08
-3.09 -1.05 0.84
-5.01 -0.65 0.40
-5.09 -0.62 0.38
-3.85 -0.36 0.67
-3.20 -0.29 0.82
-3.48 -0.26 0.75
-2.81 -0.15 0.91
-1.92 0.89 0.44
-0.75 -0.67 0.48
-1.80 0.90 0.22
-0.50 -0.76 0.26
