# .PCD v0.7 - Point Cloud Data file format
VERSION 0.7
FIELDS x y z
SIZE 4 4 4
TYPE F F F
COUNT 1 1 1
WIDTH 2309
HEIGHT 1
VIEWPOINT 0 0 0 1 0 0 0
POINTS 2309
DATA ASCII
-5.41 1.36 2.31
-5.67 1.52 2.31
-5.84 -0.64 2.37
-6.22 -0.34 2.33
-6.35 -0.79 2.29
-5.80 -0.66 2.28
-5.68 -0.55 2.28
-5.72 -0.54 2.28
-5.59 -0.30 2.27
-5.88 -0.62 2.25
-6.58 0.03 2.22
-6.66 0.05 2.22
-6.03 0.12 2.21
-5.83 0.20 2.21
-5.24 1.24 2.20
-5.27 1.26 2.20
-5.54 1.38 2.20
-6.43 1.69 2.21
-0.79 -0.57 2.20
-6.08 -0.92 2.23
-6.15 -0.85 2.23
-6.02 -0.74 2.23
-6.07 -0.72 2.23
-6.27 -0.72 2.23
-5.98 -0.65 2.23
-6.20 -0.65 2.23
-5.96 -0.61 2.23
-5.76 -0.58 2.23
-5.78 -0.56 2.23
-5.64 -0.53 2.23
-5.66 -0.51 2.23
-6.19 -0.33 2.22
-6.35 -0.31 2.22
-6.24 -0.29 2.22
-6.46 -0.24 2.22
-6.48 -0.22 2.22
-7.04 -0.23 2.22
-6.31 -0.16 2.22
-6.93 -0.12 2.22
-5.85 -0.07 2.21
-6.24 -0.03 2.22
-6.90 -0.00 2.22
-0.85 -0.60 2.20
-5.33 1.49 2.14
-6.17 -0.71 2.13
-6.01 -0.64 2.13
-5.96 -0.65 2.11
-5.61 0.01 2.11
-5.60 0.03 2.11
-5.75 0.04 2.11
-6.56 0.06 2.10
-6.70 0.08 2.10
-6.19 0.09 2.10
-6.48 0.14 2.10
-5.61 0.15 2.11
-6.00 0.19 2.11
-5.95 0.29 2.10
-5.54 0.37 2.11
-5.34 0.46 2.11
-5.56 1.30 2.10
-5.52 1.39 2.10
-5.65 1.60 2.10
-4.86 -1.46 2.10
-1.12 -0.60 2.14
-6.12 -1.07 2.08
-6.18 -1.00 2.08
-6.03 -0.78 2.08
-6.09 -0.74 2.08
-6.04 -0.72 2.08
-5.95 -0.69 2.08
-5.99 -0.68 2.08
-5.92 -0.65 2.08
-5.74 -0.62 2.09
-6.00 -0.62 2.08
-5.84 -0.58 2.08
-5.64 -0.55 2.09
-6.13 -0.56 2.08
-5.65 -0.49 2.09
-5.52 -0.47 2.09
-6.38 -0.31 2.10
-6.11 -0.20 2.11
-5.93 -0.16 2.11
-6.10 -0.15 2.11
-6.73 -0.10 2.10
-5.88 -0.06 2.11
-6.73 -0.05 2.10
-1.04 -0.60 2.14
-1.04 -0.59 2.14
-5.70 -0.67 2.04
-5.32 1.56 2.03
-5.94 -0.71 1.99
-5.77 -0.68 1.99
-5.86 -0.67 1.99
-5.70 -0.61 1.99
-5.45 0.06 1.97
-5.67 0.08 1.97
-5.10 0.24 1.98
-5.28 0.26 1.98
-5.99 -1.17 1.97
-6.20 -0.98 1.96
-6.13 -0.81 1.96
-6.05 -0.78 1.96
-5.91 -0.75 1.97
-5.95 -0.73 1.97
-5.67 -0.63 1.97
-5.67 -0.61 1.97
-5.57 -0.58 1.97
-6.92 -0.08 1.93
-5.69 0.26 2.00
-5.36 1.38 2.00
-5.66 1.50 1.99
-5.75 -1.66 1.95
-5.60 -1.61 1.95
-5.88 -1.18 1.94
-5.97 -1.18 1.94
-5.97 -1.14 1.94
-6.03 -0.92 1.93
-6.13 -0.89 1.93
-5.97 -0.79 1.94
-6.08 -0.78 1.93
-5.90 -0.75 1.94
-5.61 -0.68 1.95
-5.82 -0.66 1.94
-5.86 -0.65 1.94
-5.69 -0.61 1.94
-5.72 -0.60 1.94
-5.67 -0.57 1.94
-5.74 -0.56 1.94
-5.63 -0.53 1.94
-5.95 -0.21 2.00
-7.01 -0.06 1.97
-6.79 -0.02 1.97
-5.65 -0.63 1.89
-5.50 -1.56 1.87
-5.91 -1.12 1.85
-6.28 -1.05 1.84
-5.89 -0.96 1.85
-5.71 -0.65 1.86
-5.76 0.14 1.92
-5.24 0.68 1.93
-5.28 1.63 1.91
-6.10 -1.19 1.81
-6.15 -1.18 1.81
-6.10 -1.15 1.81
-5.91 -0.67 1.82
-5.67 -0.55 1.83
-6.10 -0.54 1.81
-6.06 -0.52 1.81
-6.27 -0.51 1.80
-5.81 -0.47 1.82
-5.62 -0.38 1.83
-5.30 -0.29 1.84
-5.91 -1.16 1.79
-6.01 -0.60 1.78
-7.01 -0.17 1.73
-5.71 0.12 1.87
-6.00 0.14 1.85
-6.16 0.16 1.85
-5.96 0.19 1.86
-5.62 0.51 1.87
-5.88 0.62 1.85
-5.56 0.60 1.87
-5.58 0.62 1.87
-5.18 0.98 1.88
-5.13 0.98 1.89
-5.21 1.01 1.88
-5.54 1.11 1.86
-5.22 1.07 1.88
-5.57 1.27 1.86
-5.71 1.34 1.85
-5.37 1.35 1.87
-5.26 1.41 1.87
-5.81 1.61 1.84
-5.46 1.59 1.86
-5.45 1.68 1.85
-5.42 1.69 1.86
-4.93 -1.60 1.80
-5.02 -1.60 1.79
-5.41 -1.57 1.77
-6.56 -1.37 1.71
-6.21 -1.25 1.73
-6.17 -1.21 1.73
-5.99 -1.16 1.74
-5.92 -1.11 1.75
-5.81 -1.06 1.75
-5.92 -0.97 1.75
-5.73 -0.70 1.76
-5.74 -0.64 1.75
-5.72 -0.58 1.75
-5.60 -0.55 1.76
-5.61 -0.53 1.76
-6.05 -0.52 1.74
-6.01 -0.50 1.74
-5.79 -0.47 1.75
-5.89 -0.32 1.86
-5.98 -0.31 1.86
-6.01 -0.30 1.86
-6.08 -0.29 1.85
-5.87 -0.26 1.86
-5.97 -0.22 1.86
-6.02 -0.17 1.86
-5.94 -0.14 1.86
-5.12 0.95 1.87
-5.20 1.04 1.86
-6.10 -0.48 1.70
-6.11 -0.46 1.70
-6.08 -0.44 1.70
-7.10 -0.15 1.64
-5.06 -1.64 1.73
-5.86 -1.52 1.68
-5.73 -1.14 1.69
-5.93 -1.11 1.67
-5.55 -1.04 1.70
-5.41 -0.65 1.70
-5.86 -0.59 1.68
-5.95 -0.57 1.67
-5.74 -0.54 1.68
-5.57 -0.51 1.69
-6.09 -0.52 1.66
-5.88 -0.49 1.67
-5.84 -0.47 1.68
-6.10 -0.46 1.66
-5.91 -0.43 1.67
-5.92 -0.41 1.67
-5.65 -0.36 1.69
-6.40 -0.33 1.64
-6.34 -0.29 1.64
-4.66 0.00 1.71
-5.30 1.05 1.80
-5.38 1.08 1.79
-5.26 1.12 1.80
-2.34 1.36 1.97
-5.22 -1.68 1.68
-5.50 -0.52 1.66
-5.59 -0.45 1.65
-5.82 -0.45 1.63
-6.28 -0.33 1.60
-6.12 -0.28 1.61
-7.03 -0.20 1.55
-6.80 -0.17 1.57
-4.46 -0.10 1.72
-5.04 -0.03 1.68
-6.30 0.03 1.72
-6.94 0.04 1.67
-6.10 0.08 1.73
-6.11 0.10 1.73
-6.23 0.12 1.72
-6.33 0.13 1.71
-5.97 0.14 1.74
-6.33 0.18 1.71
-6.17 0.19 1.72
-5.92 0.20 1.74
-5.91 0.21 1.74
-5.41 0.26 1.78
-5.75 0.62 1.75
-12.15 1.49 1.28
-5.15 0.68 1.79
-5.55 0.74 1.76
-5.33 0.74 1.77
-12.16 1.67 1.27
-5.26 0.76 1.78
-5.22 0.77 1.78
-5.18 0.78 1.78
-5.59 0.86 1.75
-5.04 0.79 1.79
-5.35 1.00 1.77
-5.36 1.05 1.76
-5.27 1.05 1.77
-5.32 1.17 1.76
-5.33 1.24 1.76
-5.60 1.40 1.74
-5.92 1.59 1.71
-5.61 1.54 1.73
-5.77 1.60 1.72
-5.46 1.56 1.74
-5.69 1.65 1.72
-5.56 1.64 1.73
-5.14 -1.68 1.64
-5.05 -1.61 1.65
-5.62 -1.59 1.61
-6.21 -1.69 1.57
-5.49 -1.19 1.62
-5.39 -1.15 1.62
-5.68 -1.12 1.60
-5.15 -0.65 1.64
-5.06 -0.62 1.65
-5.30 -0.62 1.63
-5.38 -0.61 1.62
-5.06 -0.57 1.65
-5.46 -0.58 1.62
-5.30 -0.55 1.63
-5.79 -0.56 1.59
-5.48 -0.52 1.62
-5.81 -0.53 1.59
-5.45 -0.49 1.62
-5.79 -0.49 1.59
-5.64 -0.46 1.60
-5.73 -0.44 1.60
-5.73 -0.43 1.60
-5.58 -0.40 1.61
-5.82 -0.39 1.59
-5.82 -0.37 1.59
-5.83 -0.35 1.59
-6.14 -0.34 1.57
-5.79 -0.31 1.59
-6.00 -0.20 1.74
-5.60 -0.16 1.77
-6.11 -0.05 1.73
-7.86 -0.03 1.60
-7.95 -0.01 1.60
-4.86 0.30 1.62
-5.66 -0.53 1.56
-5.87 -0.53 1.55
-5.71 -0.50 1.56
-5.74 -0.48 1.56
-5.80 -0.45 1.55
-5.95 -0.42 1.54
-6.12 -0.38 1.53
-6.29 -0.37 1.51
-6.29 -0.27 1.51
-10.58 -0.33 1.18
-6.00 0.05 1.67
-6.74 0.08 1.61
-5.51 0.08 1.71
-6.85 0.13 1.60
-10.31 0.29 1.31
-5.78 0.21 1.69
-5.82 0.25 1.68
-5.28 0.24 1.73
-5.43 0.60 1.71
-5.88 0.69 1.67
-5.83 0.70 1.67
-5.73 0.71 1.68
-5.20 0.66 1.72
-5.77 0.74 1.68
-12.32 1.66 1.12
-5.48 0.85 1.70
-5.21 0.82 1.72
-5.47 0.87 1.70
-5.78 0.96 1.67
-5.33 0.93 1.71
-5.08 0.92 1.73
-5.20 0.95 1.72
-5.22 0.98 1.71
-8.16 1.53 1.46
-5.03 0.97 1.73
-5.25 1.10 1.71
-4.92 1.05 1.74
-5.89 1.27 1.65
-5.27 1.17 1.71
-5.34 1.20 1.70
-5.13 1.22 1.72
-5.41 1.33 1.69
-5.53 1.37 1.68
-5.78 1.45 1.66
-5.37 1.38 1.69
-5.57 1.44 1.67
-5.81 1.52 1.65
-5.20 1.38 1.71
-5.68 1.52 1.66
-4.62 -0.70 1.60
-5.02 -0.73 1.57
-5.14 -0.72 1.56
-5.04 -0.69 1.57
-5.05 -0.68 1.57
-5.06 -0.66 1.57
-5.21 -0.65 1.55
-5.08 -0.62 1.56
-5.40 -0.63 1.54
-5.85 -0.65 1.50
-5.59 -0.61 1.52
-5.64 -0.59 1.52
-5.44 -0.56 1.53
-5.61 -0.55 1.52
-5.38 -0.52 1.54
-5.28 -0.49 1.55
-5.27 -0.47 1.55
-5.06 -0.44 1.57
-5.84 -0.47 1.50
-5.60 -0.31 1.71
-5.57 -0.29 1.71
-5.73 -0.29 1.70
-5.54 -0.26 1.71
-6.05 -0.27 1.67
-5.40 -0.22 1.72
-5.37 -0.20 1.72
-5.60 -0.20 1.71
-5.88 -0.19 1.68
-5.70 -0.17 1.70
-7.79 -0.22 1.52
-7.90 -0.20 1.52
-8.14 -0.19 1.50
-8.21 -0.17 1.49
-6.04 -0.11 1.67
-5.88 -0.09 1.68
-5.15 0.66 1.70
-5.29 0.69 1.69
-5.31 0.82 1.68
-5.09 0.89 1.70
-5.18 0.93 1.69
-5.13 0.94 1.70
-5.27 0.97 1.68
-5.09 0.97 1.70
-5.18 1.01 1.69
-4.92 1.03 1.71
-5.05 1.13 1.70
-5.33 1.29 1.67
-5.01 -0.55 1.53
-5.45 -0.56 1.49
-5.28 -0.53 1.51
-4.79 -0.48 1.55
-4.90 -0.47 1.54
-4.96 -0.46 1.53
-5.92 -0.49 1.45
-5.89 -0.47 1.45
-5.66 -0.44 1.47
-6.17 -0.45 1.43
-6.26 -0.43 1.42
-5.60 -0.38 1.48
-5.79 -0.37 1.46
-6.36 -0.37 1.41
-5.09 -0.27 1.52
-10.05 -0.29 1.08
-10.31 -0.27 1.06
-10.32 -0.21 1.06
-6.80 -0.02 1.37
-6.80 0.06 1.52
-6.19 0.16 1.58
-4.74 0.54 1.71
-6.16 0.77 1.57
-5.51 0.79 1.63
-5.55 0.81 1.63
-5.60 0.83 1.62
-5.62 0.88 1.62
-5.79 0.93 1.60
-5.49 0.91 1.63
-5.47 0.95 1.63
-5.25 0.94 1.65
-5.41 0.99 1.64
-5.14 0.99 1.66
-5.01 0.98 1.67
-5.21 1.20 1.65
-5.27 1.25 1.64
-5.81 1.51 1.58
-6.39 -1.62 1.36
-5.18 -1.34 1.47
-5.07 -0.80 1.48
-4.89 -0.73 1.50
-4.61 -0.67 1.52
-5.21 -0.67 1.47
-5.41 -0.67 1.45
-4.52 -0.56 1.53
-5.07 -0.59 1.48
-4.62 -0.54 1.52
-4.97 -0.54 1.49
-5.48 -0.56 1.44
-4.87 -0.50 1.50
-5.61 -0.53 1.43
-5.98 -0.54 1.39
-5.45 -0.49 1.44
-5.47 -0.47 1.44
-4.78 -0.41 1.51
-5.10 -0.41 1.48
-5.91 -0.44 1.40
-5.98 -0.42 1.39
-6.10 -0.40 1.38
-5.91 -0.38 1.40
-4.82 -0.31 1.50
-5.63 -0.32 1.43
-5.16 -0.29 1.47
-5.10 -0.27 1.48
-5.23 -0.25 1.46
-5.37 -0.24 1.45
-5.55 -0.23 1.43
-4.29 -0.14 1.55
-4.37 -0.13 1.54
-6.47 0.00 1.29
-6.24 0.06 1.31
-6.96 0.11 1.24
-6.73 0.13 1.26
-6.67 0.17 1.27
-6.63 0.19 1.27
-10.71 0.61 1.09
-4.43 0.41 1.71
-8.73 1.06 1.27
-5.30 0.80 1.62
-5.65 0.88 1.58
-5.09 0.86 1.64
-5.00 0.87 1.65
-5.11 0.91 1.63
-5.07 0.91 1.64
-4.93 0.90 1.65
-5.06 0.95 1.64
-5.05 0.96 1.64
-5.13 0.99 1.63
-5.04 0.98 1.64
-5.23 1.03 1.62
-5.21 1.04 1.62
-5.25 1.27 1.61
-4.84 -1.60 1.46
-6.05 -1.66 1.34
-5.32 -1.35 1.41
-3.21 -0.83 1.62
-3.64 -0.81 1.58
-3.09 -0.72 1.64
-5.64 -0.94 1.38
-5.16 -0.83 1.43
-4.95 -0.75 1.45
-5.06 -0.71 1.44
-4.87 -0.67 1.46
-5.18 -0.69 1.43
-5.21 -0.67 1.42
-5.17 -0.65 1.43
-5.74 -0.68 1.37
-4.60 -0.57 1.48
-4.69 -0.56 1.47
-5.02 -0.56 1.44
-4.92 -0.54 1.45
-5.14 -0.54 1.43
-5.72 -0.56 1.37
-5.12 -0.50 1.43
-4.99 -0.48 1.44
-5.02 -0.46 1.44
-4.90 -0.43 1.45
-5.60 -0.46 1.38
-6.00 -0.46 1.34
-6.26 -0.45 1.32
-6.28 -0.43 1.31
-6.11 -0.40 1.33
-5.30 -0.35 1.41
-6.05 -0.36 1.34
-5.81 -0.33 1.36
-5.60 -0.30 1.38
-5.72 -0.29 1.37
-5.59 -0.27 1.38
-5.70 -0.25 1.37
-6.35 -0.23 1.31
-5.59 -0.19 1.38
-5.96 -0.18 1.34
-4.77 -0.14 1.46
-6.89 -0.15 1.25
-4.32 -0.08 1.51
-5.21 -0.05 1.42
-5.22 -0.04 1.42
-6.90 0.06 1.43
-6.47 0.10 1.47
-13.89 0.25 0.68
-7.17 0.15 1.40
-6.63 0.15 1.45
-10.40 0.31 1.05
-13.46 0.43 0.72
-6.12 0.25 1.51
-10.58 0.50 1.03
-6.06 0.35 1.51
-5.26 0.39 1.59
-6.51 0.52 1.46
-5.44 0.70 1.57
-12.51 1.59 0.80
-12.04 1.56 0.85
-5.30 0.72 1.58
-5.36 0.77 1.57
-5.51 0.81 1.56
-5.39 0.80 1.57
-5.42 0.82 1.57
-5.53 0.85 1.55
-5.55 0.88 1.55
-5.80 0.94 1.52
-5.28 0.90 1.58
-5.03 0.87 1.61
-5.19 0.91 1.59
-5.08 0.90 1.60
-4.86 0.88 1.62
-5.32 0.97 1.57
-5.31 0.98 1.57
-5.05 0.96 1.60
-5.27 1.04 1.58
-5.27 1.25 1.57
-5.11 1.26 1.58
-5.17 1.33 1.57
-5.49 1.42 1.54
-5.49 1.44 1.54
-5.29 1.40 1.56
-5.12 1.37 1.58
-5.64 1.53 1.52
-5.65 1.58 1.52
-5.77 1.69 1.50
-4.35 1.46 1.65
-4.70 -1.53 1.42
-4.92 -1.55 1.40
-5.50 -1.65 1.34
-5.40 -1.52 1.35
-5.37 -1.32 1.35
-5.37 -0.96 1.35
-5.44 -0.96 1.35
-4.72 -0.77 1.42
-4.39 -0.70 1.46
-4.87 -0.73 1.41
-5.22 -0.73 1.37
-5.05 -0.69 1.39
-4.41 -0.62 1.46
-5.04 -0.66 1.39
-4.92 -0.63 1.40
-4.99 -0.62 1.39
-4.45 -0.56 1.45
-5.06 -0.59 1.39
-4.76 -0.55 1.42
-5.15 -0.56 1.38
-5.19 -0.54 1.37
-4.82 -0.50 1.41
-5.23 -0.51 1.37
-4.82 -0.47 1.41
-4.80 -0.45 1.41
-4.59 -0.42 1.44
-4.44 -0.39 1.45
-4.44 -0.38 1.45
-4.80 -0.38 1.41
-4.57 -0.35 1.44
-4.35 -0.32 1.46
-4.79 -0.33 1.41
-5.09 -0.32 1.38
-5.50 -0.32 1.34
-6.03 -0.32 1.28
-5.25 -0.19 1.61
-5.33 -0.18 1.60
-5.14 -0.16 1.62
-5.48 -0.15 1.58
-5.57 -0.14 1.57
-7.61 -0.18 1.35
-5.61 -0.12 1.57
-5.69 -0.10 1.56
-5.70 -0.09 1.56
-5.68 -0.08 1.56
-6.03 -0.07 1.52
-6.36 -0.05 1.48
-6.31 -0.04 1.49
-6.39 0.08 1.18
-7.57 -0.07 1.05
-13.15 -1.48 0.32
-6.50 -0.00 1.05
-6.27 0.02 1.08
-8.16 0.07 1.12
-5.03 0.24 1.52
-4.65 0.64 1.55
-5.66 0.85 1.42
-5.57 0.92 1.43
-4.57 0.78 1.56
-4.73 0.82 1.54
-5.52 1.00 1.43
-5.58 1.06 1.42
-5.18 1.00 1.48
-7.05 1.36 1.23
-5.25 1.15 1.46
-5.12 1.13 1.48
-4.64 1.05 1.54
-4.76 1.08 1.52
-4.66 1.15 1.53
-6.04 -1.58 1.11
-4.07 -0.70 1.36
-4.21 -0.69 1.35
-4.48 -0.71 1.31
-4.34 -0.68 1.33
-4.35 -0.66 1.33
-4.53 -0.66 1.30
-4.56 -0.65 1.30
-6.11 -0.69 1.10
-5.58 -0.61 1.17
-4.66 -0.44 1.29
-5.08 -0.41 1.23
-4.32 -0.35 1.33
-4.88 -0.37 1.26
-4.38 -0.32 1.32
-4.28 -0.30 1.33
-4.14 -0.28 1.35
-4.36 -0.28 1.32
-4.23 -0.25 1.34
-4.23 -0.22 1.34
-5.91 -0.26 1.13
-5.81 -0.24 1.14
-5.52 -0.21 1.18
-6.50 -0.19 1.05
-5.49 -0.15 1.18
-6.63 -0.15 1.03
-6.22 -0.12 1.09
-5.89 -0.10 1.13
-5.71 -0.08 1.15
-6.16 -0.06 1.09
-6.14 -0.04 1.09
-6.31 -0.02 1.07
-7.29 0.01 1.18
-6.40 0.04 1.30
-8.88 0.07 0.97
-6.70 0.07 1.26
-6.74 0.11 1.25
-6.33 0.12 1.31
-7.12 0.15 1.20
-7.79 0.20 1.11
-8.24 0.31 1.05
-8.16 0.37 1.06
-8.15 0.52 1.06
-10.73 0.71 0.71
-11.11 0.79 0.66
-7.91 0.59 1.09
-8.78 0.67 0.97
-7.80 0.62 1.10
-7.67 0.85 1.11
-5.36 0.62 1.42
-5.52 0.75 1.40
-5.78 0.80 1.36
-5.36 0.78 1.42
-5.65 0.84 1.38
-6.58 1.00 1.25
-4.94 0.78 1.47
-5.49 0.89 1.40
-5.96 0.99 1.33
-5.94 1.05 1.33
-6.77 1.36 1.21
-7.27 1.49 1.14
-5.49 1.23 1.39
-5.90 1.34 1.33
-4.52 -1.58 1.25
-4.77 -1.53 1.22
-4.94 -1.18 1.20
-5.16 -1.16 1.17
-4.82 -0.90 1.21
-4.66 -0.84 1.24
-4.31 -0.77 1.28
-4.16 -0.74 1.30
-4.34 -0.73 1.28
-4.06 -0.68 1.32
-4.63 -0.72 1.24
-4.05 -0.63 1.32
-4.47 -0.64 1.26
-4.90 -0.65 1.20
-5.62 -0.67 1.11
-3.83 -0.46 1.35
-5.59 -0.57 1.11
-5.75 -0.56 1.09
-3.73 -0.41 1.36
-5.25 -0.49 1.16
-5.45 -0.49 1.13
-5.18 -0.44 1.16
-5.37 -0.43 1.14
-4.98 -0.39 1.19
-5.49 -0.40 1.12
-4.13 -0.31 1.30
-4.40 -0.31 1.27
-4.31 -0.29 1.28
-4.27 -0.26 1.29
-4.17 -0.24 1.30
-4.38 -0.23 1.27
-4.20 -0.21 1.29
-5.90 -0.24 1.07
-5.93 -0.22 1.06
-5.04 -0.18 1.18
-4.91 -0.14 1.20
-8.25 -0.11 1.05
-8.19 -0.09 1.06
-7.08 -0.01 1.21
-6.14 -0.00 0.97
-4.70 0.01 1.18
-5.94 0.04 1.00
-5.68 0.06 1.04
-6.05 0.08 0.98
-5.88 0.10 1.01
-5.72 0.11 1.03
-5.54 0.13 1.05
-5.68 0.15 1.03
-5.84 0.17 1.01
-5.66 0.19 1.04
-7.66 0.21 1.07
-10.52 0.34 0.67
-10.06 0.40 0.73
-9.58 0.45 0.80
-9.88 0.49 0.76
-9.73 0.55 0.78
-9.66 0.57 0.78
-9.87 0.61 0.75
-10.01 0.64 0.73
-10.62 0.70 0.65
-10.32 0.73 0.69
-10.74 0.79 0.63
-10.27 0.78 0.69
-10.48 0.82 0.66
-10.58 0.85 0.65
-10.12 0.84 0.71
-10.32 0.93 0.68
-9.54 1.01 0.79
-9.60 1.04 0.78
-9.21 1.02 0.84
-4.61 0.61 1.49
-9.08 1.18 0.85
-9.18 1.22 0.84
-5.48 0.77 1.36
-8.84 1.24 0.88
-4.70 0.69 1.48
-4.85 0.75 1.45
-5.08 1.31 1.40
-2.03 -0.93 1.56
-5.73 -1.58 1.03
-4.24 -0.81 1.25
-4.35 -0.81 1.23
-4.28 -0.78 1.24
-4.40 -0.78 1.22
-4.19 -0.74 1.25
-4.31 -0.74 1.24
-4.33 -0.72 1.23
-4.40 -0.71 1.22
-5.68 -0.62 1.04
-3.55 -0.43 1.34
-4.86 -0.47 1.16
-4.77 -0.45 1.17
-5.93 -0.48 1.01
-5.74 -0.43 1.03
-5.92 -0.42 1.01
-6.07 -0.41 0.99
-6.08 -0.39 0.98
-5.95 -0.36 1.00
-6.16 -0.35 0.97
-5.95 -0.32 1.00
-4.37 -0.24 1.22
-6.10 -0.29 0.98
-4.52 -0.22 1.20
-4.58 -0.20 1.19
-6.43 -0.23 0.93
-6.32 -0.21 0.95
-4.74 -0.16 1.17
-6.64 -0.17 0.90
-5.60 -0.14 1.05
-6.58 -0.13 0.91
-5.77 -0.10 1.02
-6.26 -0.08 0.96
-6.06 -0.06 0.98
-6.03 -0.04 0.99
-6.17 -0.02 0.97
-6.63 0.01 1.17
-8.60 0.03 0.87
-8.44 0.05 0.90
-8.38 0.07 0.90
-8.82 0.09 0.84
-10.31 0.13 0.62
-9.73 0.15 0.70
-8.76 0.16 0.85
-10.03 0.20 0.66
-9.39 0.21 0.75
-9.74 0.24 0.70
-9.99 0.27 0.66
-9.44 0.28 0.74
-8.10 0.30 0.94
-9.10 0.36 0.79
-9.15 0.45 0.78
-9.02 0.47 0.80
-9.23 0.50 0.77
-9.69 0.55 0.70
-5.53 0.33 1.32
-9.77 0.60 0.69
-10.05 0.64 0.65
-10.03 0.66 0.65
-7.62 0.53 1.01
-8.09 0.58 0.94
-10.05 0.74 0.64
-7.29 0.56 1.06
-10.29 0.81 0.61
-7.53 0.62 1.02
-8.92 0.75 0.81
-10.07 0.86 0.64
-10.36 0.91 0.59
-10.54 0.95 0.57
-7.62 0.72 1.00
-7.26 0.70 1.06
-5.78 0.58 1.28
-5.40 0.56 1.34
-5.12 0.54 1.38
-9.81 1.04 0.67
-4.95 0.55 1.40
-9.02 1.00 0.79
-5.37 0.62 1.34
-5.31 0.63 1.35
-5.36 0.65 1.34
-5.22 0.64 1.36
-8.98 1.11 0.79
-8.96 1.13 0.79
-5.43 0.71 1.33
-5.52 0.74 1.31
-5.51 0.75 1.31
-5.09 0.71 1.38
-4.85 0.69 1.41
-6.37 0.91 1.18
-6.32 0.92 1.19
-5.83 0.86 1.26
-5.70 0.86 1.28
-5.50 0.86 1.31
-5.02 0.80 1.38
-6.13 0.98 1.21
-5.56 0.91 1.30
-5.96 0.99 1.24
-6.16 1.03 1.21
-6.30 1.07 1.19
-6.20 1.07 1.20
-6.27 1.10 1.19
-5.96 1.06 1.24
-6.61 1.19 1.14
-5.83 1.07 1.25
-5.91 1.10 1.24
-5.93 1.14 1.24
-5.95 1.15 1.23
-6.00 1.18 1.22
-6.01 1.20 1.22
-5.98 1.21 1.23
-5.95 1.22 1.23
-6.49 1.34 1.15
-5.74 1.25 1.26
-4.50 1.02 1.45
-5.83 1.31 1.24
-6.00 1.38 1.22
-6.26 1.46 1.17
-5.96 1.42 1.22
-5.50 1.35 1.29
-5.13 1.28 1.34
-5.74 1.43 1.25
-5.64 1.43 1.26
-5.70 1.47 1.25
-6.16 1.63 1.18
-5.66 1.52 1.26
-5.20 1.43 1.33
-5.94 1.64 1.21
-4.97 -1.65 1.07
-5.10 -1.66 1.05
-4.76 -1.57 1.11
-4.91 -1.57 1.08
-5.06 -1.52 1.06
-5.33 -1.52 1.02
-5.19 -1.27 1.05
-5.15 -1.21 1.05
-4.10 -0.76 1.21
-4.45 -0.77 1.16
-4.80 -0.79 1.11
-4.52 -0.75 1.15
-4.15 -0.69 1.20
-4.50 -0.71 1.15
-4.51 -0.70 1.15
-4.66 -0.69 1.13
-5.28 -0.74 1.04
-5.44 -0.73 1.01
-4.98 -0.67 1.08
-5.70 -0.72 0.97
-4.43 -0.59 1.16
-4.47 -0.58 1.16
-5.58 -0.65 0.99
-5.47 -0.62 1.01
-5.62 -0.61 0.98
-5.02 -0.55 1.07
-5.23 -0.55 1.04
-4.77 -0.50 1.11
-4.84 -0.49 1.10
-4.68 -0.46 1.13
-4.67 -0.44 1.13
-5.12 -0.45 1.06
-5.26 -0.44 1.04
-4.92 -0.40 1.09
-4.82 -0.38 1.10
-5.07 -0.38 1.07
-5.13 -0.36 1.06
-5.93 -0.38 0.94
-5.90 -0.36 0.94
-5.99 -0.34 0.93
-6.04 -0.32 0.92
-6.47 -0.23 1.19
-6.63 -0.22 1.17
-6.18 -0.19 1.23
-6.07 -0.17 1.25
-8.26 -0.21 0.93
-6.41 -0.15 1.20
-8.28 -0.17 0.92
-6.24 -0.12 1.23
-5.80 -0.09 1.29
-6.47 -0.09 1.19
-6.14 -0.07 1.24
-8.48 -0.08 0.89
-6.43 -0.04 1.20
-6.86 -0.03 1.13
-8.78 -0.01 0.85
-6.12 -0.00 0.85
-6.25 0.02 0.83
-6.01 0.04 0.86
-6.28 0.06 0.82
-6.30 0.08 0.82
-6.22 0.10 0.83
-5.90 0.12 0.88
-5.69 0.13 0.91
-6.16 0.20 0.84
-6.56 0.23 0.78
-6.53 0.27 0.78
-6.49 0.29 0.78
-6.40 0.31 0.80
-6.19 0.32 0.83
-6.31 0.35 0.81
-6.26 0.37 0.82
-9.39 0.46 0.68
-9.76 0.57 0.62
-8.76 0.56 0.78
-8.21 0.57 0.86
-8.96 0.64 0.74
-7.87 0.58 0.92
-7.65 0.60 0.95
-10.66 0.86 0.48
-10.74 0.89 0.46
-10.41 1.02 0.51
-10.27 1.03 0.53
-8.17 0.84 0.86
-10.16 1.07 0.55
-9.26 1.00 0.69
-9.32 1.07 0.68
-9.63 1.13 0.63
-9.25 1.11 0.69
-9.25 1.13 0.69
-9.30 1.16 0.68
-9.17 1.19 0.70
-9.09 1.21 0.71
-9.40 1.27 0.66
-4.46 0.64 1.44
-9.37 1.45 0.66
-4.35 0.93 1.44
-6.26 -0.39 0.83
-6.34 -0.36 0.82
-6.15 -0.17 0.85
-6.05 -0.14 0.86
-6.23 -0.13 0.83
-6.12 -0.10 0.85
-6.15 -0.08 0.84
-5.98 -0.06 0.87
-6.04 -0.04 0.86
-6.25 -0.02 0.83
-8.70 0.01 0.72
-6.22 0.02 1.13
-11.49 0.06 0.26
-7.79 0.06 0.87
-8.13 0.10 0.81
-7.79 0.12 0.87
-8.62 0.15 0.73
-9.06 0.18 0.66
-9.02 0.20 0.67
-7.79 0.21 0.87
-8.02 0.26 0.83
-7.74 0.29 0.87
-7.80 0.31 0.86
-7.69 0.32 0.88
-8.03 0.36 0.83
-7.74 0.36 0.87
-7.62 0.38 0.89
-7.55 0.39 0.90
-7.66 0.42 0.88
-7.49 0.43 0.91
-7.62 0.45 0.89
-7.64 0.47 0.89
-7.72 0.50 0.87
-7.61 0.51 0.89
-8.14 0.56 0.80
-7.57 0.54 0.90
-7.64 0.57 0.88
-7.91 0.61 0.84
-7.80 0.62 0.86
-7.61 0.62 0.89
-7.76 0.65 0.86
-7.85 0.68 0.85
-7.79 0.69 0.86
-7.77 0.71 0.86
-8.19 0.77 0.79
-8.26 0.79 0.78
-8.33 0.82 0.76
-8.52 0.86 0.73
-8.40 0.87 0.75
-8.61 0.91 0.71
-10.21 1.10 0.45
-5.37 0.61 1.25
-8.80 1.00 0.68
-8.45 0.98 0.74
-9.20 1.09 0.61
-9.86 1.19 0.50
-9.33 1.15 0.59
-9.23 1.16 0.61
-9.43 1.21 0.57
-9.23 1.20 0.61
-9.30 1.24 0.59
-9.57 1.30 0.55
-4.61 0.66 1.37
-9.47 1.33 0.56
-9.37 1.34 0.58
-9.31 1.38 0.59
-8.99 1.35 0.64
-9.37 1.50 0.57
-9.44 1.54 0.56
-5.83 0.98 1.16
-9.42 1.58 0.56
-6.15 1.40 1.09
-4.41 1.04 1.39
-4.54 1.13 1.36
-6.20 1.59 1.07
-4.91 -1.50 0.97
-4.67 -1.29 1.01
-2.35 -0.56 1.40
-4.88 -0.75 0.98
-4.59 -0.70 1.03
-4.74 -0.70 1.01
-4.64 -0.68 1.02
-4.84 -0.68 0.99
-4.75 -0.62 1.00
-4.99 -0.62 0.96
-4.64 -0.58 1.02
-4.15 -0.52 1.10
-4.23 -0.51 1.09
-5.33 -0.58 0.91
-5.18 -0.55 0.93
-5.34 -0.54 0.91
-5.49 -0.53 0.88
-5.12 -0.49 0.94
-4.67 -0.44 1.02
-4.75 -0.43 1.00
-4.43 -0.40 1.05
-5.46 -0.30 1.26
-5.14 -0.26 1.31
-7.41 -0.34 0.94
-7.00 -0.30 1.00
-6.74 -0.27 1.05
-7.13 -0.27 0.98
-7.00 -0.25 1.00
-6.30 -0.21 1.12
-6.66 -0.21 1.06
-6.77 -0.19 1.04
-6.29 -0.12 1.12
-7.02 -0.11 1.00
-7.68 -0.11 0.89
-6.15 -0.07 1.14
-6.30 -0.06 1.12
-8.64 -0.06 0.73
-6.25 -0.03 1.12
-5.85 -0.00 0.75
-3.50 0.01 1.16
-6.67 0.04 1.00
-7.96 0.08 0.78
-8.66 0.13 0.66
-7.67 0.14 0.83
-8.04 0.16 0.76
-7.85 0.18 0.80
-7.62 0.19 0.84
-7.55 0.23 0.85
-7.43 0.26 0.87
-7.41 0.28 0.87
-7.58 0.30 0.84
-4.73 0.20 1.33
-7.36 0.33 0.88
-7.31 0.36 0.88
-7.24 0.39 0.90
-7.23 0.41 0.90
-7.25 0.43 0.89
-4.56 0.29 1.36
-7.37 0.47 0.87
-5.29 0.37 1.23
-7.47 0.55 0.85
-7.72 0.59 0.81
-5.16 0.41 1.25
-7.53 0.61 0.84
-7.66 0.64 0.82
-7.96 0.71 0.76
-7.11 0.67 0.91
-7.70 0.74 0.81
-6.99 0.69 0.93
-8.59 0.86 0.65
-8.46 0.87 0.67
-8.49 0.92 0.67
-5.34 0.63 1.21
-4.93 0.59 1.28
-5.14 0.63 1.25
-4.76 0.60 1.31
-5.17 0.67 1.24
-4.90 0.67 1.29
-4.98 0.69 1.27
-4.86 0.69 1.29
-5.26 0.75 1.22
-5.15 0.75 1.24
-4.98 0.75 1.27
-5.71 0.89 1.14
-5.86 0.92 1.11
-9.21 1.45 0.53
-6.08 0.99 1.07
-9.22 1.50 0.52
-5.91 1.01 1.10
-9.54 1.64 0.46
-6.00 1.07 1.08
-5.84 1.06 1.11
-5.74 1.05 1.13
-4.64 0.90 1.32
-4.27 0.85 1.38
-4.96 0.99 1.26
-4.39 0.90 1.36
-5.73 1.21 1.12
-5.42 1.24 1.17
-4.71 1.11 1.30
-5.59 1.38 1.13
-3.87 1.31 1.42
-3.69 1.64 1.42
-3.27 1.53 1.50
-3.03 1.67 1.52
-2.43 1.62 1.61
-4.49 -1.27 0.99
-4.79 -1.29 0.94
-4.26 -1.13 1.03
-2.51 -0.67 1.33
-2.61 -0.66 1.32
-2.60 -0.61 1.32
-2.90 -0.63 1.27
-2.87 -0.62 1.27
-2.84 -0.59 1.28
-2.81 -0.57 1.28
-3.18 -0.60 1.22
-3.07 -0.56 1.24
-2.95 -0.54 1.26
-2.83 -0.51 1.28
-4.10 -0.61 1.06
-3.47 -0.49 1.17
-3.53 -0.48 1.16
-3.80 -0.49 1.11
-4.68 -0.53 0.96
-4.41 -0.47 1.01
-4.44 -0.46 1.00
-4.38 -0.44 1.01
-4.44 -0.43 1.00
-4.36 -0.41 1.02
-4.59 -0.40 0.98
-4.38 -0.38 1.01
-4.15 -0.33 1.05
-4.29 -0.32 1.03
-5.88 -0.36 0.75
-5.61 -0.33 0.80
-5.47 -0.30 0.82
-5.62 -0.29 0.80
-5.63 -0.27 0.80
-3.83 -0.20 1.10
-5.73 -0.24 0.78
-5.21 -0.20 0.87
-5.57 -0.19 0.80
-5.73 -0.18 0.78
-5.82 -0.16 0.76
-5.94 -0.14 0.74
-5.66 -0.12 0.79
-5.80 -0.10 0.76
-5.87 -0.08 0.75
-5.61 -0.06 0.80
-5.81 -0.04 0.76
-5.82 -0.02 0.76
-6.70 0.00 0.94
-6.89 0.02 0.91
-6.70 0.04 0.94
-6.99 0.06 0.89
-7.07 0.07 0.87
-7.04 0.09 0.88
-7.20 0.11 0.85
-7.38 0.13 0.81
-7.27 0.15 0.83
-6.90 0.16 0.90
-7.13 0.18 0.86
-7.42 0.20 0.81
-7.49 0.22 0.79
-7.56 0.24 0.78
-7.47 0.26 0.80
-7.23 0.27 0.84
-7.41 0.29 0.81
-7.11 0.30 0.86
-6.98 0.31 0.88
-7.09 0.33 0.86
-7.02 0.35 0.88
-7.00 0.36 0.88
-7.11 0.39 0.86
-7.14 0.41 0.85
-7.14 0.42 0.85
-7.30 0.45 0.82
-7.36 0.47 0.81
-7.17 0.48 0.85
-7.31 0.51 0.82
-7.18 0.51 0.84
-7.45 0.55 0.79
-7.40 0.57 0.80
-7.40 0.58 0.80
-7.47 0.61 0.79
-7.54 0.63 0.77
-7.46 0.64 0.79
-7.11 0.63 0.85
-6.93 0.63 0.88
-7.80 0.73 0.72
-8.18 0.79 0.65
-8.39 0.82 0.62
-8.13 0.82 0.66
-5.39 0.57 1.16
-5.11 0.55 1.21
-5.01 0.55 1.23
-8.49 0.94 0.59
-5.34 0.62 1.17
-6.06 0.71 1.04
-5.63 0.68 1.11
-5.41 0.66 1.15
-8.53 1.05 0.58
-6.13 0.78 1.02
-8.96 1.14 0.50
-8.99 1.17 0.50
-6.42 0.86 0.96
-6.09 0.84 1.02
-6.17 0.86 1.01
-6.19 0.88 1.01
-6.18 0.89 1.01
-6.49 0.95 0.95
-6.06 0.91 1.03
-6.12 0.93 1.02
-6.37 0.99 0.97
-6.16 0.97 1.01
-6.11 0.98 1.01
-6.36 1.03 0.97
-6.49 1.07 0.94
-6.20 1.04 1.00
-6.09 1.04 1.02
-6.13 1.06 1.01
-6.14 1.08 1.01
-6.03 1.07 1.02
-6.04 1.09 1.02
-6.01 1.10 1.03
-6.15 1.14 1.00
-4.50 0.86 1.30
-6.19 1.18 0.99
-6.27 1.21 0.98
-4.41 0.88 1.32
-5.71 1.14 1.08
-6.22 1.25 0.98
-6.03 1.23 1.02
-6.19 1.28 0.99
-7.12 1.48 0.81
-5.78 1.23 1.06
-5.91 1.27 1.04
-6.27 1.36 0.97
-6.42 1.41 0.94
-6.32 1.40 0.96
-6.28 1.41 0.96
-6.31 1.45 0.96
-5.65 1.32 1.08
-6.15 1.46 0.98
-6.42 1.54 0.93
-6.21 1.51 0.97
-6.38 1.56 0.94
-6.14 1.52 0.98
-6.45 1.61 0.92
-6.39 1.62 0.93
-6.30 1.61 0.95
-6.29 1.63 0.95
-6.12 1.67 0.98
-4.68 -1.55 0.89
-5.25 -1.64 0.79
-4.97 -1.56 0.84
-5.03 -1.56 0.83
-4.75 -1.48 0.88
-4.76 -1.46 0.88
-4.62 -1.42 0.91
-4.66 -1.41 0.90
-4.44 -1.35 0.94
-4.52 -1.35 0.93
-4.86 -1.40 0.86
-4.54 -1.32 0.92
-4.41 -1.28 0.95
-4.41 -1.26 0.95
-4.49 -1.26 0.93
-4.48 -1.24 0.93
-4.16 -1.17 0.99
-4.31 -1.16 0.97
-4.49 -1.14 0.93
-4.40 -1.11 0.95
-4.71 -1.14 0.89
-4.19 -1.04 0.99
-4.30 -1.05 0.97
-4.49 -1.04 0.93
-4.54 -1.03 0.93
-4.66 -1.03 0.90
-4.73 -1.03 0.89
-4.81 -1.02 0.88
-4.91 -1.00 0.86
-4.93 -0.95 0.86
-5.12 -0.96 0.82
-4.90 -0.91 0.86
-5.07 -0.91 0.83
-5.12 -0.90 0.82
-5.05 -0.87 0.84
-3.66 -0.70 1.09
-4.44 -0.77 0.95
-4.58 -0.77 0.92
-4.57 -0.75 0.92
-4.50 -0.73 0.93
-4.77 -0.74 0.89
-4.86 -0.73 0.87
-4.73 -0.70 0.89
-4.67 -0.68 0.90
-4.54 -0.65 0.93
-4.67 -0.65 0.90
-4.73 -0.63 0.89
-5.00 -0.64 0.84
-4.94 -0.62 0.85
-4.82 -0.59 0.88
-5.08 -0.59 0.83
-4.82 -0.56 0.88
-5.06 -0.56 0.83
-5.23 -0.55 0.80
-4.48 -0.48 0.94
-5.06 -0.50 0.83
-4.95 -0.48 0.85
-4.94 -0.46 0.86
-4.69 -0.43 0.90
-5.05 -0.43 0.84
-5.06 -0.41 0.83
-5.01 -0.39 0.84
-4.75 -0.36 0.89
-4.37 -0.33 0.96
-4.37 -0.31 0.96
-4.29 -0.29 0.97
-4.35 -0.28 0.96
-4.36 -0.26 0.96
-4.92 -0.27 0.86
-5.22 -0.26 0.80
-5.87 -0.26 0.69
-5.66 -0.24 0.72
-5.71 -0.22 0.71
-5.80 -0.20 0.70
-5.77 -0.18 0.70
-5.67 -0.16 0.72
-6.78 -0.11 0.93
-6.88 -0.10 0.91
-6.85 -0.08 0.91
-6.34 -0.06 1.00
-6.23 -0.04 1.02
-6.50 -0.03 0.98
-6.64 -0.01 0.95
-5.80 -0.00 0.63
-6.09 0.02 0.57
-6.12 0.04 0.56
-6.26 0.06 0.54
-6.15 0.08 0.56
-6.19 0.10 0.55
-6.11 0.12 0.56
-5.88 0.13 0.61
-6.07 0.16 0.57
-6.00 0.18 0.58
-5.92 0.19 0.60
-6.97 0.19 0.83
-4.87 0.15 1.22
-7.08 0.23 0.80
-7.01 0.24 0.82
-7.15 0.27 0.79
-6.85 0.27 0.85
-6.95 0.29 0.83
-6.82 0.30 0.85
-4.47 0.21 1.30
-7.06 0.35 0.81
-6.99 0.36 0.82
-6.97 0.38 0.82
-6.98 0.40 0.82
-6.94 0.41 0.83
-6.95 0.43 0.83
-6.97 0.45 0.82
-7.01 0.47 0.81
-7.09 0.49 0.80
-6.94 0.50 0.83
-6.85 0.51 0.84
-4.94 0.38 1.20
-5.03 0.40 1.19
-7.27 0.59 0.76
-7.53 0.63 0.71
-8.56 0.73 0.51
-7.81 0.69 0.66
-4.88 0.45 1.21
-5.12 0.49 1.17
-8.04 0.77 0.61
-4.71 0.47 1.24
-5.15 0.53 1.16
-8.74 0.90 0.47
-4.99 0.54 1.19
-5.66 0.62 1.06
-5.25 0.59 1.14
-5.45 0.63 1.10
-5.25 0.62 1.14
-5.20 0.62 1.15
-5.15 0.63 1.16
-8.88 1.09 0.44
-8.87 1.11 0.44
-4.75 0.62 1.23
-5.14 0.68 1.15
-4.71 0.64 1.24
-9.05 1.22 0.40
-9.06 1.24 0.40
-8.81 1.23 0.45
-9.06 1.29 0.40
-4.86 0.72 1.21
-9.38 1.38 0.34
-4.44 0.69 1.28
-5.82 0.90 1.02
-4.29 0.69 1.31
-6.02 0.96 0.98
-6.09 0.99 0.96
-6.05 1.00 0.97
-5.92 0.99 1.00
-5.73 0.98 1.03
-6.04 1.04 0.97
-4.56 0.81 1.26
-4.21 0.76 1.32
-4.26 0.79 1.31
-4.20 0.79 1.32
-4.38 0.84 1.29
-4.45 0.86 1.27
-4.38 0.86 1.29
-4.66 0.92 1.23
-4.13 0.83 1.33
-5.41 1.09 1.09
-4.21 0.89 1.32
-4.45 0.95 1.27
-4.20 0.92 1.32
-3.55 1.51 1.39
-3.47 1.59 1.39
-3.29 1.56 1.43
-3.05 1.54 1.47
-3.23 1.67 1.42
-5.12 -1.59 0.75
-4.86 -0.99 0.81
-3.22 -0.74 1.12
-2.98 -0.70 1.16
-2.96 -0.67 1.17
-2.51 -0.60 1.25
-2.44 -0.58 1.27
-2.33 -0.56 1.29
-2.92 -0.60 1.18
-2.56 -0.55 1.24
-3.07 -0.59 1.15
-2.37 -0.50 1.28
-2.61 -0.52 1.24
-3.70 -0.61 1.03
-2.56 -0.49 1.24
-2.69 -0.49 1.22
-3.96 -0.59 0.98
-5.33 -0.67 0.72
-4.89 -0.61 0.80
-5.17 -0.62 0.75
-4.93 -0.56 0.80
-4.94 -0.55 0.79
-4.38 -0.49 0.90
-4.82 -0.50 0.82
-5.18 -0.51 0.75
-5.12 -0.49 0.76
-1.84 -0.27 1.38
-1.97 -0.26 1.35
-2.30 -0.27 1.29
-2.03 -0.25 1.34
-1.82 -0.23 1.38
-4.49 -0.33 0.88
-4.34 -0.31 0.91
-4.45 -0.30 0.89
-4.12 -0.25 0.95
-7.01 -0.34 0.40
-5.39 -0.26 0.71
-5.63 -0.25 0.66
-5.92 -0.24 0.61
-4.76 -0.19 0.82
-5.05 -0.18 0.77
-6.24 -0.19 0.54
-5.91 -0.16 0.61
-5.83 -0.14 0.62
-5.72 -0.12 0.64
-5.49 -0.10 0.69
-5.71 -0.08 0.64
-1.74 -0.03 1.39
-5.72 -0.04 0.64
-5.98 -0.03 0.59
-6.70 0.00 0.82
-6.89 0.02 0.78
-6.69 0.04 0.82
-6.86 0.05 0.79
-7.23 0.07 0.71
-7.07 0.09 0.74
-7.18 0.11 0.72
-6.44 0.11 0.87
-6.82 0.14 0.79
-6.73 0.15 0.81
-6.89 0.17 0.78
-6.93 0.19 0.77
-6.86 0.20 0.78
-6.94 0.22 0.77
-6.98 0.24 0.76
-6.94 0.26 0.77
-6.97 0.28 0.76
-6.96 0.29 0.76
-6.91 0.31 0.77
-7.06 0.33 0.74
-6.98 0.35 0.76
-7.13 0.37 0.72
-7.11 0.39 0.73
-7.19 0.41 0.71
-7.12 0.42 0.72
-7.20 0.44 0.71
-7.36 0.47 0.68
-7.14 0.48 0.72
-6.95 0.48 0.76
-7.05 0.51 0.74
-7.11 0.53 0.72
-6.82 0.52 0.78
-7.03 0.56 0.74
-7.01 0.57 0.74
-6.92 0.58 0.76
-7.30 0.63 0.68
-7.24 0.64 0.69
-7.30 0.67 0.68
-7.00 0.66 0.74
-7.03 0.68 0.73
-6.96 0.69 0.75
-6.26 0.64 0.89
-6.14 0.64 0.91
-5.79 0.62 0.98
-5.79 0.64 0.98
-6.00 0.67 0.94
-5.87 0.67 0.96
-5.89 0.69 0.96
-6.20 0.74 0.89
-5.90 0.72 0.95
-8.83 1.08 0.37
-6.19 0.79 0.89
-8.85 1.13 0.36
-6.19 0.82 0.89
-6.17 0.83 0.90
-6.11 0.84 0.91
-8.39 1.16 0.45
-8.31 1.17 0.46
-6.12 0.89 0.90
-6.29 0.93 0.87
-6.31 0.94 0.86
-6.40 0.97 0.85
-6.21 0.96 0.88
-6.17 0.97 0.89
-6.24 1.00 0.87
-6.25 1.01 0.87
-6.29 1.04 0.86
-6.10 1.02 0.90
-6.08 1.04 0.90
-6.05 1.05 0.91
-6.05 1.06 0.91
-6.20 1.10 0.88
-6.18 1.11 0.88
-6.05 1.11 0.91
-6.09 1.13 0.90
-5.96 1.12 0.92
-6.23 1.19 0.87
-6.18 1.20 0.88
-6.34 1.24 0.84
-6.23 1.24 0.87
-6.16 1.24 0.88
-4.30 0.89 1.26
-6.26 1.29 0.86
-6.33 1.32 0.84
-6.18 1.31 0.87
-6.37 1.36 0.83
-6.45 1.40 0.81
-6.18 1.37 0.87
-6.18 1.39 0.87
-6.22 1.41 0.86
-6.13 1.41 0.87
-6.35 1.54 0.82
-6.27 1.61 0.83
-5.03 -1.65 0.69
-4.65 -1.49 0.77
-4.44 -1.43 0.81
-4.66 -1.45 0.77
-4.24 -1.25 0.86
-4.40 -1.26 0.83
-4.01 -1.17 0.90
-3.97 -1.13 0.91
-4.31 -1.18 0.84
-3.69 -1.03 0.97
-3.85 -1.04 0.94
-3.65 -0.99 0.98
-3.90 -1.01 0.93
-4.25 -1.05 0.86
-3.87 -0.98 0.93
-4.03 -0.99 0.90
-4.14 -0.99 0.88
-4.02 -0.96 0.91
-4.24 -0.97 0.86
-4.25 -0.96 0.86
-4.30 -0.95 0.85
-3.96 -0.89 0.92
-3.91 -0.86 0.93
-4.21 -0.89 0.87
-4.12 -0.86 0.89
-4.33 -0.87 0.84
-4.01 -0.82 0.91
-3.51 -0.74 1.01
-3.81 -0.76 0.95
-3.99 -0.77 0.91
-3.33 -0.68 1.04
-3.76 -0.71 0.96
-3.72 -0.69 0.97
-3.70 -0.68 0.97
-3.37 -0.63 1.03
-3.56 -0.63 1.00
-3.56 -0.62 1.00
-3.95 -0.64 0.92
-4.01 -0.63 0.91
-4.25 -0.64 0.86
-3.89 -0.59 0.93
-4.49 -0.63 0.81
-4.61 -0.62 0.79
-4.60 -0.61 0.79
-4.75 -0.60 0.76
-4.75 -0.59 0.76
-4.74 -0.57 0.77
-4.52 -0.53 0.81
-5.40 -0.58 0.63
-5.48 -0.57 0.62
-5.27 -0.54 0.66
-5.45 -0.53 0.62
-3.68 -0.40 0.97
-5.65 -0.50 0.58
-5.62 -0.48 0.59
-5.78 -0.47 0.56
-5.20 -0.42 0.67
-5.23 -0.41 0.67
-5.11 -0.38 0.69
-4.89 -0.34 0.73
-5.22 -0.33 0.67
-4.77 -0.30 0.76
-5.59 -0.31 0.59
-7.29 -0.26 0.70
-7.56 -0.25 0.65
-6.84 -0.21 0.79
-6.96 -0.20 0.77
-6.89 -0.18 0.78
-6.78 -0.16 0.80
-7.00 -0.15 0.76
-7.01 -0.13 0.76
-6.47 -0.11 0.86
-6.63 -0.09 0.83
-6.79 -0.08 0.80
-6.50 -0.06 0.86
-6.60 -0.04 0.84
-6.35 -0.03 0.89
-6.44 -0.01 0.87
-5.66 -0.01 0.52
-6.08 0.01 0.43
-6.52 0.04 0.34
-3.83 0.04 0.89
-3.67 0.05 0.92
-3.73 0.07 0.91
-3.93 0.09 0.87
-4.05 0.10 0.85
-5.84 0.15 0.47
-6.17 0.18 0.41
-6.29 0.20 0.38
-6.08 0.22 0.42
-5.94 0.23 0.45
-6.09 0.26 0.42
-6.07 0.28 0.43
-6.35 0.31 0.37
-5.77 0.31 0.49
-5.52 0.32 0.54
-5.50 0.33 0.54
-7.07 0.33 0.68
-7.35 0.36 0.62
-7.25 0.37 0.64
-7.23 0.39 0.65
-7.81 0.44 0.53
-7.25 0.43 0.64
-4.51 0.28 1.21
-4.50 0.29 1.21
-7.43 0.49 0.60
-7.29 0.50 0.63
-4.56 0.33 1.20
-7.28 0.54 0.63
-7.47 0.57 0.59
-8.18 0.64 0.44
-7.45 0.60 0.60
-7.50 0.63 0.59
-4.76 0.42 1.15
-7.41 0.65 0.60
-7.09 0.65 0.67
-4.80 0.46 1.14
-7.18 0.69 0.65
-6.81 0.67 0.72
-6.68 0.68 0.75
-6.56 0.70 0.78
-8.74 1.05 0.32
-8.83 1.08 0.30
-8.82 1.10 0.30
-5.99 0.77 0.89
-8.17 1.06 0.43
-5.78 0.79 0.93
-8.51 1.17 0.36
-4.11 0.59 1.28
-6.19 0.92 0.84
-4.28 0.66 1.24
-8.33 1.27 0.39
-8.44 1.31 0.37
-4.28 0.70 1.24
-4.17 0.72 1.26
-4.26 0.75 1.24
-4.29 0.76 1.23
-5.96 1.09 0.88
-3.85 0.74 1.32
-2.72 1.46 1.47
-2.92 1.65 1.42
-3.36 -0.94 0.99
-3.66 -0.96 0.93
-3.29 -0.86 1.01
-3.61 -0.88 0.94
-3.43 -0.84 0.98
-3.75 -0.87 0.91
-3.28 -0.79 1.01
-3.21 -0.74 1.03
-2.88 -0.67 1.09
-2.34 -0.59 1.21
-2.43 -0.58 1.19
-1.98 -0.51 1.28
-2.42 -0.55 1.19
-2.76 -0.58 1.12
-2.86 -0.58 1.10
-2.83 -0.56 1.10
-2.44 -0.51 1.18
-2.55 -0.51 1.16
-2.59 -0.50 1.16
-2.54 -0.49 1.16
-2.77 -0.50 1.12
-2.62 -0.46 1.15
-3.65 -0.54 0.94
-2.32 -0.35 1.21
-3.20 -0.40 1.03
-3.35 -0.39 1.00
-3.63 -0.39 0.94
-5.51 -0.50 0.55
-3.77 -0.37 0.91
-5.55 -0.46 0.54
-4.62 -0.36 0.73
-5.39 -0.38 0.57
-5.01 -0.34 0.65
-3.78 -0.20 0.91
-6.16 -0.25 0.42
-6.31 -0.23 0.38
-5.84 -0.20 0.48
-5.72 -0.18 0.50
-4.60 -0.14 0.74
-5.60 -0.14 0.53
-6.42 -0.13 0.36
-5.94 -0.09 0.46
-5.59 -0.06 0.53
-5.28 -0.04 0.59
-6.13 -0.03 0.42
-6.85 0.00 0.66
-6.74 0.02 0.68
-6.88 0.04 0.66
-6.88 0.05 0.65
-6.73 0.07 0.69
-6.64 0.08 0.70
-6.64 0.10 0.71
-6.56 0.12 0.72
-6.55 0.13 0.72
-6.76 0.15 0.68
-6.70 0.17 0.69
-6.91 0.19 0.65
-6.74 0.20 0.68
-7.02 0.23 0.62
-6.93 0.24 0.64
-6.92 0.26 0.64
-7.13 0.28 0.60
-7.11 0.30 0.60
-7.02 0.31 0.62
-7.07 0.33 0.61
-7.22 0.36 0.57
-7.33 0.38 0.55
-7.02 0.38 0.62
-7.19 0.41 0.58
-7.36 0.43 0.54
-7.56 0.46 0.50
-7.45 0.48 0.52
-7.56 0.50 0.50
-7.25 0.50 0.56
-7.26 0.52 0.56
-7.25 0.54 0.56
-7.27 0.56 0.56
-7.46 0.59 0.51
-7.33 0.60 0.54
-7.53 0.63 0.50
-7.15 0.62 0.58
-7.11 0.63 0.59
-7.07 0.65 0.60
-6.87 0.65 0.64
-6.84 0.66 0.64
-6.45 0.64 0.73
-6.78 0.69 0.66
-6.75 0.70 0.66
-6.68 0.71 0.68
-7.11 0.77 0.58
-6.95 0.77 0.62
-7.17 0.82 0.57
-7.04 0.82 0.60
-6.99 0.83 0.61
-6.35 0.77 0.74
-6.55 0.81 0.70
-6.35 0.81 0.74
-6.81 0.88 0.64
-6.84 0.90 0.64
-7.83 1.04 0.42
-6.42 0.88 0.72
-7.85 1.09 0.41
-6.26 0.89 0.76
-6.31 0.91 0.75
-7.98 1.16 0.38
-6.36 0.95 0.73
-6.18 0.94 0.77
-6.35 0.98 0.74
-6.43 1.01 0.72
-6.17 0.99 0.77
-6.24 1.01 0.76
-6.32 1.04 0.74
-6.44 1.08 0.71
-6.40 1.09 0.72
-6.40 1.10 0.72
-6.27 1.10 0.75
-6.20 1.10 0.76
-6.14 1.11 0.77
-6.13 1.12 0.77
-6.12 1.14 0.78
-6.55 1.23 0.68
-6.28 1.20 0.74
-6.20 1.20 0.75
-6.47 1.27 0.69
-6.12 1.22 0.77
-6.29 1.26 0.73
-6.14 1.25 0.76
-6.17 1.27 0.76
-6.05 1.26 0.78
-6.16 1.30 0.76
-6.25 1.34 0.74
-6.72 1.45 0.63
-6.17 1.35 0.75
-7.50 1.65 0.45
-6.18 1.39 0.75
-6.45 1.46 0.69
-6.50 1.49 0.67
-6.52 1.51 0.67
-6.43 1.53 0.69
-6.87 1.68 0.58
-3.77 1.02 1.27
-5.50 1.64 0.87
-4.49 -1.63 0.67
-4.55 -1.63 0.66
-4.69 -1.59 0.63
-4.38 -1.47 0.70
-4.54 -1.46 0.67
-4.20 -1.37 0.74
-4.31 -1.36 0.72
-4.06 -1.29 0.77
-4.02 -1.25 0.78
-3.92 -1.22 0.80
-4.06 -1.22 0.77
-4.04 -1.20 0.78
-4.06 -1.18 0.78
-3.83 -1.11 0.83
-3.85 -1.10 0.82
-3.63 -1.05 0.87
-3.79 -1.06 0.84
-3.55 -1.00 0.89
-3.40 -0.96 0.92
-3.37 -0.95 0.93
-3.26 -0.91 0.95
-3.37 -0.92 0.93
-3.48 -0.92 0.90
-3.46 -0.90 0.91
-3.42 -0.88 0.92
-3.49 -0.88 0.90
-3.47 -0.86 0.91
-3.54 -0.86 0.89
-3.47 -0.83 0.91
-3.56 -0.83 0.89
-3.89 -0.86 0.82
-3.84 -0.84 0.83
-3.64 -0.80 0.87
-3.56 -0.78 0.89
-3.50 -0.75 0.90
-3.63 -0.76 0.87
-3.49 -0.72 0.90
-3.72 -0.74 0.85
-3.95 -0.75 0.81
-3.66 -0.70 0.87
-3.49 -0.67 0.91
-3.19 -0.62 0.97
-3.27 -0.62 0.95
-3.62 -0.64 0.88
-3.31 -0.59 0.94
-3.58 -0.61 0.89
-3.33 -0.57 0.94
-3.54 -0.57 0.89
-3.90 -0.59 0.82
-4.02 -0.59 0.79
-4.04 -0.58 0.79
-3.68 -0.53 0.86
-3.93 -0.54 0.81
-4.53 -0.57 0.68
-4.76 -0.57 0.63
-5.26 -0.59 0.52
-4.67 -0.53 0.65
-3.86 -0.45 0.82
-4.01 -0.45 0.79
-4.55 -0.47 0.68
-5.45 -0.51 0.48
-4.53 -0.44 0.68
-5.36 -0.47 0.50
-5.52 -0.32 0.95
-5.53 -0.31 0.95
-5.57 -0.30 0.94
-5.31 -0.27 1.00
-5.66 -0.27 0.92
-5.62 -0.26 0.93
-5.47 -0.24 0.96
-5.53 -0.23 0.95
-5.52 -0.21 0.95
-5.70 -0.21 0.91
-5.80 -0.20 0.89
-5.83 -0.18 0.88
-7.53 -0.22 0.52
-6.04 -0.16 0.84
-6.75 -0.16 0.68
-6.65 -0.14 0.71
-6.67 -0.13 0.70
-6.92 -0.12 0.65
-6.70 -0.10 0.70
-6.59 -0.08 0.72
-6.49 -0.06 0.74
-6.51 -0.05 0.74
-6.66 -0.03 0.70
-6.87 -0.01 0.66
-3.76 -0.01 0.78
-3.86 0.02 0.76
-6.93 0.05 0.58
-6.77 0.07 0.61
-6.56 0.08 0.66
-6.51 0.10 0.67
-6.61 0.12 0.65
-6.89 0.14 0.58
-6.61 0.15 0.65
-6.75 0.17 0.62
-6.97 0.19 0.57
-7.08 0.21 0.54
-7.23 0.23 0.51
-7.11 0.25 0.53
-7.05 0.28 0.55
-7.21 0.30 0.51
-7.05 0.31 0.54
-7.35 0.34 0.48
-5.22 0.26 0.96
-7.27 0.38 0.49
-7.20 0.41 0.51
-7.26 0.43 0.49
-7.21 0.46 0.50
-7.43 0.49 0.45
-7.32 0.50 0.48
-7.37 0.52 0.47
-7.25 0.53 0.49
-7.24 0.55 0.49
-6.16 0.49 0.74
-6.09 0.51 0.75
-5.97 0.52 0.78
-5.69 0.51 0.84
-5.76 0.53 0.83
-5.74 0.54 0.83
-6.81 0.65 0.59
-5.98 0.59 0.77
-5.92 0.60 0.79
-5.69 0.59 0.84
-6.70 0.71 0.61
-6.02 0.67 0.76
-7.10 0.81 0.51
-7.21 0.83 0.49
-5.74 0.69 0.82
-6.64 0.80 0.62
-6.47 0.80 0.66
-5.72 0.73 0.82
-6.01 0.79 0.76
-5.70 0.77 0.83
-5.86 0.82 0.79
-5.86 0.83 0.79
-7.79 1.13 0.35
-5.97 0.89 0.76
-4.14 0.64 1.18
-4.20 0.66 1.17
-6.18 0.97 0.71
-4.04 0.66 1.20
-4.39 0.72 1.12
-4.16 0.70 1.17
-4.10 0.70 1.18
-4.03 0.70 1.20
-3.96 0.70 1.22
-6.50 1.13 0.63
-4.11 0.74 1.18
-6.34 1.14 0.67
-6.23 1.14 0.69
-6.11 1.13 0.72
-6.07 1.14 0.73
-6.18 1.18 0.70
-6.17 1.19 0.70
-6.41 1.25 0.65
-6.37 1.26 0.65
-6.17 1.24 0.70
-6.11 1.24 0.71
-6.25 1.29 0.68
-6.23 1.30 0.68
-6.33 1.33 0.66
-6.25 1.33 0.67
-6.28 1.36 0.67
-3.05 1.57 1.33
-3.06 1.61 1.32
-3.14 1.66 1.30
-3.01 1.62 1.33
-3.01 1.63 1.33
-3.09 1.69 1.31
-2.83 1.69 1.35
-2.80 1.69 1.36
-3.89 -1.13 0.76
-3.14 -0.97 0.93
-3.25 -0.98 0.90
-3.16 -0.94 0.92
-3.18 -0.92 0.92
-3.22 -0.90 0.91
-3.16 -0.88 0.92
-3.22 -0.88 0.91
-3.37 -0.89 0.88
-3.26 -0.84 0.90
-3.33 -0.84 0.89
-3.30 -0.81 0.89
-3.31 -0.78 0.89
-3.33 -0.77 0.89
-3.40 -0.75 0.87
-3.40 -0.73 0.87
-3.44 -0.72 0.86
-3.26 -0.67 0.90
-3.18 -0.64 0.92
-3.15 -0.61 0.93
-3.36 -0.62 0.88
-3.31 -0.59 0.89
-3.12 -0.55 0.93
-3.68 -0.59 0.81
-3.36 -0.53 0.88
-3.96 -0.57 0.74
-3.52 -0.50 0.84
-4.09 -0.52 0.72
-3.61 -0.46 0.82
-3.94 -0.46 0.75
-3.78 -0.43 0.79
-3.76 -0.40 0.79
-3.76 -0.37 0.79
-3.54 -0.35 0.84
-3.97 -0.34 0.74
-3.57 -0.31 0.83
-3.88 -0.29 0.76
-3.50 -0.23 0.85
-4.48 -0.15 0.62
-6.55 0.02 0.60
-7.16 0.04 0.46
-7.10 0.05 0.47
-6.67 0.07 0.57
-6.61 0.08 0.58
-6.68 0.10 0.57
-7.36 0.13 0.41
-6.87 0.15 0.52
-6.80 0.17 0.54
-7.14 0.19 0.46
-6.82 0.20 0.53
-7.10 0.23 0.46
-7.14 0.25 0.45
-7.14 0.26 0.45
-7.09 0.28 0.46
-6.83 0.29 0.53
-6.93 0.31 0.50
-6.86 0.32 0.52
-6.97 0.34 0.49
-7.31 0.38 0.41
-7.38 0.47 0.39
-7.41 0.51 0.38
-7.35 0.52 0.40
-7.38 0.54 0.39
-7.50 0.57 0.36
-5.80 0.50 0.76
-7.62 0.67 0.33
-7.62 0.69 0.33
-7.46 0.71 0.37
-7.49 0.74 0.36
-7.49 0.75 0.36
-7.36 0.76 0.39
-7.43 0.79 0.37
-7.18 0.78 0.43
-7.39 0.82 0.38
-7.35 0.83 0.39
-7.29 0.84 0.40
-6.71 0.80 0.54
-6.64 0.82 0.55
-7.08 0.89 0.45
-6.18 0.80 0.66
-7.34 0.96 0.38
-5.84 0.79 0.74
-7.59 1.03 0.32
-6.59 1.07 0.55
-6.51 1.07 0.57
-6.46 1.10 0.58
-6.10 1.05 0.66
-6.37 1.11 0.60
-6.55 1.16 0.55
-6.29 1.13 0.61
-6.26 1.14 0.62
-6.09 1.13 0.66
-6.10 1.15 0.66
-6.12 1.16 0.65
-6.28 1.21 0.61
-5.91 1.16 0.70
-4.08 -1.20 0.65
-3.81 -1.14 0.71
-3.61 -1.08 0.76
-3.77 -1.10 0.72
-3.62 -1.06 0.76
-3.55 -1.03 0.78
-3.66 -1.04 0.75
-3.44 -0.98 0.80
-3.37 -0.96 0.82
-3.39 -0.95 0.81
-3.44 -0.94 0.80
-3.64 -0.96 0.75
-3.66 -0.95 0.75
-3.57 -0.92 0.77
-3.69 -0.92 0.74
-3.58 -0.89 0.77
-3.50 -0.87 0.79
-3.61 -0.87 0.76
-3.53 -0.84 0.78
-3.44 -0.82 0.80
-3.43 -0.80 0.81
-3.32 -0.76 0.83
-3.24 -0.73 0.85
-3.75 -0.78 0.73
-3.67 -0.76 0.75
-3.84 -0.77 0.71
-3.74 -0.74 0.73
-4.16 -0.77 0.64
-3.72 -0.71 0.74
-4.14 -0.74 0.64
-3.63 -0.67 0.76
-4.87 -0.79 0.47
-4.91 -0.77 0.46
-4.88 -0.75 0.47
-4.98 -0.75 0.44
-5.14 -0.75 0.40
-4.92 -0.71 0.46
-4.91 -0.69 0.46
-4.81 -0.66 0.48
-4.86 -0.65 0.47
-5.09 -0.65 0.42
-5.27 -0.65 0.37
-5.12 -0.60 0.41
-5.23 -0.52 0.38
-5.14 -0.47 0.41
-5.23 -0.43 0.38
-6.61 -0.11 0.59
-7.44 -0.11 0.39
-7.51 -0.09 0.38
-2.66 1.41 1.36
-2.81 1.51 1.31
-2.67 1.46 1.35
-2.96 1.61 1.27
-3.11 1.60 1.17
-3.07 1.61 1.18
-2.85 1.51 1.24
-2.79 1.46 1.22
-3.00 1.56 1.15
-2.89 1.53 1.18
-2.84 1.52 1.20
-2.76 1.49 1.22
-2.79 1.51 1.21
-2.83 1.54 1.19
-2.93 1.60 1.16
-2.61 1.68 1.22
-3.08 1.45 1.03
-2.86 1.38 1.10
-2.81 1.36 1.11
-3.00 1.46 1.05
-3.01 1.47 1.04
-3.20 1.56 0.98
-3.04 1.50 1.03
-3.17 1.57 0.98
-3.07 1.53 1.02
-3.20 1.60 0.97
-2.86 1.46 1.09
-3.19 1.62 0.97
-3.02 1.56 1.02
-3.06 1.59 1.01
-2.98 1.57 1.03
-2.83 1.52 1.08
-3.07 1.65 1.00
-2.86 1.57 1.07
-2.69 1.52 1.12
-2.50 1.43 1.19
-2.68 1.54 1.12
-2.71 1.60 1.10
-2.62 0.61 0.51
-2.49 0.14 0.48
-1.00 -0.70 0.25
-1.12 -0.78 0.23
-1.10 -0.64 0.23
