# .PCD v0.7 - Point Cloud Data file format
VERSION 0.7
FIELDS x y z
SIZE 4 4 4
TYPE F F F
COUNT 1 1 1
WIDTH 1677
HEIGHT 1
VIEWPOINT 0 0 0 1 0 0 0
POINTS 1677
DATA ASCII
-1.47 -0.35 2.13
-12.00 -0.77 1.94
-12.52 -0.76 1.93
-11.98 -0.70 1.94
-12.09 -0.78 1.89
-12.22 -0.78 1.85
-12.15 -0.68 1.85
-11.86 -0.80 1.77
-12.80 -0.70 1.79
-12.71 -0.66 1.80
-12.87 -0.64 1.79
-12.70 -0.60 1.79
-11.50 -0.58 1.73
-11.45 -0.58 1.69
-11.54 -0.55 1.63
-11.49 -0.48 1.63
-11.81 -0.83 1.56
-11.57 -0.65 1.57
-11.58 -0.62 1.57
-11.81 -0.56 1.56
-12.79 -0.70 1.50
-12.55 -0.65 1.51
-12.77 -0.64 1.50
-12.92 -0.61 1.49
-12.63 -0.54 1.50
-12.83 -0.51 1.49
-9.86 -0.25 1.65
-9.34 -0.22 1.68
-9.20 -0.19 1.68
-9.59 -0.18 1.66
-9.12 -0.12 1.69
-9.22 -0.06 1.68
-9.22 0.01 1.60
-11.75 -0.93 1.32
-12.17 -0.92 1.30
-12.01 -0.81 1.31
-8.71 -0.44 1.51
-11.01 -0.44 1.37
-7.63 0.20 1.52
-11.26 -0.74 1.28
-8.77 -0.42 1.44
-10.06 -0.11 1.36
-8.90 0.01 1.52
-8.87 0.03 1.53
-9.50 0.12 1.48
-9.30 0.14 1.49
-9.27 0.17 1.50
-8.48 0.28 1.55
-8.29 1.01 1.55
-8.13 1.01 1.56
-7.82 1.03 1.59
-7.83 1.09 1.58
-11.50 -1.08 1.19
-11.81 -1.07 1.17
-11.80 -0.90 1.17
-11.95 -0.88 1.16
-11.50 -0.82 1.19
-9.30 -0.60 1.35
-11.34 -0.68 1.20
-8.70 -0.50 1.39
-8.99 -0.45 1.37
-11.08 -0.39 1.37
-10.37 -0.32 1.42
-10.42 -0.29 1.42
-10.94 -0.18 1.38
-11.52 -0.16 1.34
-9.02 -0.10 1.52
-9.21 -0.06 1.50
-8.87 -0.04 1.53
-8.81 -0.01 1.53
-6.99 0.07 1.46
-6.72 0.24 1.48
-7.19 0.33 1.45
-7.15 0.35 1.45
-8.64 0.01 1.45
-8.55 0.03 1.45
-8.67 0.05 1.44
-8.67 0.07 1.44
-11.51 0.12 1.21
-8.69 0.11 1.44
-11.58 0.18 1.20
-8.70 0.16 1.44
-8.88 0.18 1.43
-8.46 0.25 1.46
-10.30 0.91 1.30
-10.27 0.93 1.30
-10.25 0.96 1.30
-10.23 0.98 1.30
-10.17 1.00 1.31
-10.15 1.05 1.31
-10.32 1.09 1.29
-10.05 1.09 1.31
-8.27 0.94 1.46
-8.52 1.03 1.44
-2.08 -0.82 1.82
-9.52 -0.48 1.38
-8.22 -0.13 1.48
-8.94 -0.12 1.42
-7.99 -0.09 1.50
-8.50 -0.05 1.46
-8.25 -0.03 1.48
-8.34 -0.01 1.47
-9.19 0.07 1.35
-8.55 0.17 1.41
-9.91 -0.02 1.10
-8.06 0.01 1.40
-8.58 0.03 1.35
-9.37 0.05 1.28
-8.75 0.07 1.34
-8.86 0.09 1.33
-8.72 0.13 1.34
-8.32 0.15 1.38
-8.46 0.17 1.36
-8.43 0.19 1.37
-8.46 0.21 1.36
-7.63 0.25 1.44
-7.48 0.26 1.45
-7.06 0.27 1.49
-9.88 0.90 1.22
-9.93 0.95 1.21
-9.94 1.00 1.21
-9.72 1.00 1.23
-9.25 1.05 1.27
-11.88 -1.05 0.85
-7.66 -0.28 1.24
-10.30 -0.23 0.99
-8.12 -0.11 1.40
-11.02 -0.07 1.12
-7.52 0.00 1.19
-7.16 0.03 1.23
-7.33 0.05 1.21
-7.02 0.07 1.24
-7.14 0.09 1.23
-7.25 0.12 1.22
-7.22 0.14 1.22
-7.27 0.17 1.22
-7.27 0.19 1.22
-7.10 0.21 1.23
-7.41 0.24 1.20
-8.68 0.24 1.29
-7.39 0.24 1.42
-6.98 0.26 1.46
-10.21 0.95 1.12
-9.95 0.95 1.15
-9.78 0.98 1.16
-9.79 1.57 1.15
-6.08 1.10 1.53
-6.91 1.33 1.44
-8.38 1.67 1.29
-2.03 -1.18 1.74
-2.12 -1.08 1.73
-1.72 -0.93 1.77
-2.01 -0.98 1.75
-11.33 -0.97 0.82
-11.56 -0.95 0.80
-8.70 -0.58 1.08
-8.82 -0.55 1.07
-8.11 -0.49 1.14
-11.60 -0.56 0.79
-11.61 -0.49 0.79
-11.13 -0.44 0.84
-7.47 -0.30 1.20
-6.90 -0.24 1.26
-6.89 -0.22 1.26
-6.89 -0.20 1.26
-7.02 -0.18 1.24
-6.89 -0.15 1.26
-8.98 -0.16 1.05
-9.73 -0.14 0.97
-9.60 -0.11 0.99
-7.19 -0.04 1.23
-9.59 -0.02 0.99
-10.05 0.01 1.09
-10.53 0.03 1.03
-8.14 0.05 1.29
-7.99 0.08 1.30
-7.73 0.10 1.33
-8.39 0.13 1.26
-8.19 0.15 1.28
-8.03 0.16 1.30
-7.85 0.18 1.32
-12.28 0.33 0.84
-7.40 0.24 1.37
-6.73 0.27 1.44
-7.69 0.32 1.33
-13.41 0.62 0.72
-6.87 0.34 1.42
-6.82 0.36 1.43
-7.15 0.39 1.39
-7.87 0.47 1.31
-8.32 0.53 1.26
-8.72 0.62 1.22
-8.78 0.65 1.21
-9.78 0.82 1.10
-9.84 0.84 1.09
-9.79 0.86 1.10
-9.77 0.89 1.10
-9.90 0.92 1.09
-9.84 0.94 1.09
-9.78 0.96 1.10
-9.75 0.98 1.10
-9.64 0.99 1.11
-8.48 0.92 1.24
-8.13 0.90 1.27
-7.88 0.96 1.30
-8.96 1.10 1.18
-9.01 1.16 1.17
-7.82 1.03 1.30
-7.93 1.08 1.29
-6.60 0.97 1.43
-2.06 -0.95 1.71
-2.23 -0.96 1.69
-10.90 -1.07 0.77
-11.13 -1.02 0.75
-8.09 -0.47 1.07
-9.31 -0.31 1.17
-8.97 -0.28 1.20
-10.85 -0.28 1.00
-9.25 -0.22 1.17
-9.33 -0.20 1.17
-8.82 -0.14 1.22
-8.18 -0.11 1.29
-8.10 -0.09 1.30
-10.38 -0.09 1.05
-9.75 -0.02 1.12
-7.10 0.00 1.11
-7.42 0.10 1.07
-7.42 0.12 1.07
-7.30 0.14 1.09
-8.27 0.18 0.98
-7.10 0.18 1.11
-7.00 0.20 1.12
-7.91 0.30 1.02
-7.18 0.35 1.10
-6.59 0.41 1.16
-13.71 0.70 0.60
-13.43 0.78 0.63
-6.82 -0.37 1.15
-7.74 -0.36 1.04
-11.02 -0.44 0.67
-7.65 -0.19 1.05
-7.66 -0.16 1.05
-6.99 -0.13 1.13
-6.93 -0.06 1.13
-7.01 -0.04 1.12
-11.35 0.11 0.79
-7.85 0.12 1.21
-7.90 0.22 1.20
-3.37 0.30 1.74
-9.92 0.97 0.95
-10.15 1.02 0.92
-9.73 1.00 0.97
-10.01 1.05 0.93
-10.71 -0.36 0.87
-9.18 -0.24 1.06
-9.35 -0.13 1.03
-7.47 0.00 0.93
-7.49 0.03 0.93
-7.88 0.04 1.16
-7.86 0.06 1.16
-7.61 0.08 1.19
-7.66 0.10 1.18
-7.85 0.12 1.16
-7.79 0.14 1.16
-7.71 0.15 1.18
-7.90 0.18 1.15
-7.95 0.20 1.14
-7.68 0.21 1.18
-7.84 0.23 1.16
-7.52 0.24 1.20
-7.86 0.27 1.15
-7.82 0.29 1.16
-7.73 0.31 1.17
-7.44 0.31 1.21
-7.76 0.34 1.16
-13.97 0.91 0.37
-14.00 0.95 0.36
-5.77 0.81 1.40
-5.89 0.85 1.39
-5.62 0.85 1.42
-10.32 1.54 0.81
-5.93 0.92 1.38
-10.36 1.60 0.80
-6.01 0.96 1.37
-5.87 0.96 1.39
-6.14 1.01 1.35
-6.14 1.03 1.35
-6.21 1.06 1.34
-5.99 1.04 1.37
-6.02 1.06 1.36
-6.08 1.08 1.36
-5.98 1.08 1.37
-6.17 1.13 1.34
-6.16 1.14 1.34
-6.23 1.17 1.33
-6.64 1.28 1.28
-6.80 1.47 1.25
-8.44 -0.98 0.82
-8.46 -0.93 0.81
-7.99 -0.64 0.87
-7.65 -0.59 0.91
-7.45 -0.56 0.94
-8.34 -0.58 0.83
-7.55 -0.49 0.93
-7.53 -0.47 0.93
-7.61 -0.45 0.92
-7.46 -0.42 0.94
-7.02 -0.38 0.99
-7.09 -0.36 0.98
-7.05 -0.34 0.99
-7.48 -0.30 0.93
-7.84 -0.29 0.89
-7.09 -0.25 0.98
-7.68 -0.24 0.91
-7.80 -0.22 0.89
-11.01 -0.25 0.49
-7.20 -0.16 0.97
-7.59 -0.12 0.92
-7.21 -0.09 0.97
-7.06 -0.07 0.99
-7.65 -0.05 0.91
-7.34 -0.02 0.95
-7.46 0.00 1.15
-7.38 0.02 1.16
-7.62 0.04 1.13
-7.87 0.06 1.10
-7.88 0.08 1.10
-7.67 0.10 1.12
-7.72 0.12 1.12
-7.58 0.13 1.13
-7.66 0.15 1.12
-7.74 0.17 1.11
-7.80 0.19 1.10
-7.79 0.21 1.10
-7.79 0.23 1.11
-7.56 0.24 1.13
-7.65 0.27 1.12
-7.68 0.28 1.12
-7.80 0.31 1.10
-7.94 0.33 1.08
-8.00 0.35 1.07
-7.61 0.36 1.13
-7.66 0.38 1.12
-7.69 0.40 1.11
-7.35 0.40 1.16
-9.59 0.61 0.86
-6.53 0.45 1.27
-14.24 1.03 0.23
-6.43 0.51 1.28
-7.86 0.70 1.09
-9.79 0.91 0.82
-9.89 1.02 0.81
-9.82 1.03 0.82
-9.87 1.06 0.81
-9.70 1.07 0.83
-5.57 0.75 1.39
-5.71 0.79 1.37
-6.21 0.88 1.30
-6.00 0.87 1.33
-5.74 0.85 1.36
-5.86 0.88 1.35
-6.06 0.92 1.32
-6.08 0.94 1.31
-6.28 1.00 1.29
-6.69 1.08 1.23
-5.99 1.01 1.32
-6.33 1.11 1.28
-6.16 1.10 1.30
-6.26 1.15 1.28
-6.93 1.64 1.18
-6.92 1.67 1.18
-8.52 -1.06 0.73
-8.49 -0.96 0.73
-8.47 -0.93 0.73
-7.45 -0.68 0.87
-7.03 -0.63 0.92
-7.60 -0.64 0.85
-7.56 -0.59 0.85
-7.55 -0.57 0.85
-7.31 -0.53 0.89
-7.46 -0.51 0.87
-7.61 -0.50 0.85
-7.33 -0.46 0.88
-7.36 -0.44 0.88
-7.24 -0.41 0.90
-7.28 -0.39 0.89
-7.02 -0.36 0.92
-7.07 -0.34 0.92
-7.18 -0.32 0.90
-7.14 -0.29 0.91
-7.42 -0.28 0.87
-7.26 -0.25 0.89
-7.91 -0.24 0.80
-7.16 -0.20 0.90
-7.39 -0.18 0.87
-7.39 -0.16 0.87
-9.33 -0.13 0.90
-8.98 -0.11 0.95
-7.90 -0.07 1.10
-7.83 -0.05 1.10
-7.74 -0.03 1.12
-7.70 -0.02 1.12
-7.27 0.02 0.82
-7.45 0.07 0.79
-7.88 0.10 0.73
-7.76 0.12 0.75
-7.56 0.14 0.78
-7.88 0.17 0.73
-7.48 0.21 0.79
-6.64 0.24 0.90
-8.00 0.24 1.02
-8.14 0.26 1.00
-8.03 0.28 1.01
-8.22 0.30 0.99
-8.29 0.33 0.98
-8.38 0.35 0.96
-8.71 0.38 0.92
-5.56 0.83 1.35
-5.71 0.89 1.32
-5.77 0.91 1.31
-5.85 0.94 1.30
-6.21 1.01 1.25
-6.05 1.01 1.27
-6.25 1.08 1.24
-6.16 1.08 1.25
-6.19 1.10 1.25
-6.10 1.10 1.26
-6.05 1.11 1.27
-6.82 1.56 1.14
-6.76 1.56 1.15
-6.96 1.62 1.12
-6.82 1.61 1.14
-6.87 1.64 1.13
-6.83 1.65 1.14
-6.56 1.60 1.18
-6.57 1.62 1.17
-1.68 -1.08 1.61
-8.45 -1.13 0.66
-8.27 -1.09 0.68
-8.26 -1.06 0.68
-8.24 -1.04 0.69
-8.05 -0.97 0.71
-8.28 -0.94 0.68
-8.15 -0.90 0.70
-8.12 -0.87 0.70
-8.00 -0.84 0.72
-7.97 -0.81 0.73
-8.17 -0.78 0.70
-7.56 -0.69 0.78
-7.29 -0.64 0.82
-7.27 -0.62 0.82
-7.61 -0.62 0.78
-7.84 -0.61 0.74
-7.70 -0.55 0.76
-7.14 -0.47 0.84
-7.27 -0.46 0.82
-7.26 -0.44 0.82
-7.24 -0.41 0.83
-7.30 -0.39 0.82
-7.24 -0.34 0.83
-3.95 -0.20 1.29
-3.92 -0.18 1.29
-7.44 -0.26 0.80
-7.66 -0.24 0.77
-7.81 -0.22 0.75
-7.45 -0.16 0.80
-7.48 -0.12 0.79
-7.65 -0.09 0.77
-7.67 -0.07 0.76
-7.66 -0.05 0.77
-7.79 -0.02 0.75
-7.85 0.00 0.98
-8.17 0.04 0.93
-7.94 0.06 0.97
-8.41 0.08 0.89
-8.25 0.12 0.92
-8.23 0.16 0.92
-8.32 0.21 0.91
-8.24 0.22 0.92
-8.21 0.24 0.92
-8.40 0.29 0.89
-6.81 0.27 1.13
-6.82 0.30 1.13
-7.03 0.33 1.10
-6.69 0.33 1.15
-9.41 0.51 0.74
-6.36 0.38 1.19
-9.05 0.58 0.79
-6.14 0.41 1.23
-5.75 0.40 1.28
-6.17 0.49 1.22
-5.94 0.50 1.25
-5.87 0.51 1.26
-8.22 0.73 0.91
-5.96 0.59 1.25
-6.11 0.64 1.22
-5.73 0.61 1.28
-5.56 0.61 1.31
-5.55 0.64 1.31
-5.59 0.67 1.30
-5.38 0.67 1.33
-5.50 0.70 1.31
-5.38 0.70 1.33
-5.46 0.74 1.32
-5.49 0.77 1.31
-5.56 0.81 1.30
-5.60 0.83 1.29
-5.92 0.89 1.24
-5.87 0.91 1.25
-5.87 0.94 1.25
-7.07 1.16 1.06
-6.34 1.14 1.17
-6.77 1.50 1.09
-6.78 1.55 1.09
-6.90 1.60 1.07
-6.88 1.63 1.07
-6.67 1.62 1.10
-6.84 1.69 1.07
-8.32 -1.23 0.59
-8.53 -1.17 0.56
-8.19 -1.11 0.61
-8.43 -1.11 0.57
-8.78 -1.12 0.52
-8.18 -1.03 0.61
-8.19 -1.01 0.61
-8.12 -0.98 0.62
-8.19 -0.96 0.61
-7.97 -0.91 0.64
-7.93 -0.88 0.65
-8.01 -0.87 0.64
-7.98 -0.84 0.64
-7.68 -0.79 0.69
-7.44 -0.75 0.72
-7.81 -0.75 0.67
-7.68 -0.72 0.69
-7.62 -0.69 0.69
-7.03 -0.63 0.78
-7.00 -0.60 0.79
-6.96 -0.58 0.79
-7.37 -0.58 0.73
-7.02 -0.54 0.78
-7.09 -0.52 0.77
-7.00 -0.49 0.79
-3.74 -0.31 1.27
-4.12 -0.31 1.21
-3.86 -0.28 1.25
-3.90 -0.27 1.24
-3.94 -0.26 1.24
-4.04 -0.25 1.22
-3.98 -0.23 1.23
-7.99 -0.27 0.96
-8.14 -0.25 0.94
-8.28 -0.24 0.92
-8.34 -0.20 0.91
-7.94 -0.15 0.97
-7.89 -0.11 0.97
-7.93 -0.09 0.97
-7.99 -0.08 0.96
-7.77 -0.04 0.99
-7.65 0.00 0.62
-6.89 0.02 0.73
-8.01 0.05 0.56
-6.73 0.07 0.76
-6.89 0.09 0.73
-6.89 0.11 0.73
-8.11 0.15 0.54
-7.16 0.16 0.69
-7.89 0.20 0.58
-6.89 0.20 0.73
-7.78 0.24 0.59
-7.84 0.29 0.58
-7.20 0.39 0.68
-7.14 0.41 0.69
-5.30 0.35 0.98
-9.23 0.45 0.70
-9.27 0.50 0.69
-9.28 0.56 0.69
-5.11 0.83 1.33
-8.42 -1.18 0.50
-8.25 -1.14 0.53
-8.16 -1.10 0.54
-7.96 -1.06 0.57
-8.30 -1.07 0.52
-8.16 -1.03 0.54
-8.36 -1.02 0.51
-8.15 -0.98 0.54
-7.74 -0.92 0.61
-7.74 -0.89 0.61
-8.24 -0.91 0.53
-8.12 -0.87 0.55
-8.15 -0.85 0.54
-8.38 -0.84 0.51
-8.00 -0.79 0.57
-7.33 -0.72 0.67
-7.46 -0.70 0.65
-7.34 -0.67 0.67
-7.43 -0.65 0.66
-7.21 -0.57 0.69
-7.19 -0.55 0.69
-6.83 -0.50 0.75
-7.20 -0.50 0.69
-7.41 -0.49 0.66
-7.20 -0.46 0.69
-7.31 -0.44 0.67
-7.38 -0.42 0.66
-7.15 -0.39 0.70
-7.52 -0.38 0.64
-7.31 -0.35 0.67
-7.36 -0.32 0.66
-7.19 -0.30 0.69
-8.33 -0.30 0.51
-7.59 -0.26 0.63
-7.78 -0.24 0.60
-7.76 -0.22 0.60
-7.83 -0.19 0.59
-4.05 -0.11 1.18
-7.55 -0.14 0.63
-7.49 -0.12 0.64
-7.59 -0.09 0.63
-7.25 -0.07 0.68
-7.49 -0.05 0.64
-7.69 -0.02 0.61
-8.44 0.00 0.76
-7.42 0.02 0.93
-7.32 0.04 0.94
-8.45 0.06 0.76
-6.93 0.07 1.00
-7.12 0.09 0.97
-8.57 0.13 0.73
-8.50 0.15 0.75
-6.80 0.14 1.03
-8.39 0.19 0.76
-6.63 0.16 1.05
-8.60 0.23 0.73
-8.72 0.26 0.71
-8.69 0.28 0.71
-8.92 0.31 0.67
-6.60 0.25 1.06
-6.76 0.27 1.03
-8.88 0.37 0.68
-8.85 0.39 0.68
-7.37 0.34 0.93
-9.28 0.45 0.61
-9.52 0.49 0.57
-9.25 0.50 0.62
-6.17 0.35 1.12
-5.87 0.35 1.17
-5.63 0.35 1.21
-6.25 0.40 1.11
-5.80 0.39 1.18
-9.58 0.65 0.56
-6.23 0.45 1.11
-8.33 0.61 0.76
-8.21 0.62 0.78
-9.35 0.73 0.59
-8.63 0.70 0.71
-9.33 0.77 0.60
-5.83 0.51 1.17
-5.84 0.52 1.17
-6.07 0.56 1.13
-5.20 0.51 1.28
-5.65 0.56 1.20
-5.67 0.58 1.20
-5.59 0.59 1.21
-5.55 0.60 1.22
-5.55 0.61 1.22
-5.27 0.59 1.26
-5.49 0.63 1.23
-5.32 0.63 1.25
-5.35 0.66 1.25
-5.44 0.68 1.23
-5.47 0.70 1.23
-5.17 0.68 1.28
-5.34 0.71 1.25
-5.27 0.72 1.26
-5.40 0.75 1.24
-5.74 0.81 1.18
-5.49 0.79 1.22
-5.90 0.86 1.15
-5.52 0.83 1.21
-5.21 0.80 1.26
-5.68 0.88 1.19
-5.90 0.93 1.15
-6.51 1.12 1.04
-6.62 1.19 1.02
-6.56 1.66 1.01
-4.56 1.23 1.35
-1.87 -0.90 1.48
-8.85 -1.34 0.34
-8.48 -1.25 0.40
-8.49 -1.22 0.40
-8.42 -1.19 0.41
-8.19 -1.14 0.45
-7.96 -1.09 0.48
-7.70 -1.01 0.53
-7.79 -0.97 0.51
-7.75 -0.94 0.52
-7.61 -0.91 0.54
-7.80 -0.90 0.51
-7.80 -0.88 0.51
-8.15 -0.86 0.45
-8.23 -0.81 0.44
-8.18 -0.78 0.45
-8.17 -0.76 0.45
-6.83 -0.64 0.67
-7.33 -0.65 0.59
-8.30 -0.66 0.43
-7.43 -0.56 0.57
-6.89 -0.51 0.66
-8.40 -0.45 0.77
-8.27 -0.42 0.79
-8.10 -0.39 0.82
-8.42 -0.39 0.77
-8.17 -0.36 0.81
-8.20 -0.34 0.80
-8.09 -0.31 0.82
-8.05 -0.29 0.83
-8.04 -0.27 0.83
-5.97 -0.19 1.17
-7.98 -0.23 0.84
-8.28 -0.22 0.79
-8.07 -0.20 0.82
-8.23 -0.18 0.79
-8.08 -0.16 0.82
-8.16 -0.14 0.81
-8.25 -0.12 0.79
-8.11 -0.10 0.81
-8.14 -0.08 0.81
-8.00 -0.06 0.83
-8.19 -0.04 0.80
-8.57 -0.02 0.74
-7.64 -0.00 0.45
-4.17 0.01 1.05
-6.47 0.04 0.65
-6.98 0.05 0.94
-7.16 0.07 0.91
-8.94 0.11 0.60
-6.76 0.10 0.98
-8.55 0.15 0.67
-6.70 0.13 0.99
-8.65 0.19 0.65
-8.51 0.21 0.68
-8.83 0.24 0.62
-6.66 0.20 0.99
-8.76 0.28 0.63
-8.71 0.30 0.64
-6.23 0.23 1.07
-8.90 0.35 0.61
-6.44 0.27 1.03
-9.37 0.41 0.52
-6.05 0.28 1.10
-9.15 0.45 0.56
-9.22 0.47 0.55
-5.93 0.32 1.12
-9.60 0.54 0.48
-5.61 0.33 1.17
-9.49 0.58 0.50
-6.12 0.39 1.08
-6.36 0.42 1.04
-8.50 0.58 0.67
-5.89 0.42 1.12
-5.76 0.47 1.14
-5.44 0.46 1.20
-5.27 0.46 1.23
-5.26 0.47 1.23
-5.33 0.49 1.21
-8.30 0.83 0.70
-10.40 1.14 0.33
-5.18 0.60 1.24
-5.29 0.65 1.22
-5.37 0.67 1.20
-5.58 0.72 1.16
-5.58 0.74 1.16
-5.31 0.72 1.21
-5.34 0.74 1.20
-5.23 0.73 1.22
-5.38 0.77 1.20
-5.65 0.82 1.15
-5.36 0.79 1.20
-5.63 0.84 1.15
-5.57 0.85 1.16
-5.91 0.91 1.10
-5.54 0.87 1.16
-5.61 0.90 1.15
-5.79 0.94 1.12
-6.37 1.05 1.02
-6.07 1.02 1.07
-6.54 1.11 0.98
-6.34 1.09 1.02
-6.40 1.12 1.01
-6.41 1.14 1.01
-6.37 1.14 1.01
-6.53 1.19 0.98
-6.35 1.17 1.01
-6.55 1.23 0.98
-6.34 1.21 1.01
-2.05 -0.70 1.42
-1.75 -0.64 1.47
-2.33 -0.63 1.37
-8.22 -1.21 0.36
-7.98 -1.16 0.40
-7.63 -1.07 0.46
-7.66 -1.05 0.45
-7.70 -1.03 0.45
-7.52 -0.99 0.48
-7.96 -1.01 0.40
-7.85 -0.98 0.42
-7.92 -0.96 0.41
-7.60 -0.90 0.47
-7.47 -0.87 0.49
-7.31 -0.83 0.51
-7.34 -0.81 0.51
-7.83 -0.83 0.43
-8.25 -0.84 0.35
-8.26 -0.79 0.35
-7.66 -0.72 0.45
-3.99 -0.43 1.08
-3.84 -0.40 1.11
-3.91 -0.39 1.10
-4.02 -0.38 1.08
-4.02 -0.37 1.08
-4.00 -0.35 1.08
-3.95 -0.33 1.09
-4.03 -0.32 1.08
-3.83 -0.30 1.11
-3.76 -0.28 1.12
-3.95 -0.27 1.09
-3.89 -0.26 1.10
-3.87 -0.24 1.10
-3.85 -0.23 1.11
-3.96 -0.21 1.09
-3.92 -0.20 1.09
-3.78 -0.18 1.12
-3.96 -0.17 1.09
-4.03 -0.15 1.08
-4.06 -0.14 1.07
-4.09 -0.13 1.06
-4.08 -0.11 1.07
-4.19 -0.10 1.05
-4.10 -0.08 1.06
-4.17 -0.06 1.05
-4.44 -0.05 1.00
-8.22 -0.05 0.35
-7.60 -0.02 0.46
-8.27 0.00 0.65
-8.25 0.02 0.65
-7.60 0.04 0.77
-8.61 0.06 0.59
-9.03 0.09 0.51
-8.91 0.11 0.53
-8.98 0.13 0.52
-8.96 0.15 0.52
-8.57 0.17 0.59
-8.21 0.18 0.66
-8.40 0.20 0.62
-8.43 0.23 0.62
-8.59 0.25 0.59
-6.54 0.21 0.96
-6.54 0.23 0.96
-8.14 0.30 0.67
-8.47 0.33 0.61
-6.99 0.29 0.88
-8.83 0.39 0.54
-8.92 0.41 0.53
-8.80 0.43 0.55
-8.65 0.44 0.57
-6.08 0.33 1.04
-9.54 0.53 0.41
-5.94 0.35 1.06
-5.87 0.36 1.08
-8.24 0.52 0.65
-6.03 0.40 1.05
-9.75 0.66 0.37
-8.33 0.59 0.63
-7.96 0.58 0.69
-8.07 0.61 0.67
-7.96 0.62 0.69
-6.01 0.49 1.05
-5.77 0.49 1.09
-6.07 0.53 1.03
-5.62 0.50 1.12
-5.52 0.51 1.13
-5.65 0.53 1.11
-6.00 0.58 1.05
-5.83 0.58 1.08
-5.90 0.60 1.06
-5.54 0.58 1.13
-5.46 0.59 1.14
-5.36 0.59 1.16
-5.82 0.65 1.08
-5.50 0.63 1.13
-5.66 0.66 1.10
-6.13 0.73 1.02
-5.43 0.67 1.14
-5.40 0.68 1.15
-5.54 0.71 1.12
-5.55 0.72 1.12
-6.03 0.80 1.03
-5.63 0.76 1.10
-5.59 0.77 1.11
-6.10 0.85 1.02
-6.34 0.90 0.97
-6.73 0.97 0.90
-6.35 0.93 0.97
-5.54 0.83 1.12
-6.49 0.98 0.94
-6.42 0.99 0.95
-6.02 0.95 1.03
-6.24 1.00 0.99
-6.28 1.02 0.98
-6.35 1.04 0.96
-6.35 1.06 0.96
-6.69 1.13 0.90
-6.69 1.15 0.90
-6.42 1.12 0.95
-6.43 1.14 0.95
-6.33 1.14 0.96
-6.46 1.18 0.94
-6.57 1.21 0.92
-6.36 1.19 0.96
-6.39 1.21 0.95
-6.55 1.26 0.92
-6.48 1.27 0.93
-6.57 1.30 0.91
-6.65 1.35 0.90
-6.85 1.42 0.86
-6.85 1.46 0.86
-6.62 1.43 0.90
-1.96 -0.93 1.39
-2.96 -0.63 1.22
-3.26 -0.65 1.16
-7.70 -1.13 0.36
-7.58 -1.09 0.38
-7.13 -1.02 0.47
-7.31 -1.02 0.43
-7.34 -1.00 0.43
-7.47 -0.99 0.41
-3.28 -0.56 1.16
-7.60 -0.95 0.38
-7.68 -0.94 0.37
-7.27 -0.88 0.44
-7.25 -0.85 0.44
-7.55 -0.85 0.39
-7.66 -0.84 0.37
-6.92 -0.76 0.50
-7.96 -0.81 0.32
-8.02 -0.77 0.31
-3.92 -0.45 1.04
-3.93 -0.44 1.04
-3.94 -0.43 1.04
-3.90 -0.41 1.05
-3.88 -0.39 1.05
-3.85 -0.37 1.06
-3.96 -0.37 1.04
-3.90 -0.35 1.05
-3.90 -0.33 1.05
-4.01 -0.32 1.03
-3.97 -0.31 1.03
-4.06 -0.29 1.02
-4.01 -0.28 1.03
-3.95 -0.26 1.04
-3.90 -0.24 1.05
-3.95 -0.23 1.04
-4.00 -0.22 1.03
-4.06 -0.20 1.02
-3.84 -0.18 1.06
-3.97 -0.17 1.03
-4.11 -0.16 1.01
-4.12 -0.14 1.00
-4.03 -0.12 1.02
-4.22 -0.11 0.99
-7.61 -0.11 0.77
-7.72 -0.09 0.75
-7.31 -0.07 0.82
-7.81 -0.06 0.74
-7.54 -0.04 0.78
-7.34 -0.02 0.82
-7.22 -0.00 0.36
-7.29 0.02 0.35
-3.95 0.04 0.98
-6.73 0.15 0.45
-4.31 0.13 0.91
-4.41 0.14 0.89
-8.28 0.22 0.57
-8.24 0.24 0.58
-8.24 0.26 0.58
-7.69 0.26 0.68
-7.95 0.29 0.63
-8.25 0.32 0.58
-8.56 0.35 0.52
-5.98 0.27 1.01
-5.84 0.27 1.03
-5.68 0.28 1.06
-9.66 0.49 0.31
-9.18 0.49 0.40
-9.02 0.50 0.43
-5.38 0.32 1.12
-5.28 0.33 1.14
-5.30 0.34 1.13
-4.93 0.33 1.20
-5.06 0.35 1.18
-5.17 0.37 1.16
-5.37 0.40 1.12
-5.43 0.42 1.11
-5.20 0.41 1.15
-5.26 0.43 1.14
-5.09 0.43 1.17
-5.29 0.46 1.13
-5.31 0.48 1.13
-5.28 0.49 1.13
-5.26 0.50 1.14
-5.19 0.50 1.15
-5.02 0.50 1.18
-4.99 0.51 1.19
-8.23 0.85 0.57
-8.29 0.87 0.55
-8.31 0.89 0.55
-5.34 0.63 1.12
-5.25 0.63 1.13
-5.46 0.69 1.09
-5.43 0.70 1.09
-5.94 0.78 1.00
-5.90 0.79 1.00
-6.19 0.84 0.95
-6.17 0.86 0.95
-5.71 0.81 1.04
-5.77 0.83 1.03
-6.07 0.89 0.97
-6.29 0.94 0.93
-6.02 0.91 0.98
-6.24 0.96 0.93
-6.25 0.98 0.93
-6.09 0.97 0.96
-6.26 1.01 0.93
-6.31 1.04 0.92
-6.29 1.05 0.92
-6.14 1.04 0.95
-6.12 1.05 0.95
-6.20 1.08 0.93
-6.35 1.12 0.90
-6.40 1.15 0.89
-6.22 1.13 0.93
-6.17 1.16 0.94
-6.46 1.22 0.88
-6.35 1.22 0.90
-6.59 1.28 0.85
-6.44 1.29 0.88
-6.60 1.33 0.85
-1.76 -0.97 1.39
-1.44 -0.75 1.46
-1.72 -0.76 1.40
-1.82 -0.76 1.39
-2.16 -0.80 1.32
-2.22 -0.78 1.31
-2.36 -0.77 1.28
-2.21 -0.73 1.31
-2.04 -0.68 1.35
-2.05 -0.67 1.34
-2.05 -0.66 1.34
-2.07 -0.65 1.34
-2.05 -0.63 1.34
-2.17 -0.63 1.32
-2.13 -0.62 1.33
-2.03 -0.59 1.35
-2.02 -0.58 1.35
-2.13 -0.59 1.33
-2.09 -0.57 1.34
-7.35 -1.02 0.34
-7.38 -1.00 0.34
-6.98 -0.94 0.41
-7.05 -0.92 0.40
-7.31 -0.93 0.35
-7.25 -0.90 0.36
-7.17 -0.87 0.38
-7.14 -0.77 0.38
-7.21 -0.76 0.37
-7.07 -0.72 0.40
-6.97 -0.69 0.42
-3.91 -0.36 0.99
-3.95 -0.30 0.98
-3.88 -0.29 1.00
-3.89 -0.27 1.00
-3.83 -0.25 1.01
-3.67 -0.23 1.04
-3.69 -0.22 1.03
-3.62 -0.20 1.05
-6.74 -0.22 0.46
-6.42 -0.19 0.52
-4.05 -0.12 0.96
-4.49 -0.12 0.88
-6.48 -0.13 0.51
-4.10 -0.08 0.95
-6.40 -0.06 0.52
-3.89 -0.03 0.99
-7.04 -0.02 0.40
-6.75 0.00 0.80
-6.84 0.02 0.79
-7.11 0.03 0.73
-7.04 0.05 0.74
-7.40 0.07 0.67
-7.45 0.09 0.66
-7.12 0.10 0.73
-8.74 0.15 0.41
-7.34 0.14 0.68
-7.73 0.17 0.61
-7.66 0.19 0.62
-8.31 0.22 0.49
-8.35 0.24 0.48
-8.57 0.27 0.44
-8.07 0.27 0.54
-8.42 0.31 0.47
-8.25 0.32 0.50
-8.00 0.33 0.55
-8.23 0.36 0.50
-8.21 0.38 0.50
-8.39 0.41 0.47
-8.53 0.44 0.44
-8.69 0.46 0.41
-9.01 0.50 0.34
-9.09 0.53 0.33
-5.87 0.38 0.97
-8.76 0.58 0.39
-5.16 0.36 1.11
-5.15 0.37 1.11
-5.09 0.38 1.12
-5.61 0.43 1.02
-5.95 0.47 0.95
-5.61 0.46 1.02
-5.67 0.48 1.00
-5.34 0.47 1.07
-5.81 0.52 0.97
-5.80 0.53 0.98
-5.23 0.50 1.09
-5.24 0.51 1.09
-5.32 0.53 1.07
-5.16 0.53 1.10
-5.51 0.58 1.03
-5.72 0.61 0.99
-6.03 0.66 0.93
-5.25 0.59 1.08
-5.61 0.64 1.01
-5.71 0.67 0.99
-6.08 0.73 0.91
-5.97 0.73 0.94
-5.95 0.74 0.94
-5.97 0.76 0.93
-5.84 0.76 0.96
-5.93 0.78 0.94
-5.66 0.76 0.99
-5.82 0.80 0.96
-5.79 0.81 0.97
-5.88 0.84 0.95
-5.81 0.84 0.96
-5.92 0.87 0.94
-5.99 0.90 0.92
-6.11 0.93 0.90
-6.14 0.95 0.89
-6.31 0.99 0.86
-6.30 1.01 0.86
-6.05 0.98 0.91
-5.96 0.98 0.93
-5.94 1.00 0.93
-5.85 1.00 0.94
-5.90 1.02 0.94
-5.94 1.04 0.93
-5.76 1.03 0.96
-5.68 1.03 0.98
-6.07 1.11 0.90
-5.87 1.09 0.94
-6.22 1.17 0.86
-6.06 1.16 0.90
-6.26 1.21 0.86
-6.48 1.26 0.81
-6.47 1.28 0.81
-6.52 1.31 0.80
-6.47 1.31 0.81
-6.41 1.32 0.82
-6.78 1.67 0.73
-2.64 -0.95 1.18
-2.37 -0.87 1.24
-2.50 -0.87 1.21
-2.78 -0.91 1.16
-2.60 -0.86 1.19
-2.62 -0.80 1.19
-3.08 -0.76 1.10
-2.61 -0.69 1.19
-2.58 -0.67 1.20
-2.67 -0.66 1.18
-2.30 -0.59 1.25
-2.44 -0.58 1.22
-6.76 -0.90 0.37
-3.62 -0.49 0.99
-3.79 -0.48 0.96
-3.68 -0.44 0.98
-3.80 -0.42 0.96
-3.72 -0.38 0.97
-3.73 -0.37 0.97
-3.89 -0.36 0.94
-3.98 -0.34 0.92
-4.05 -0.31 0.91
-4.06 -0.28 0.90
-3.84 -0.24 0.95
-7.60 -0.28 0.64
-7.63 -0.26 0.63
-7.32 -0.23 0.69
-7.90 -0.23 0.58
-7.29 -0.20 0.70
-7.25 -0.18 0.71
-7.25 -0.16 0.71
-7.16 -0.14 0.72
-7.26 -0.12 0.70
-7.54 -0.11 0.65
-7.32 -0.09 0.69
-7.39 -0.07 0.68
-8.36 -0.06 0.48
-6.78 -0.03 0.80
-6.97 -0.02 0.76
-6.33 0.04 0.38
-6.47 0.10 0.35
-6.35 0.12 0.38
-6.44 0.14 0.36
-4.30 0.14 0.80
-4.02 0.15 0.85
-6.77 0.26 0.29
-4.33 0.21 0.79
-4.70 0.23 0.71
-6.26 0.31 0.39
-5.65 0.30 0.52
-6.17 0.34 0.41
-6.48 0.38 0.35
-4.17 0.30 0.82
-8.76 0.42 0.33
-5.83 0.30 0.93
-8.61 0.46 0.36
-8.78 0.51 0.32
-5.10 0.33 1.08
-4.95 0.33 1.11
-4.91 0.34 1.12
-4.76 0.34 1.15
-5.06 0.40 1.09
-4.95 0.41 1.11
-4.83 0.41 1.13
-5.29 0.46 1.04
-5.18 0.46 1.06
-4.98 0.46 1.10
-4.92 0.47 1.11
-5.13 0.50 1.07
-4.98 0.53 1.10
-5.72 0.72 0.94
-5.62 0.73 0.96
-5.85 0.77 0.91
-5.47 0.73 0.99
-5.93 0.81 0.89
-5.76 0.80 0.93
-6.02 0.85 0.87
-5.81 0.84 0.92
-5.90 0.86 0.90
-6.10 0.91 0.85
-5.87 0.89 0.90
-6.06 0.93 0.86
-6.13 0.96 0.85
-6.11 0.97 0.85
-6.10 0.99 0.85
-6.40 1.05 0.79
-6.13 1.02 0.84
-6.36 1.07 0.79
-6.19 1.06 0.83
-5.87 1.03 0.89
-5.71 1.01 0.93
-5.41 0.98 0.99
-5.71 1.04 0.93
-5.64 1.04 0.94
-5.64 1.07 0.94
-5.82 1.12 0.90
-1.67 -0.90 1.34
-1.03 -0.69 1.48
-1.99 -0.73 1.28
-1.34 -0.60 1.42
-1.92 -0.68 1.30
-1.53 -0.60 1.38
-1.67 -0.61 1.35
-1.92 -0.64 1.30
-1.85 -0.62 1.31
-1.79 -0.60 1.32
-1.86 -0.60 1.31
-2.02 -0.60 1.28
-2.02 -0.59 1.28
-2.03 -0.56 1.27
-2.01 -0.54 1.28
-1.72 -0.49 1.34
-1.73 -0.47 1.34
-3.46 -0.43 0.98
-3.84 -0.30 0.90
-3.52 -0.24 0.96
-3.79 -0.24 0.91
-3.86 -0.23 0.90
-3.78 -0.21 0.91
-3.77 -0.19 0.91
-3.22 -0.15 1.03
-5.61 -0.17 0.54
-6.40 -0.15 0.37
-6.46 -0.13 0.36
-6.44 -0.11 0.36
-6.35 -0.07 0.38
-6.14 -0.04 0.42
-6.12 -0.02 0.43
-7.06 -0.00 0.61
-7.12 0.02 0.60
-6.68 0.03 0.69
-6.92 0.05 0.64
-7.17 0.07 0.59
-6.91 0.08 0.64
-7.28 0.11 0.56
-7.49 0.13 0.51
-7.32 0.14 0.55
-7.04 0.15 0.61
-7.04 0.17 0.61
-7.14 0.19 0.59
-8.07 0.27 0.39
-7.84 0.32 0.44
-5.79 0.30 0.88
-5.49 0.30 0.94
-5.28 0.30 0.99
-5.16 0.32 1.01
-5.29 0.34 0.98
-5.08 0.34 1.03
-5.08 0.37 1.03
-5.23 0.39 0.99
-5.11 0.40 1.02
-5.03 0.40 1.04
-5.11 0.42 1.02
-5.09 0.43 1.02
-5.18 0.45 1.00
-5.21 0.47 1.00
-5.36 0.49 0.96
-5.35 0.51 0.96
-5.45 0.53 0.94
-5.57 0.55 0.92
-5.68 0.58 0.89
-5.76 0.60 0.87
-5.61 0.60 0.90
-5.72 0.63 0.88
-5.61 0.63 0.90
-5.64 0.65 0.90
-5.64 0.66 0.90
-5.82 0.70 0.85
-5.56 0.68 0.91
-5.79 0.72 0.86
-5.59 0.71 0.90
-5.70 0.75 0.88
-5.78 0.78 0.86
-5.88 0.81 0.84
-5.98 0.85 0.81
-6.00 0.87 0.81
-6.00 0.88 0.81
-6.17 0.94 0.77
-6.21 0.96 0.76
-6.12 0.96 0.78
-6.15 1.00 0.77
-6.09 1.00 0.78
-6.21 1.04 0.75
-6.07 1.05 0.79
-5.83 1.02 0.84
-5.82 1.04 0.84
-5.69 1.04 0.87
-5.59 1.04 0.89
-5.55 1.05 0.89
-5.61 1.09 0.88
-5.56 1.09 0.89
-5.59 1.11 0.88
-5.64 1.15 0.87
-5.86 1.21 0.82
-5.72 1.20 0.85
-5.75 1.23 0.84
-5.52 1.20 0.89
-5.75 1.27 0.84
-2.29 -1.06 1.16
-2.37 -1.05 1.15
-2.43 -1.05 1.13
-2.00 -0.94 1.22
-2.76 -1.07 1.06
-2.55 -1.01 1.11
-2.46 -0.98 1.13
-2.61 -1.00 1.09
-2.50 -0.97 1.12
-2.39 -0.93 1.14
-2.34 -0.91 1.15
-2.49 -0.93 1.12
-2.34 -0.89 1.15
-2.31 -0.87 1.16
-2.28 -0.86 1.17
-2.28 -0.84 1.17
-2.28 -0.83 1.17
-2.22 -0.81 1.18
-2.38 -0.83 1.15
-2.28 -0.79 1.17
-2.42 -0.79 1.14
-2.35 -0.77 1.15
-2.50 -0.78 1.12
-2.16 -0.71 1.20
-2.68 -0.78 1.08
-2.22 -0.70 1.18
-2.18 -0.68 1.19
-2.16 -0.67 1.20
-2.16 -0.66 1.20
-1.89 -0.61 1.25
-2.02 -0.62 1.23
-2.30 -0.64 1.17
-2.01 -0.59 1.23
-2.50 -0.65 1.12
-2.58 -0.65 1.10
-2.13 -0.58 1.20
-2.78 -0.65 1.06
-2.66 -0.61 1.09
-2.15 -0.54 1.20
-2.53 -0.57 1.12
-2.41 -0.52 1.14
-2.38 -0.48 1.15
-2.54 -0.49 1.11
-3.51 -0.54 0.90
-3.47 -0.52 0.91
-3.43 -0.51 0.92
-3.28 -0.48 0.95
-3.44 -0.48 0.92
-3.19 -0.43 0.97
-3.25 -0.42 0.96
-3.49 -0.43 0.91
-3.48 -0.41 0.91
-3.61 -0.41 0.88
-3.66 -0.39 0.87
-3.73 -0.38 0.86
-3.71 -0.37 0.86
-3.67 -0.35 0.87
-5.23 -0.30 1.01
-5.20 -0.28 1.02
-5.38 -0.28 0.98
-5.26 -0.26 1.00
-5.13 -0.24 1.03
-5.19 -0.23 1.02
-5.29 -0.22 1.00
-5.53 -0.22 0.95
-5.55 -0.20 0.94
-5.29 -0.18 1.00
-5.11 -0.16 1.03
-5.28 -0.16 1.00
-5.09 -0.14 1.04
-5.18 -0.13 1.02
-5.60 -0.12 0.93
-7.09 -0.14 0.61
-7.29 -0.13 0.56
-7.42 -0.11 0.54
-7.25 -0.09 0.57
-7.00 -0.07 0.62
-7.11 -0.05 0.60
-7.25 -0.04 0.57
-7.60 -0.02 0.49
-5.60 -0.00 0.37
-4.68 0.01 0.58
-5.05 0.03 0.50
-7.28 0.05 0.49
-7.50 0.07 0.44
-6.61 0.08 0.64
-6.40 0.09 0.69
-7.81 0.13 0.37
-7.21 0.14 0.51
-4.50 0.12 1.12
-7.64 0.22 0.41
-4.33 0.14 1.16
-4.37 0.15 1.15
-4.60 0.17 1.09
-4.51 0.18 1.11
-4.59 0.19 1.10
-5.47 0.24 0.90
-5.07 0.24 0.99
-5.13 0.25 0.97
-4.88 0.25 1.03
-4.82 0.26 1.04
-4.84 0.28 1.04
-4.94 0.29 1.01
-5.00 0.31 1.00
-4.99 0.32 1.00
-5.13 0.34 0.97
-5.04 0.35 0.99
-5.08 0.37 0.98
-5.02 0.37 0.99
-5.08 0.39 0.98
-5.09 0.40 0.97
-5.16 0.42 0.96
-5.09 0.43 0.97
-5.20 0.45 0.95
-5.12 0.46 0.97
-5.08 0.47 0.98
-5.14 0.49 0.96
-5.35 0.52 0.91
-5.50 0.54 0.88
-5.55 0.56 0.87
-5.29 0.55 0.92
-5.27 0.56 0.93
-5.19 0.57 0.95
-5.09 0.57 0.97
-5.21 0.60 0.94
-5.29 0.62 0.92
-5.57 0.66 0.86
-5.61 0.68 0.85
-5.47 0.68 0.88
-6.20 0.78 0.71
-6.18 0.80 0.72
-6.29 0.82 0.69
-6.31 0.84 0.68
-6.45 0.88 0.65
-6.15 0.85 0.72
-6.16 0.87 0.72
-6.13 0.88 0.72
-6.07 0.89 0.74
-6.18 0.92 0.71
-6.24 0.94 0.69
-6.01 0.93 0.75
-5.92 0.93 0.77
-5.88 0.94 0.77
-5.81 0.94 0.79
-5.95 0.98 0.76
-5.80 0.97 0.79
-5.86 1.00 0.77
-5.97 1.03 0.75
-5.96 1.04 0.75
-5.89 1.05 0.76
-5.60 1.01 0.83
-5.59 1.02 0.83
-5.60 1.04 0.83
-5.50 1.04 0.85
-5.46 1.04 0.86
-5.48 1.06 0.85
-5.40 1.06 0.87
-5.56 1.10 0.84
-5.45 1.10 0.86
-5.52 1.12 0.84
-5.68 1.19 0.80
-5.73 1.26 0.79
-2.00 -0.92 1.19
-2.11 -0.93 1.16
-2.13 -0.92 1.16
-2.32 -0.95 1.11
-2.29 -0.93 1.12
-2.32 -0.93 1.11
-2.26 -0.91 1.13
-2.07 -0.86 1.17
-2.22 -0.87 1.14
-2.06 -0.83 1.18
-2.00 -0.81 1.19
-2.04 -0.81 1.18
-1.99 -0.79 1.19
-2.05 -0.79 1.18
-2.04 -0.78 1.18
-2.00 -0.76 1.19
-1.77 -0.71 1.24
-1.78 -0.70 1.24
-1.85 -0.70 1.22
-1.88 -0.70 1.22
-1.83 -0.68 1.23
-1.72 -0.65 1.25
-1.83 -0.66 1.23
-1.87 -0.66 1.22
-1.73 -0.62 1.25
-1.78 -0.62 1.24
-1.76 -0.61 1.25
-1.83 -0.61 1.23
-1.88 -0.61 1.22
-1.78 -0.58 1.24
-2.08 -0.61 1.17
-1.98 -0.59 1.20
-2.28 -0.62 1.13
-2.28 -0.61 1.13
-3.29 -0.42 0.90
-3.54 -0.43 0.85
-3.58 -0.42 0.84
-3.66 -0.41 0.82
-3.63 -0.39 0.82
-3.61 -0.38 0.83
-3.61 -0.36 0.83
-3.56 -0.34 0.84
-3.48 -0.33 0.86
-3.60 -0.32 0.83
-3.42 -0.30 0.87
-3.43 -0.28 0.87
-3.70 -0.28 0.81
-3.44 -0.25 0.86
-5.13 -0.31 0.49
-5.18 -0.29 0.47
-5.14 -0.27 0.48
-4.93 -0.25 0.53
-5.00 -0.23 0.51
-5.04 -0.22 0.51
-4.78 -0.19 0.56
-4.91 -0.18 0.53
-5.08 -0.16 0.49
-5.53 -0.15 0.39
-5.23 -0.09 0.46
-5.53 -0.04 0.39
-4.96 -0.02 0.52
-7.41 0.02 0.39
-6.90 0.05 0.51
-6.70 0.06 0.56
-5.24 0.31 0.89
-5.09 0.32 0.93
-5.23 0.34 0.89
-5.29 0.35 0.88
-5.56 0.38 0.82
-5.20 0.37 0.90
-5.31 0.39 0.87
-5.22 0.40 0.89
-5.07 0.40 0.93
-5.25 0.43 0.89
-5.27 0.45 0.88
-5.33 0.46 0.87
-5.60 0.50 0.80
-5.63 0.52 0.79
-5.54 0.52 0.81
-5.37 0.52 0.85
-5.68 0.56 0.78
-5.66 0.57 0.78
-5.62 0.59 0.79
-5.52 0.59 0.81
-5.75 0.63 0.76
-5.79 0.65 0.75
-5.90 0.67 0.72
-6.14 0.71 0.67
-6.47 0.77 0.59
-6.47 0.78 0.59
-6.50 0.80 0.58
-6.67 0.84 0.54
-6.39 0.82 0.60
-6.35 0.83 0.61
-6.45 0.86 0.59
-6.46 0.88 0.58
-6.27 0.87 0.63
-6.20 0.88 0.64
-6.17 0.89 0.65
-6.21 0.91 0.64
-6.18 0.92 0.65
-6.12 0.93 0.66
-6.06 0.93 0.67
-6.02 0.94 0.68
-5.91 0.94 0.71
-5.92 0.96 0.70
-6.03 0.99 0.68
-6.18 1.03 0.64
-6.25 1.06 0.62
-6.26 1.08 0.62
-6.25 1.09 0.62
-6.12 1.08 0.65
-6.03 1.09 0.67
-5.66 1.04 0.76
-5.67 1.05 0.76
-5.68 1.07 0.75
-2.20 -0.81 1.10
-2.31 -0.81 1.07
-1.88 -0.69 1.17
-2.04 -0.69 1.14
-3.19 -0.54 0.87
-3.09 -0.50 0.89
-3.18 -0.50 0.87
-3.38 -0.49 0.82
-4.02 -0.45 0.67
-4.02 -0.42 0.67
-3.76 -0.39 0.73
-3.89 -0.38 0.71
-3.81 -0.36 0.72
-4.98 -0.27 0.45
-5.14 -0.24 0.41
-5.19 -0.20 0.40
-2.46 0.91 0.56
-2.98 0.77 0.35
-1.98 0.88 0.30
-1.94 0.77 0.27
-1.87 0.90 0.26
-1.82 0.85 0.26
-0.87 -0.57 0.27
