# .PCD v0.7 - Point Cloud Data file format
VERSION 0.7
FIELDS x y z
SIZE 4 4 4
TYPE F F F
COUNT 1 1 1
WIDTH 2369
HEIGHT 1
VIEWPOINT 0 0 0 1 0 0 0
POINTS 2369
DATA ASCII
-6.96 -0.55 2.29
-7.63 0.01 2.22
-7.96 0.05 2.22
-6.69 -0.32 2.10
-8.51 0.22 2.06
-7.45 0.49 2.08
-6.47 -1.20 2.08
-6.73 -0.69 2.08
-13.64 -0.11 2.00
-7.01 -0.84 1.97
-6.93 -0.55 1.97
-6.76 -0.39 1.97
-6.85 -0.37 1.97
-7.39 0.19 1.92
-7.20 -1.09 1.94
-7.57 -1.03 1.93
-7.41 -0.97 1.93
-7.24 -0.86 1.93
-7.06 -0.82 1.94
-6.96 -0.79 1.94
-6.76 -0.49 1.94
-6.75 -0.36 1.94
-6.53 -0.27 1.95
-6.72 -0.17 1.94
-7.27 0.15 1.95
-7.61 0.52 1.94
-7.65 0.59 1.93
-7.39 0.67 1.94
-7.22 -0.89 1.90
-7.16 -0.86 1.90
-6.80 -0.78 1.91
-7.00 -0.78 1.91
-7.07 -0.62 1.90
-6.71 -0.51 1.91
-7.23 -0.38 1.95
-12.79 -0.14 1.78
-6.63 -0.49 1.86
-7.56 -1.11 1.79
-7.35 -1.04 1.80
-7.15 -0.97 1.80
-7.23 -0.93 1.80
-7.19 -0.88 1.80
-7.39 -0.85 1.79
-7.26 -0.82 1.80
-6.89 -0.70 1.81
-6.32 -0.45 1.83
-6.44 -0.44 1.83
-6.53 -0.38 1.83
-6.48 -0.16 1.83
-6.56 -0.14 1.82
-11.95 0.16 1.63
-7.27 -0.94 1.76
-7.28 -0.92 1.76
-6.95 -0.82 1.77
-7.14 -0.77 1.76
-7.00 -0.73 1.77
-7.10 -0.72 1.77
-6.78 -0.61 1.78
-6.48 -0.42 1.79
-6.49 -0.40 1.79
-6.58 -0.34 1.79
-7.34 -1.10 1.72
-7.19 -0.86 1.73
-7.12 0.20 1.79
-7.57 0.55 1.76
-7.34 0.70 1.77
-7.59 0.74 1.75
-7.58 0.76 1.75
-7.05 0.72 1.78
-7.26 0.76 1.77
-7.28 0.89 1.77
-4.24 1.06 1.92
-6.85 -1.36 1.70
-7.59 -1.19 1.66
-7.55 -1.11 1.66
-7.09 -1.01 1.69
-7.17 -0.95 1.68
-7.09 -0.92 1.69
-7.10 -0.88 1.69
-7.10 -0.85 1.69
-7.17 -0.84 1.68
-6.86 -0.79 1.70
-6.94 -0.77 1.69
-7.09 -0.76 1.69
-6.87 -0.72 1.70
-6.79 -0.67 1.70
-6.71 -0.65 1.71
-6.78 -0.63 1.70
-6.65 -0.58 1.71
-6.67 -0.56 1.71
-6.52 -0.53 1.72
-7.08 -0.39 1.79
-7.19 -0.38 1.79
-7.18 -0.36 1.79
-7.36 -0.35 1.78
-7.38 -0.33 1.78
-7.14 -0.30 1.79
-7.34 -0.29 1.78
-7.25 -0.27 1.78
-7.23 -0.25 1.78
-7.36 -0.24 1.78
-7.54 -0.23 1.77
-4.24 1.05 1.91
-7.11 -0.90 1.65
-7.86 0.63 1.67
-7.59 0.64 1.69
-7.21 0.63 1.71
-6.16 -1.57 1.66
-6.24 -1.48 1.66
-6.94 -1.42 1.61
-6.31 -1.26 1.65
-7.08 -1.31 1.61
-7.00 -0.89 1.61
-7.04 -0.87 1.61
-6.92 -0.82 1.61
-6.71 -0.78 1.63
-7.03 -0.78 1.61
-6.89 -0.75 1.62
-10.36 -0.81 1.40
-6.81 -0.52 1.62
-6.41 -0.48 1.64
-6.41 -0.46 1.64
-6.68 -0.45 1.63
-6.73 -0.36 1.62
-6.58 -0.32 1.63
-6.73 -0.30 1.62
-6.75 -0.28 1.62
-6.96 -0.26 1.61
-6.88 -0.24 1.61
-6.73 -0.19 1.62
-6.32 -0.16 1.65
-6.97 0.75 1.69
-6.29 -1.57 1.61
-6.12 -1.52 1.62
-6.39 -1.42 1.60
-6.69 -1.42 1.58
-6.39 -1.36 1.60
-6.37 -1.29 1.60
-7.18 -1.36 1.55
-7.58 -1.35 1.52
-6.46 -1.18 1.60
-6.88 -1.21 1.57
-7.41 -1.07 1.53
-7.22 -1.02 1.55
-6.96 -0.93 1.56
-6.78 -0.89 1.58
-6.99 -0.87 1.56
-7.24 -0.82 1.54
-6.50 -0.63 1.59
-6.66 -0.55 1.58
-6.73 -0.54 1.58
-6.66 -0.51 1.58
-6.71 -0.49 1.58
-6.35 -0.45 1.60
-6.74 -0.43 1.58
-6.90 -0.42 1.57
-6.49 -0.38 1.59
-6.81 -0.35 1.57
-7.23 -0.29 1.54
-6.80 -0.26 1.57
-6.77 -0.24 1.57
-6.75 -0.17 1.57
-6.42 -0.14 1.59
-6.62 -0.12 1.58
-6.70 -0.10 1.58
-11.48 -0.12 1.26
-11.85 0.04 1.30
-7.91 0.15 1.59
-8.01 0.30 1.58
-7.44 0.30 1.62
-6.99 0.39 1.65
-15.77 0.89 1.01
-8.48 0.72 1.54
-8.77 0.76 1.52
-7.36 0.68 1.62
-7.47 0.84 1.61
-7.47 0.86 1.61
-7.76 0.91 1.59
-6.03 -1.69 1.58
-6.29 -1.55 1.56
-6.25 -1.53 1.57
-6.37 -1.53 1.56
-6.43 -1.52 1.55
-6.36 -1.48 1.56
-6.28 -1.45 1.56
-6.66 -1.49 1.54
-6.51 -1.44 1.55
-6.07 -1.35 1.58
-6.17 -1.35 1.57
-6.28 -1.34 1.56
-6.45 -1.35 1.55
-6.34 -1.31 1.56
-6.64 -1.33 1.54
-6.31 -1.26 1.56
-6.81 -1.31 1.53
-6.33 -1.23 1.56
-6.54 -1.23 1.55
-6.48 -1.18 1.55
-6.71 -1.19 1.53
-6.58 -1.15 1.54
-6.51 -1.12 1.55
-6.33 -1.06 1.56
-7.45 -1.10 1.48
-7.05 -1.03 1.51
-6.99 -1.00 1.51
-6.95 -0.98 1.52
-7.19 -0.98 1.50
-6.99 -0.94 1.51
-7.14 -0.93 1.50
-6.74 -0.87 1.53
-6.62 -0.83 1.54
-6.81 -0.83 1.53
-6.90 -0.79 1.52
-6.77 -0.74 1.53
-6.57 -0.68 1.54
-6.60 -0.66 1.54
-6.75 -0.65 1.53
-6.67 -0.62 1.53
-6.70 -0.60 1.53
-6.68 -0.58 1.53
-7.01 -0.58 1.51
-6.59 -0.53 1.54
-6.65 -0.51 1.54
-6.46 -0.48 1.55
-6.57 -0.47 1.54
-6.75 -0.45 1.53
-6.57 -0.42 1.54
-6.83 -0.41 1.52
-6.82 -0.39 1.52
-6.67 -0.36 1.53
-6.89 -0.35 1.52
-7.09 -0.25 1.65
-7.08 -0.23 1.65
-6.89 -0.21 1.67
-6.83 -0.19 1.67
-11.20 -0.10 1.35
-6.56 -1.53 1.50
-6.43 -1.45 1.51
-6.22 -1.37 1.53
-6.41 -1.38 1.51
-6.26 -1.34 1.52
-6.83 -1.40 1.48
-6.76 -1.33 1.48
-6.59 -1.28 1.50
-6.73 -1.28 1.49
-7.17 -1.32 1.45
-6.35 -1.18 1.52
-6.69 -1.21 1.49
-6.89 -1.19 1.47
-6.89 -1.14 1.47
-7.14 -1.08 1.46
-7.15 -1.06 1.45
-7.11 -1.01 1.46
-7.12 -0.99 1.46
-7.00 -0.96 1.47
-6.98 -0.93 1.47
-7.15 -0.93 1.45
-7.00 -0.89 1.47
-6.81 -0.85 1.48
-7.18 -0.84 1.45
-6.74 -0.78 1.49
-6.53 -0.63 1.50
-6.61 -0.57 1.49
-7.11 -0.56 1.46
-6.88 -0.50 1.47
-6.73 -0.39 1.48
-6.73 -0.34 1.48
-7.18 -0.31 1.45
-6.34 -0.12 1.51
-11.39 -0.09 1.12
-6.85 0.03 1.59
-6.67 0.12 1.60
-12.80 0.38 1.09
-13.11 0.42 1.06
-14.44 0.50 0.95
-15.64 1.11 0.84
-8.50 0.68 1.44
-7.13 0.66 1.56
-6.88 0.69 1.58
-6.92 0.71 1.57
-6.88 0.86 1.57
-6.27 -1.62 1.47
-6.40 -1.62 1.46
-6.16 -1.55 1.48
-6.19 -1.54 1.48
-6.34 -1.54 1.46
-6.22 -1.50 1.47
-6.54 -1.54 1.45
-6.12 -1.44 1.48
-6.37 -1.46 1.46
-6.46 -1.46 1.45
-6.62 -1.46 1.44
-6.47 -1.42 1.45
-6.24 -1.36 1.47
-6.26 -1.34 1.47
-6.44 -1.35 1.46
-6.24 -1.30 1.47
-6.53 -1.32 1.45
-6.45 -1.29 1.46
-6.50 -1.27 1.45
-6.67 -1.27 1.44
-6.56 -1.24 1.45
-6.88 -1.26 1.42
-6.86 -1.23 1.42
-7.12 -1.25 1.40
-6.85 -1.19 1.42
-6.41 -1.11 1.46
-6.98 -1.16 1.41
-6.09 -1.03 1.48
-6.27 -1.03 1.47
-7.14 -1.11 1.40
-7.09 -1.08 1.40
-7.27 -1.08 1.39
-7.32 -1.06 1.38
-7.15 -1.02 1.40
-7.17 -1.00 1.40
-7.11 -0.97 1.40
-7.07 -0.94 1.40
-7.22 -0.94 1.39
-7.10 -0.90 1.40
-7.08 -0.88 1.40
-6.93 -0.84 1.42
-7.03 -0.83 1.41
-6.71 -0.76 1.43
-6.40 -0.71 1.46
-6.36 -0.69 1.46
-6.40 -0.67 1.46
-6.37 -0.65 1.46
-6.77 -0.65 1.43
-6.43 -0.61 1.46
-6.47 -0.59 1.45
-6.53 -0.57 1.45
-6.54 -0.55 1.45
-6.72 -0.54 1.43
-6.70 -0.52 1.43
-7.07 -0.39 1.58
-7.14 -0.38 1.57
-7.13 -0.36 1.57
-7.20 -0.34 1.57
-7.11 -0.32 1.57
-7.10 -0.30 1.57
-7.14 -0.29 1.57
-7.07 -0.27 1.57
-6.89 -0.24 1.59
-7.06 -0.23 1.58
-6.96 -0.21 1.58
-7.30 -0.21 1.56
-7.22 -0.19 1.56
-6.82 -0.16 1.60
-7.07 -0.15 1.57
-10.36 -0.19 1.30
-6.82 -0.09 1.59
-6.79 -0.06 1.60
-6.81 -0.04 1.59
-6.91 -0.03 1.59
-7.16 0.03 1.34
-8.75 0.76 1.37
-3.29 1.13 1.84
-6.27 -1.57 1.42
-6.32 -1.52 1.42
-6.47 -1.52 1.41
-6.44 -1.49 1.41
-6.35 -1.46 1.42
-6.47 -1.46 1.41
-6.25 -1.36 1.43
-6.55 -1.38 1.40
-6.44 -1.34 1.41
-6.43 -1.32 1.41
-6.65 -1.33 1.39
-6.46 -1.28 1.41
-6.54 -1.28 1.40
-6.78 -1.29 1.38
-6.78 -1.27 1.38
-6.99 -1.27 1.36
-7.11 -1.27 1.35
-7.09 -1.24 1.35
-7.04 -1.21 1.36
-6.93 -1.17 1.37
-7.32 -1.15 1.33
-7.44 -1.14 1.32
-7.19 -1.09 1.34
-7.28 -1.06 1.34
-7.04 -1.01 1.36
-7.08 -0.99 1.35
-6.91 -0.95 1.37
-7.14 -0.95 1.35
-7.25 -0.94 1.34
-7.39 -0.93 1.33
-7.21 -0.89 1.34
-6.90 -0.84 1.37
-6.53 -0.78 1.40
-6.64 -0.77 1.39
-6.55 -0.74 1.40
-6.49 -0.69 1.40
-6.46 -0.65 1.41
-6.53 -0.53 1.40
-6.72 -0.52 1.38
-6.63 -0.49 1.39
-6.52 -0.46 1.40
-6.38 -0.44 1.41
-7.10 -0.45 1.35
-7.03 -0.40 1.36
-6.71 -0.37 1.38
-6.41 -0.33 1.41
-6.90 -0.33 1.37
-6.72 -0.30 1.38
-6.33 -0.27 1.42
-6.48 -0.23 1.40
-6.64 -0.21 1.39
-6.58 -0.19 1.39
-6.25 -0.16 1.42
-6.32 -0.14 1.42
-6.59 -0.10 1.39
-7.07 -0.06 1.35
-6.93 -0.04 1.36
-9.19 0.25 1.29
-13.09 0.61 0.91
-8.50 0.53 1.35
-8.37 0.54 1.36
-8.57 0.57 1.34
-8.71 0.60 1.33
-8.56 0.62 1.34
-15.12 1.11 0.71
-15.19 1.15 0.70
-8.55 0.72 1.34
-7.28 0.63 1.46
-14.89 1.42 0.73
-8.55 0.87 1.34
-8.86 0.94 1.31
-9.95 1.47 1.19
-2.59 -0.96 1.72
-6.47 -1.65 1.35
-6.29 -1.60 1.37
-6.57 -1.63 1.34
-6.17 -1.53 1.38
-6.32 -1.54 1.37
-6.22 -1.50 1.37
-6.25 -1.49 1.37
-6.34 -1.48 1.36
-6.41 -1.47 1.36
-6.44 -1.43 1.35
-6.50 -1.42 1.35
-6.54 -1.41 1.35
-6.43 -1.37 1.36
-6.61 -1.37 1.34
-6.54 -1.34 1.35
-6.51 -1.32 1.35
-6.88 -1.35 1.31
-6.72 -1.30 1.33
-6.86 -1.30 1.32
-6.99 -1.30 1.30
-7.12 -1.29 1.29
-6.70 -1.21 1.33
-6.78 -1.20 1.32
-7.15 -1.23 1.29
-7.22 -1.21 1.28
-7.42 -1.21 1.26
-6.71 -1.10 1.33
-7.00 -1.12 1.30
-7.19 -1.12 1.29
-6.91 -1.06 1.31
-7.08 -1.06 1.30
-7.47 -1.08 1.26
-7.02 -1.01 1.30
-6.70 -0.95 1.33
-7.29 -0.99 1.28
-7.40 -0.98 1.27
-7.41 -0.95 1.26
-6.75 -0.87 1.33
-7.48 -0.91 1.26
-6.63 -0.77 1.34
-6.55 -0.72 1.35
-6.58 -0.70 1.34
-6.39 -0.62 1.36
-6.38 -0.60 1.36
-6.46 -0.57 1.35
-2.71 -0.32 1.70
-9.90 -0.73 1.03
-6.44 -0.50 1.35
-6.13 -0.40 1.38
-6.23 -0.39 1.37
-6.35 -0.37 1.36
-6.42 -0.35 1.36
-6.49 -0.31 1.35
-6.39 -0.29 1.36
-6.52 -0.27 1.34
-6.44 -0.25 1.35
-6.63 -0.23 1.33
-6.79 -0.22 1.32
-6.62 -0.19 1.34
-6.68 -0.17 1.33
-7.31 0.00 1.21
-7.42 0.03 1.20
-7.18 0.05 1.22
-7.59 0.07 1.18
-7.54 0.10 1.19
-7.34 0.12 1.21
-7.30 0.14 1.21
-7.31 0.16 1.21
-7.01 0.18 1.24
-7.34 0.21 1.21
-9.49 0.24 1.20
-8.75 0.24 1.28
-6.83 0.21 1.47
-8.94 0.29 1.26
-8.82 0.44 1.26
-8.56 0.51 1.29
-8.55 0.55 1.29
-8.55 0.57 1.29
-15.11 1.03 0.62
-8.57 0.61 1.29
-8.44 0.63 1.30
-8.53 0.70 1.29
-8.43 0.71 1.30
-15.39 1.31 0.59
-8.52 0.76 1.29
-8.57 0.78 1.28
-8.40 0.79 1.30
-8.47 0.82 1.29
-15.27 1.49 0.60
-9.09 0.94 1.23
-9.08 0.96 1.23
-15.36 1.65 0.59
-15.23 1.67 0.60
-6.97 1.04 1.44
-9.71 1.56 1.15
-9.95 1.62 1.13
-6.31 -1.68 1.31
-6.48 -1.67 1.30
-6.45 -1.65 1.30
-6.58 -1.65 1.29
-6.42 -1.58 1.30
-6.34 -1.54 1.31
-6.20 -1.49 1.33
-6.22 -1.48 1.32
-6.62 -1.52 1.28
-6.27 -1.45 1.32
-6.67 -1.49 1.28
-6.43 -1.43 1.30
-6.55 -1.43 1.29
-6.81 -1.45 1.27
-6.48 -1.37 1.30
-6.57 -1.37 1.29
-6.61 -1.35 1.29
-6.60 -1.33 1.29
-6.78 -1.33 1.27
-6.81 -1.31 1.27
-2.32 -0.66 1.71
-6.70 -1.25 1.28
-6.75 -1.24 1.27
-7.34 -1.30 1.21
-6.63 -1.18 1.28
-6.64 -1.16 1.28
-6.78 -1.16 1.27
-6.75 -1.13 1.27
-6.68 -1.10 1.28
-7.08 -1.13 1.24
-6.83 -1.07 1.26
-6.93 -1.06 1.25
-7.32 -1.08 1.22
-7.09 -1.04 1.24
-7.18 -1.02 1.23
-7.51 -1.03 1.20
-7.36 -1.00 1.21
-7.34 -0.97 1.21
-7.77 -0.99 1.17
-7.70 -0.96 1.18
-7.84 -0.95 1.16
-7.51 -0.89 1.20
-7.53 -0.87 1.19
-6.51 -0.76 1.30
-7.67 -0.83 1.18
-7.11 -0.77 1.24
-6.24 -0.65 1.32
-6.19 -0.57 1.33
-6.57 -0.57 1.29
-6.22 -0.53 1.32
-6.41 -0.52 1.31
-6.60 -0.51 1.29
-6.77 -0.50 1.27
-6.55 -0.47 1.29
-7.80 -0.51 1.17
-6.61 -0.43 1.28
-7.27 -0.43 1.22
-6.27 -0.37 1.32
-6.29 -0.35 1.32
-6.17 -0.32 1.33
-6.48 -0.31 1.30
-6.46 -0.29 1.30
-6.74 -0.28 1.27
-6.46 -0.25 1.30
-6.57 -0.23 1.29
-7.07 -0.22 1.24
-6.96 -0.20 1.25
-6.95 -0.18 1.25
-7.09 -0.16 1.23
-6.88 -0.13 1.26
-7.11 -0.11 1.23
-7.16 -0.09 1.23
-7.12 -0.07 1.23
-7.26 -0.04 1.22
-7.53 -0.02 1.19
-7.33 0.01 1.37
-10.39 0.03 1.04
-7.56 0.10 1.34
-9.57 0.15 1.13
-11.34 0.20 0.94
-7.97 0.16 1.30
-8.13 0.21 1.28
-8.34 0.23 1.26
-8.19 0.27 1.28
-8.85 0.31 1.20
-8.91 0.36 1.20
-8.35 0.35 1.26
-8.21 0.37 1.27
-8.09 0.38 1.28
-8.27 0.41 1.26
-8.55 0.45 1.23
-8.32 0.45 1.26
-8.28 0.47 1.26
-8.27 0.49 1.26
-8.23 0.51 1.27
-8.77 0.56 1.21
-8.23 0.55 1.27
-8.47 0.59 1.24
-8.43 0.61 1.24
-8.55 0.64 1.23
-14.53 1.10 0.58
-8.35 0.66 1.25
-14.65 1.18 0.57
-8.58 0.72 1.22
-8.69 0.75 1.21
-8.30 0.74 1.25
-8.56 0.78 1.23
-8.41 0.79 1.24
-8.55 0.83 1.23
-8.33 0.83 1.25
-8.46 0.86 1.23
-8.49 0.90 1.23
-8.32 0.91 1.25
-8.27 0.92 1.25
-9.26 1.07 1.14
-7.01 1.07 1.38
-6.22 1.31 1.46
-6.27 -1.62 1.26
-6.19 -1.58 1.27
-6.12 -1.55 1.28
-6.42 -1.58 1.24
-6.31 -1.54 1.26
-6.70 -1.59 1.21
-6.23 -1.46 1.27
-6.27 -1.45 1.26
-6.50 -1.47 1.24
-6.33 -1.40 1.25
-6.31 -1.37 1.26
-6.46 -1.37 1.24
-6.32 -1.33 1.26
-7.10 -1.43 1.17
-7.31 -1.44 1.15
-7.51 -1.44 1.13
-6.92 -1.33 1.19
-6.83 -1.30 1.20
-6.81 -1.27 1.20
-6.77 -1.24 1.21
-6.69 -1.21 1.22
-6.95 -1.22 1.19
-7.15 -1.23 1.17
-6.91 -1.17 1.19
-6.96 -1.16 1.19
-7.07 -1.15 1.18
-7.03 -1.12 1.18
-6.79 -1.07 1.21
-7.08 -1.08 1.18
-7.08 -1.06 1.18
-6.66 -0.99 1.22
-6.56 -0.96 1.23
-6.74 -0.96 1.21
-6.67 -0.93 1.22
-7.63 -1.00 1.12
-6.32 -0.85 1.26
-6.41 -0.84 1.25
-6.33 -0.81 1.26
-6.47 -0.80 1.24
-7.42 -0.86 1.14
-6.21 -0.74 1.27
-7.06 -0.79 1.18
-7.29 -0.78 1.15
-6.07 -0.66 1.28
-6.31 -0.66 1.26
-6.18 -0.63 1.27
-6.58 -0.64 1.23
-6.20 -0.59 1.27
-6.35 -0.58 1.25
-6.15 -0.55 1.27
-6.36 -0.54 1.25
-6.66 -0.54 1.22
-6.49 -0.51 1.24
-6.40 -0.48 1.25
-6.17 -0.45 1.27
-6.23 -0.43 1.26
-6.23 -0.41 1.27
-6.11 -0.38 1.28
-6.16 -0.37 1.27
-6.77 -0.37 1.21
-6.40 -0.33 1.25
-7.02 -0.25 1.41
-7.11 -0.24 1.40
-6.98 -0.21 1.41
-7.05 -0.20 1.40
-7.08 -0.18 1.40
-6.93 -0.16 1.42
-6.93 -0.15 1.42
-6.82 -0.13 1.43
-6.87 -0.11 1.42
-6.86 -0.09 1.42
-7.10 -0.08 1.40
-7.06 -0.06 1.40
-7.06 -0.04 1.40
-7.85 -0.03 1.32
-6.99 -0.01 1.41
-7.39 0.00 1.08
-7.57 0.02 1.05
-7.58 0.07 1.05
-7.47 0.12 1.07
-7.09 0.14 1.11
-8.07 0.28 1.00
-7.91 0.30 1.01
-7.72 0.31 1.03
-7.31 0.35 1.08
-14.65 1.10 0.47
-14.39 1.54 0.49
-6.34 -1.50 1.20
-6.51 -1.48 1.18
-6.39 -1.38 1.19
-1.56 -0.55 1.74
-7.08 -1.28 1.12
-7.46 -1.31 1.07
-7.07 -1.24 1.12
-7.60 -1.28 1.06
-7.17 -1.20 1.11
-7.20 -1.18 1.10
-7.22 -1.16 1.10
-8.00 -1.23 1.01
-5.79 -0.93 1.26
-7.26 -1.08 1.10
-7.84 -1.12 1.03
-6.41 -0.94 1.19
-6.42 -0.92 1.19
-7.63 -1.02 1.05
-6.99 -0.91 1.13
-8.36 -1.02 0.97
-8.28 -0.96 0.98
-7.55 -0.78 1.06
-6.77 -0.67 1.15
-11.06 -0.96 0.67
-7.08 -0.63 1.12
-10.27 -0.54 0.76
-7.50 -0.23 1.07
-7.75 -0.22 1.04
-7.54 -0.19 1.06
-7.26 -0.09 1.09
-7.33 -0.07 1.08
-7.33 -0.02 1.08
-9.55 0.08 1.00
-12.32 0.31 0.66
-12.48 0.34 0.64
-8.43 0.32 1.13
-13.36 0.62 0.53
-8.25 0.41 1.15
-8.38 0.50 1.13
-8.45 0.54 1.12
-8.44 0.59 1.13
-14.53 1.06 0.38
-14.41 1.12 0.40
-14.44 1.23 0.39
-14.87 1.38 0.34
-14.72 1.40 0.35
-6.13 -1.37 1.16
-7.52 -1.40 0.99
-7.56 -1.35 0.99
-7.78 -1.36 0.96
-7.65 -1.32 0.98
-7.32 -1.25 1.02
-7.16 -1.21 1.04
-7.74 -1.26 0.97
-7.14 -1.16 1.04
-6.99 -1.10 1.06
-6.65 -1.03 1.10
-7.19 -1.05 1.03
-7.67 -0.98 0.98
-6.85 -0.88 1.07
-7.04 -0.88 1.05
-7.01 -0.85 1.06
-6.68 -0.80 1.10
-7.13 -0.79 1.04
-7.12 -0.75 1.04
-10.99 -1.02 0.58
-6.62 -0.60 1.10
-11.68 -0.64 0.75
-7.25 0.00 0.96
-7.80 0.02 0.89
-8.90 0.09 1.02
-8.18 0.13 1.11
-8.26 0.15 1.10
-8.97 0.18 1.01
-8.16 0.19 1.11
-8.44 0.21 1.08
-8.97 0.27 1.01
-8.68 0.28 1.04
-8.96 0.31 1.01
-8.78 0.33 1.03
-8.53 0.38 1.06
-8.41 0.40 1.08
-8.51 0.42 1.06
-8.62 0.45 1.05
-8.40 0.46 1.08
-8.50 0.48 1.06
-8.50 0.50 1.06
-8.55 0.53 1.06
-8.52 0.55 1.06
-8.44 0.56 1.07
-8.62 0.60 1.05
-8.81 0.63 1.02
-8.72 0.65 1.03
-8.39 0.64 1.07
-14.61 1.14 0.27
-14.84 1.19 0.24
-5.84 0.51 1.40
-14.87 1.34 0.24
-14.81 1.37 0.24
-14.36 1.36 0.30
-14.61 1.42 0.27
-6.59 0.74 1.30
-6.52 0.75 1.31
-13.23 1.61 0.44
-6.57 -1.58 1.05
-6.86 -1.61 1.01
-6.50 -1.53 1.05
-6.03 -1.41 1.12
-6.23 -1.42 1.09
-6.21 -1.40 1.09
-6.13 -1.36 1.10
-7.79 -1.60 0.89
-7.71 -1.57 0.90
-7.62 -1.53 0.91
-7.79 -1.53 0.89
-7.43 -1.45 0.94
-7.24 -1.40 0.96
-6.83 -1.32 1.02
-7.04 -1.33 0.99
-6.85 -1.28 1.01
-7.39 -1.33 0.94
-7.23 -1.28 0.97
-7.33 -1.27 0.95
-6.89 -1.19 1.01
-4.29 -0.84 1.34
-7.22 -1.19 0.97
-6.70 -1.10 1.03
-6.73 -1.09 1.03
-6.80 -1.07 1.02
-6.96 -1.07 1.00
-6.73 -1.02 1.03
-7.28 -1.06 0.96
-6.60 -0.96 1.05
-6.44 -0.92 1.07
-6.33 -0.89 1.08
-6.69 -0.91 1.03
-7.53 -0.97 0.93
-6.43 -0.84 1.07
-6.48 -0.82 1.06
-6.45 -0.80 1.06
-6.59 -0.79 1.05
-6.32 -0.75 1.08
-6.45 -0.74 1.07
-7.23 -0.78 0.97
-6.52 -0.70 1.06
-6.64 -0.69 1.04
-7.16 -0.68 0.97
-6.77 -0.63 1.02
-10.95 -0.89 0.49
-6.85 -0.57 1.01
-6.65 -0.52 1.04
-6.84 -0.50 1.01
-7.29 -0.51 0.96
-6.88 -0.46 1.01
-8.01 -0.49 0.87
-6.71 -0.41 1.03
-7.28 -0.41 0.96
-6.81 -0.37 1.02
-6.24 -0.33 1.09
-7.01 -0.34 0.99
-7.06 -0.31 0.98
-6.97 -0.29 1.00
-7.49 -0.28 0.93
-7.43 -0.26 0.94
-7.44 -0.23 0.94
-7.20 -0.21 0.97
-7.22 -0.18 0.96
-7.31 -0.16 0.95
-7.53 -0.14 0.92
-7.43 -0.12 0.94
-7.27 -0.09 0.96
-7.25 -0.07 0.96
-7.12 -0.05 0.97
-7.33 -0.02 0.95
-8.35 0.01 1.03
-8.37 0.03 1.02
-8.44 0.05 1.01
-8.67 0.09 0.98
-9.22 0.12 0.91
-8.87 0.16 0.96
-9.00 0.18 0.94
-9.30 0.21 0.90
-8.44 0.23 1.01
-8.34 0.25 1.02
-9.06 0.29 0.93
-8.80 0.33 0.96
-6.63 0.27 1.25
-8.91 0.38 0.94
-8.60 0.38 0.99
-8.57 0.42 0.99
-8.43 0.44 1.01
-8.50 0.48 1.00
-8.64 0.51 0.98
-8.54 0.53 0.99
-8.64 0.55 0.98
-8.51 0.59 0.99
-6.46 0.47 1.27
-8.73 0.67 0.96
-6.04 0.48 1.33
-8.98 0.73 0.93
-14.31 1.25 0.20
-6.10 0.60 1.32
-6.15 0.61 1.31
-6.16 0.65 1.31
-5.92 0.65 1.34
-6.35 0.71 1.28
-5.61 0.65 1.38
-13.01 1.56 0.37
-5.93 -1.61 1.06
-6.28 -1.66 1.02
-6.53 -1.62 0.98
-6.78 -1.65 0.95
-7.04 -1.67 0.92
-7.29 -1.69 0.88
-6.87 -1.59 0.94
-7.55 -1.69 0.85
-7.73 -1.67 0.82
-7.49 -1.60 0.86
-7.65 -1.61 0.84
-6.96 -1.47 0.93
-8.03 -1.62 0.78
-7.43 -1.50 0.87
-6.54 -1.34 0.99
-6.28 -1.26 1.02
-6.67 -1.30 0.97
-6.64 -1.27 0.97
-6.74 -1.26 0.96
-6.77 -1.25 0.96
-6.67 -1.21 0.97
-7.13 -1.25 0.91
-6.60 -1.14 0.98
-7.31 -1.20 0.88
-7.09 -1.15 0.91
-7.26 -1.15 0.89
-6.86 -1.08 0.94
-6.46 -1.01 1.00
-6.52 -1.00 0.99
-6.66 -0.97 0.97
-6.45 -0.93 1.00
-6.60 -0.92 0.98
-8.24 -1.06 0.76
-6.31 -0.85 1.02
-6.31 -0.83 1.02
-6.33 -0.81 1.02
-6.20 -0.76 1.03
-6.63 -0.77 0.98
-6.66 -0.75 0.97
-6.51 -0.72 0.99
-6.63 -0.71 0.97
-6.65 -0.69 0.97
-6.51 -0.66 0.99
-6.83 -0.64 0.95
-6.26 -0.58 1.03
-6.68 -0.58 0.97
-6.82 -0.57 0.95
-6.35 -0.52 1.01
-6.59 -0.51 0.98
-6.24 -0.47 1.03
-7.40 -0.49 0.87
-7.79 -0.48 0.82
-6.95 -0.42 0.93
-7.52 -0.42 0.86
-7.17 -0.39 0.90
-7.26 -0.37 0.89
-6.98 -0.33 0.93
-7.33 -0.30 0.88
-7.28 -0.28 0.89
-7.13 -0.25 0.91
-7.07 -0.23 0.91
-6.70 -0.20 0.96
-7.32 -0.19 0.88
-7.18 -0.12 1.19
-7.21 -0.10 1.18
-8.20 -0.07 1.05
-8.22 -0.05 1.04
-8.26 -0.01 1.04
-6.70 -0.00 0.90
-6.30 0.02 0.95
-6.35 0.04 0.95
-6.72 0.06 0.89
-6.40 0.08 0.94
-6.96 0.11 0.86
-6.88 0.13 0.87
-6.88 0.15 0.87
-6.92 0.18 0.86
-7.10 0.20 0.84
-6.91 0.22 0.86
-8.30 0.23 0.97
-8.53 0.25 0.94
-8.62 0.28 0.92
-8.77 0.30 0.90
-8.72 0.32 0.91
-8.75 0.35 0.90
-8.75 0.37 0.90
-8.70 0.39 0.91
-8.71 0.41 0.91
-8.58 0.42 0.93
-8.64 0.45 0.92
-8.39 0.46 0.95
-8.52 0.48 0.93
-8.38 0.50 0.95
-8.67 0.53 0.91
-8.54 0.55 0.93
-8.73 0.58 0.90
-8.35 0.58 0.96
-8.67 0.64 0.91
-8.73 0.67 0.90
-9.04 0.71 0.86
-5.85 0.48 1.31
-6.06 0.56 1.28
-5.60 0.62 1.34
-5.49 0.62 1.36
-13.17 1.54 0.25
-13.24 1.61 0.24
-6.16 0.88 1.26
-5.17 0.92 1.39
-6.10 1.32 1.25
-3.18 0.78 1.67
-6.12 -1.65 0.98
-5.70 -1.39 1.04
-7.34 -1.65 0.81
-7.59 -1.67 0.77
-7.50 -1.63 0.78
-7.48 -1.60 0.79
-7.30 -1.55 0.81
-6.34 -1.37 0.95
-6.91 -1.44 0.87
-7.06 -1.42 0.85
-7.26 -1.43 0.82
-7.18 -1.39 0.83
-6.66 -1.29 0.91
-6.66 -1.27 0.91
-6.59 -1.24 0.92
-6.50 -1.21 0.93
-6.49 -1.18 0.93
-6.48 -1.16 0.93
-6.62 -1.16 0.91
-6.57 -1.13 0.92
-6.30 -1.08 0.96
-6.65 -1.10 0.91
-6.44 -1.05 0.94
-6.71 -1.06 0.90
-6.25 -0.99 0.96
-6.07 -0.95 0.99
-6.34 -0.96 0.95
-6.41 -0.94 0.94
-6.50 -0.93 0.93
-6.43 -0.90 0.94
-6.11 -0.85 0.99
-8.18 -1.03 0.69
-6.97 -0.89 0.86
-7.08 -0.88 0.85
-6.44 -0.80 0.94
-6.20 -0.76 0.97
-8.21 -0.91 0.69
-6.50 -0.74 0.93
-7.79 -0.82 0.75
-7.73 -0.79 0.76
-6.43 -0.67 0.94
-6.66 -0.67 0.91
-6.37 -0.63 0.95
-6.25 -0.60 0.97
-6.08 -0.56 0.99
-7.02 -0.60 0.86
-7.39 -0.60 0.80
-7.02 -0.56 0.86
-7.61 -0.57 0.77
-7.37 -0.53 0.81
-7.45 -0.52 0.80
-7.28 -0.48 0.82
-7.13 -0.45 0.84
-7.26 -0.44 0.82
-7.06 -0.41 0.85
-7.14 -0.39 0.84
-6.97 -0.36 0.86
-5.74 -0.29 1.04
-6.99 -0.31 0.86
-7.11 -0.29 0.84
-7.10 -0.27 0.84
-7.16 -0.25 0.84
-7.05 -0.23 0.85
-6.88 -0.20 0.87
-7.10 -0.18 0.84
-7.37 -0.16 0.80
-6.33 -0.13 0.95
-7.16 -0.11 0.83
-7.19 -0.09 0.83
-7.45 -0.07 0.79
-7.71 -0.05 0.75
-7.27 -0.02 0.82
-8.51 0.00 0.87
-8.51 0.03 0.87
-8.45 0.05 0.88
-8.48 0.07 0.88
-8.32 0.09 0.90
-8.30 0.11 0.90
-8.68 0.13 0.85
-8.30 0.15 0.90
-8.84 0.18 0.82
-8.46 0.19 0.88
-8.15 0.20 0.93
-8.17 0.22 0.92
-8.77 0.26 0.83
-8.64 0.28 0.85
-8.51 0.30 0.87
-8.40 0.31 0.89
-8.33 0.33 0.90
-8.59 0.36 0.86
-8.61 0.38 0.85
-8.42 0.40 0.88
-8.39 0.42 0.88
-8.25 0.43 0.91
-8.30 0.45 0.90
-8.96 0.51 0.80
-8.83 0.52 0.82
-8.53 0.53 0.86
-8.56 0.55 0.86
-8.82 0.59 0.82
-8.77 0.60 0.82
-8.52 0.61 0.86
-8.67 0.64 0.84
-8.24 0.63 0.90
-6.58 0.52 1.15
-6.34 0.52 1.19
-6.14 0.52 1.22
-6.26 0.55 1.20
-5.81 0.52 1.27
-5.91 0.55 1.25
-5.89 0.56 1.25
-5.80 0.57 1.27
-6.02 0.60 1.23
-5.78 0.59 1.27
-5.85 0.62 1.26
-5.86 0.63 1.26
-5.97 0.66 1.24
-5.91 0.67 1.25
-6.06 0.70 1.22
-6.05 0.71 1.23
-6.34 0.76 1.18
-5.80 0.71 1.26
-6.44 0.84 1.16
-6.21 0.82 1.20
-6.45 0.87 1.16
-6.26 0.86 1.19
-6.49 0.91 1.15
-6.21 0.89 1.20
-6.08 0.88 1.22
-6.05 0.90 1.22
-6.22 0.95 1.19
-5.72 0.95 1.27
-5.95 1.03 1.23
-5.71 1.01 1.26
-6.06 1.10 1.21
-5.78 -1.57 0.96
-5.85 -1.56 0.95
-6.14 -1.57 0.91
-5.61 -1.44 0.99
-7.40 -1.69 0.72
-5.73 -1.38 0.97
-7.57 -1.67 0.69
-7.28 -1.60 0.74
-7.16 -1.55 0.76
-5.75 -1.30 0.97
-7.24 -1.52 0.75
-6.81 -1.43 0.81
-5.93 -1.27 0.94
-5.89 -1.25 0.95
-6.78 -1.36 0.81
-6.70 -1.33 0.83
-6.77 -1.31 0.82
-6.85 -1.30 0.80
-6.55 -1.24 0.85
-6.70 -1.24 0.83
-6.68 -1.21 0.83
-6.87 -1.22 0.80
-6.50 -1.15 0.86
-6.40 -1.11 0.87
-6.61 -1.12 0.84
-6.25 -1.05 0.90
-6.31 -1.04 0.89
-6.25 -1.01 0.90
-6.22 -0.99 0.90
-6.26 -0.97 0.89
-6.08 -0.93 0.92
-6.09 -0.91 0.92
-6.30 -0.91 0.89
-6.25 -0.89 0.90
-6.26 -0.87 0.89
-6.12 -0.83 0.92
-6.20 -0.82 0.90
-6.13 -0.79 0.91
-6.21 -0.78 0.90
-6.33 -0.77 0.88
-6.51 -0.76 0.86
-6.53 -0.75 0.85
-6.44 -0.72 0.87
-6.34 -0.69 0.88
-6.68 -0.69 0.83
-7.05 -0.70 0.78
-6.36 -0.63 0.88
-6.11 -0.59 0.92
-6.09 -0.57 0.92
-6.70 -0.59 0.83
-7.13 -0.59 0.76
-7.20 -0.57 0.75
-7.25 -0.55 0.75
-7.19 -0.53 0.76
-7.30 -0.51 0.74
-7.47 -0.49 0.71
-7.30 -0.46 0.74
-7.21 -0.44 0.75
-7.21 -0.41 0.75
-7.00 -0.38 0.78
-7.08 -0.36 0.77
-9.33 -0.34 0.75
-8.56 -0.29 0.87
-7.86 -0.24 0.97
-7.91 -0.23 0.97
-7.83 -0.21 0.98
-8.52 -0.20 0.87
-8.18 -0.17 0.93
-7.08 -0.13 1.09
-8.58 -0.14 0.86
-8.28 -0.12 0.91
-8.87 -0.10 0.82
-8.46 -0.08 0.88
-8.56 -0.06 0.87
-8.30 -0.04 0.91
-8.56 -0.02 0.87
-8.24 -0.00 0.52
-6.49 0.02 0.79
-6.65 0.04 0.77
-7.50 0.07 0.64
-7.38 0.09 0.65
-8.45 0.13 0.49
-7.07 0.13 0.70
-7.48 0.19 0.64
-7.52 0.21 0.63
-6.83 0.22 0.74
-7.18 0.25 0.68
-7.19 0.27 0.68
-6.43 0.27 0.80
-6.37 0.35 0.81
-6.11 0.36 0.85
-8.56 0.40 0.80
-9.13 0.49 0.71
-9.20 0.52 0.70
-8.79 0.54 0.76
-8.80 0.56 0.76
-3.49 0.78 1.57
-7.48 -1.65 0.64
-7.30 -1.60 0.67
-5.87 -1.32 0.89
-7.17 -1.51 0.69
-6.71 -1.41 0.76
-1.21 -0.55 1.62
-6.71 -1.34 0.76
-7.07 -1.38 0.71
-8.71 -1.56 0.45
-6.84 -1.28 0.74
-7.01 -1.28 0.72
-6.57 -1.20 0.79
-7.02 -1.23 0.72
-7.19 -1.23 0.69
-7.62 -1.26 0.62
-6.66 -1.12 0.77
-6.36 -1.06 0.82
-7.12 -1.13 0.70
-6.49 -1.04 0.80
-6.33 -1.00 0.82
-6.36 -0.98 0.82
-6.46 -0.97 0.80
-6.26 -0.93 0.84
-6.24 -0.90 0.84
-7.88 -1.05 0.58
-6.39 -0.88 0.82
-6.76 -0.89 0.76
-6.26 -0.82 0.84
-6.22 -0.80 0.84
-6.38 -0.79 0.82
-6.54 -0.79 0.79
-6.51 -0.76 0.80
-6.67 -0.76 0.77
-6.49 -0.72 0.80
-7.09 -0.74 0.71
-6.54 -0.68 0.79
-6.55 -0.66 0.79
-6.76 -0.65 0.76
-7.18 -0.66 0.69
-6.50 -0.59 0.80
-7.14 -0.61 0.70
-7.34 -0.60 0.67
-7.30 -0.58 0.67
-7.16 -0.55 0.70
-7.31 -0.53 0.67
-7.54 -0.52 0.64
-7.45 -0.49 0.65
-7.04 -0.45 0.71
-7.29 -0.44 0.67
-7.32 -0.42 0.67
-7.51 -0.40 0.64
-7.38 -0.37 0.66
-8.80 -0.40 0.44
-8.17 -0.35 0.54
-6.15 -0.27 0.85
-8.23 -0.30 0.53
-7.15 -0.25 0.69
-8.62 -0.26 0.46
-8.54 -0.24 0.48
-6.73 -0.18 0.76
-6.88 -0.16 0.74
-6.14 -0.12 0.85
-5.99 -0.10 0.87
-6.69 -0.09 0.76
-6.71 -0.07 0.76
-6.57 -0.04 0.78
-6.77 -0.02 0.75
-9.14 0.00 0.64
-9.07 0.03 0.65
-9.68 0.05 0.55
-9.08 0.07 0.65
-8.65 0.09 0.71
-8.27 0.10 0.78
-8.98 0.14 0.66
-8.30 0.15 0.77
-8.41 0.17 0.75
-8.21 0.18 0.79
-8.52 0.21 0.73
-8.52 0.23 0.73
-8.82 0.26 0.68
-9.16 0.29 0.63
-8.35 0.29 0.76
-8.96 0.33 0.66
-8.78 0.35 0.69
-8.11 0.34 0.80
-8.12 0.36 0.80
-8.19 0.38 0.79
-8.13 0.40 0.80
-7.94 0.41 0.83
-8.26 0.45 0.77
-8.15 0.46 0.79
-8.92 0.53 0.66
-8.74 0.54 0.69
-9.08 0.58 0.63
-9.07 0.60 0.64
-8.83 0.61 0.67
-8.48 0.61 0.73
-5.43 0.41 1.24
-5.78 0.46 1.18
-5.58 0.46 1.21
-5.45 0.47 1.23
-5.53 0.49 1.22
-6.01 0.57 1.14
-5.83 0.57 1.17
-5.76 0.58 1.18
-5.78 0.61 1.18
-5.54 0.60 1.21
-5.75 0.68 1.18
-6.92 0.83 0.98
-5.85 0.72 1.16
-6.02 0.77 1.13
-5.81 0.76 1.16
-6.33 0.84 1.08
-6.00 0.81 1.13
-6.15 0.85 1.11
-6.19 0.87 1.10
-5.79 0.86 1.16
-5.74 0.87 1.17
-3.13 0.64 1.60
-8.00 1.62 0.77
-1.07 -0.65 1.61
-7.37 -1.68 0.57
-7.40 -1.67 0.57
-7.51 -1.66 0.55
-7.31 -1.60 0.58
-7.36 -1.59 0.57
-7.33 -1.51 0.58
-7.69 -1.50 0.52
-6.90 -1.36 0.65
-8.69 -1.59 0.36
-6.95 -1.32 0.64
-8.54 -1.52 0.38
-6.88 -1.27 0.66
-7.00 -1.26 0.64
-6.69 -1.20 0.69
-6.61 -1.16 0.70
-6.61 -1.14 0.70
-7.07 -1.18 0.63
-7.52 -1.21 0.55
-6.68 -1.08 0.69
-6.60 -1.05 0.70
-6.30 -1.00 0.75
-6.43 -0.99 0.73
-6.24 -0.95 0.76
-6.11 -0.92 0.79
-6.18 -0.90 0.77
-6.21 -0.89 0.77
-6.23 -0.87 0.77
-6.21 -0.84 0.77
-6.21 -0.82 0.77
-6.28 -0.81 0.76
-6.12 -0.77 0.78
-6.23 -0.76 0.77
-6.27 -0.75 0.76
-6.80 -0.77 0.67
-6.44 -0.72 0.73
-6.85 -0.73 0.66
-7.01 -0.72 0.64
-7.03 -0.70 0.63
-6.93 -0.67 0.65
-6.89 -0.64 0.66
-6.86 -0.62 0.66
-6.63 -0.58 0.70
-6.73 -0.57 0.68
-6.72 -0.55 0.68
-6.81 -0.53 0.67
-6.82 -0.38 1.02
-7.09 -0.38 0.98
-7.05 -0.36 0.98
-6.89 -0.33 1.01
-8.20 -0.38 0.80
-10.55 -0.46 0.41
-8.13 -0.33 0.81
-8.12 -0.31 0.81
-9.92 -0.36 0.51
-9.79 -0.33 0.53
-9.19 -0.29 0.63
-8.89 -0.26 0.68
-8.58 -0.23 0.73
-8.63 -0.21 0.72
-8.60 -0.18 0.73
-8.69 -0.17 0.71
-9.38 -0.16 0.60
-9.39 -0.13 0.60
-6.53 -0.08 1.07
-9.42 -0.09 0.59
-6.74 -0.05 1.03
-9.02 -0.04 0.66
-8.95 -0.02 0.67
-6.07 -0.00 0.72
-6.47 0.02 0.65
-7.77 0.06 0.80
-7.91 0.08 0.77
-7.78 0.12 0.80
-7.90 0.16 0.78
-7.92 0.18 0.77
-8.06 0.20 0.75
-8.09 0.22 0.74
-8.05 0.24 0.75
-8.11 0.28 0.74
-8.05 0.32 0.75
-7.82 0.33 0.79
-7.92 0.35 0.77
-8.10 0.38 0.74
-8.15 0.40 0.73
-8.26 0.49 0.71
-7.63 0.47 0.82
-5.33 0.35 1.21
-5.52 0.37 1.18
-5.55 0.39 1.17
-5.49 0.41 1.18
-5.79 0.48 1.13
-5.44 0.46 1.19
-5.52 0.48 1.18
-5.53 0.50 1.17
-5.48 0.52 1.18
-5.70 0.57 1.14
-5.51 0.57 1.18
-5.53 0.58 1.17
-5.90 0.63 1.11
-6.43 0.70 1.01
-6.80 0.78 0.95
-6.46 0.77 1.01
-6.20 0.76 1.05
-6.19 0.79 1.05
-6.03 0.78 1.08
-6.09 0.85 1.07
-5.88 0.84 1.10
-5.69 0.84 1.14
-6.01 0.93 1.08
-5.28 0.85 1.21
-4.95 0.81 1.26
-6.27 1.04 1.03
-6.01 1.01 1.07
-7.53 1.31 0.80
-5.79 1.09 1.11
-5.86 1.12 1.09
-7.38 -1.66 0.49
-7.37 -1.64 0.50
-7.38 -1.61 0.50
-5.60 -1.30 0.80
-7.25 -1.54 0.52
-7.45 -1.55 0.48
-7.08 -1.47 0.55
-6.85 -1.41 0.59
-7.71 -1.52 0.44
-8.44 -1.60 0.31
-8.05 -1.52 0.38
-6.58 -1.29 0.63
-8.34 -1.51 0.33
-6.63 -1.25 0.63
-6.62 -1.23 0.63
-6.67 -1.21 0.62
-6.74 -1.20 0.61
-6.77 -1.18 0.60
-6.79 -1.16 0.60
-6.73 -1.13 0.61
-6.75 -1.11 0.61
-6.89 -1.11 0.58
-6.63 -1.06 0.63
-6.37 -1.00 0.67
-6.56 -1.00 0.64
-6.47 -0.97 0.66
-6.85 -0.99 0.59
-6.38 -0.92 0.67
-6.59 -0.92 0.64
-6.30 -0.87 0.69
-6.16 -0.84 0.71
-6.21 -0.82 0.70
-6.40 -0.82 0.67
-6.23 -0.78 0.70
-6.28 -0.77 0.69
-6.27 -0.74 0.69
-6.15 -0.71 0.71
-6.12 -0.69 0.72
-6.15 -0.67 0.71
-6.56 -0.68 0.64
-6.52 -0.66 0.65
-6.54 -0.64 0.64
-6.49 -0.62 0.65
-6.73 -0.61 0.61
-6.36 -0.56 0.68
-6.51 -0.55 0.65
-6.81 -0.55 0.60
-6.81 -0.53 0.60
-6.81 -0.51 0.60
-7.29 -0.51 0.51
-7.22 -0.48 0.53
-7.32 -0.46 0.51
-6.76 -0.42 0.61
-6.78 -0.40 0.60
-7.35 -0.40 0.50
-7.18 -0.37 0.53
-7.18 -0.34 0.53
-7.47 -0.33 0.48
-5.70 -0.25 0.79
-6.11 -0.25 0.72
-6.73 -0.24 0.61
-6.81 -0.22 0.60
-5.99 -0.18 0.74
-6.65 -0.17 0.62
-6.48 -0.15 0.65
-6.42 -0.13 0.66
-6.22 -0.11 0.70
-5.98 -0.08 0.74
-6.60 -0.07 0.63
-6.18 -0.04 0.70
-6.45 -0.02 0.66
-7.83 0.00 0.72
-7.94 0.02 0.70
-7.63 0.04 0.76
-7.88 0.06 0.71
-7.71 0.08 0.74
-7.74 0.10 0.74
-8.02 0.12 0.69
-8.04 0.14 0.68
-7.85 0.16 0.72
-8.00 0.18 0.69
-7.75 0.19 0.73
-7.90 0.22 0.71
-7.79 0.23 0.73
-7.96 0.26 0.70
-7.90 0.27 0.71
-7.86 0.29 0.71
-8.01 0.32 0.68
-7.82 0.33 0.72
-7.70 0.34 0.74
-7.87 0.37 0.71
-7.77 0.38 0.73
-7.07 0.37 0.85
-8.41 0.45 0.61
-8.39 0.47 0.61
-8.25 0.49 0.64
-7.63 0.47 0.75
-7.63 0.49 0.75
-5.94 0.40 1.06
-5.59 0.39 1.12
-5.49 0.40 1.14
-5.81 0.43 1.08
-7.61 0.58 0.75
-5.82 0.47 1.08
-5.78 0.48 1.08
-6.11 0.52 1.02
-6.13 0.53 1.02
-5.63 0.51 1.11
-5.75 0.53 1.09
-5.75 0.55 1.09
-6.26 0.61 0.99
-6.97 0.69 0.86
-7.15 0.73 0.83
-6.93 0.72 0.87
-7.27 0.77 0.80
-7.20 0.78 0.82
-7.25 0.81 0.81
-7.29 0.83 0.80
-6.74 0.79 0.90
-6.25 0.75 0.99
-6.44 0.79 0.95
-6.21 0.77 0.99
-6.09 0.78 1.02
-6.24 0.81 0.99
-6.15 0.81 1.00
-6.03 0.81 1.03
-6.11 0.84 1.01
-6.22 0.87 0.99
-6.16 0.88 1.00
-6.12 0.89 1.01
-6.09 0.90 1.01
-5.95 0.89 1.04
-5.99 0.92 1.03
-5.98 0.93 1.03
-6.03 0.95 1.02
-6.21 1.00 0.99
-6.17 1.01 0.99
-6.28 1.04 0.97
-6.42 1.08 0.95
-6.19 1.06 0.99
-5.87 1.02 1.05
-5.81 1.02 1.06
-5.90 1.05 1.04
-5.71 1.04 1.07
-5.78 1.06 1.06
-5.83 1.10 1.05
-5.55 1.07 1.10
-5.59 1.10 1.09
-5.67 1.13 1.08
-5.91 1.21 1.03
-6.00 1.24 1.01
-6.35 1.36 0.94
-5.28 -1.66 0.79
-5.44 -1.68 0.76
-5.41 -1.50 0.77
-5.82 -1.48 0.69
-7.07 -1.65 0.47
-7.47 -1.68 0.40
-7.29 -1.62 0.43
-7.49 -1.63 0.39
-7.42 -1.60 0.41
-7.20 -1.54 0.45
-7.24 -1.52 0.44
-6.99 -1.46 0.49
-7.08 -1.45 0.47
-6.94 -1.41 0.50
-7.06 -1.40 0.47
-7.93 -1.48 0.32
-6.84 -1.28 0.52
-6.84 -1.26 0.51
-6.71 -1.22 0.54
-6.98 -1.23 0.49
-7.15 -1.23 0.46
-7.72 -1.28 0.36
-7.47 -1.23 0.40
-7.70 -1.23 0.36
-6.62 -1.08 0.56
-6.56 -1.05 0.57
-6.43 -1.01 0.59
-6.47 -1.00 0.58
-6.49 -0.98 0.58
-6.61 -0.97 0.56
-6.58 -0.94 0.56
-6.53 -0.92 0.57
-6.27 -0.87 0.62
-6.19 -0.84 0.63
-6.17 -0.82 0.64
-6.33 -0.81 0.61
-6.39 -0.80 0.60
-6.16 -0.76 0.64
-6.19 -0.74 0.63
-6.01 -0.70 0.67
-6.16 -0.70 0.64
-6.33 -0.69 0.61
-6.20 -0.66 0.63
-6.03 -0.63 0.66
-6.12 -0.61 0.65
-6.63 -0.63 0.56
-6.50 -0.60 0.58
-6.52 -0.58 0.57
-6.59 -0.56 0.56
-6.40 -0.53 0.60
-7.07 -0.54 0.48
-6.74 -0.50 0.53
-6.72 -0.48 0.54
-6.93 -0.47 0.50
-7.35 -0.47 0.43
-7.27 -0.44 0.44
-7.02 -0.41 0.48
-6.14 -0.35 0.64
-6.13 -0.33 0.64
-6.00 -0.30 0.67
-6.31 -0.29 0.61
-5.83 -0.26 0.70
-6.06 -0.24 0.66
-6.92 -0.25 0.50
-6.27 -0.21 0.62
-6.64 -0.20 0.55
-6.42 -0.17 0.59
-8.23 -0.14 0.65
-8.18 -0.12 0.66
-6.50 -0.08 0.97
-6.44 -0.06 0.98
-8.52 -0.06 0.60
-6.18 -0.03 1.02
-7.64 -0.02 0.76
-4.92 -0.00 0.80
-5.15 0.01 0.75
-5.58 0.03 0.67
-5.39 0.05 0.71
-5.76 0.07 0.64
-5.52 0.09 0.68
-5.97 0.12 0.60
-5.42 0.13 0.70
-5.76 0.15 0.64
-5.58 0.17 0.67
-5.73 0.19 0.64
-8.01 0.22 0.62
-7.85 0.23 0.65
-8.35 0.27 0.55
-8.33 0.31 0.55
-8.18 0.32 0.58
-8.34 0.35 0.55
-7.63 0.36 0.69
-7.36 0.36 0.74
-7.26 0.38 0.76
-7.58 0.41 0.69
-7.41 0.42 0.73
-5.26 0.32 1.14
-5.39 0.34 1.11
-5.48 0.36 1.09
-5.84 0.39 1.02
-5.57 0.39 1.07
-5.49 0.40 1.09
-5.72 0.43 1.04
-5.73 0.44 1.04
-6.70 0.53 0.86
-6.01 0.49 0.99
-5.70 0.48 1.05
-5.82 0.51 1.02
-5.72 0.51 1.04
-5.80 0.53 1.03
-6.09 0.57 0.97
-5.88 0.57 1.01
-6.08 0.60 0.97
-7.30 0.76 0.74
-6.55 0.71 0.88
-5.97 0.74 0.99
-5.68 0.74 1.04
-5.68 0.75 1.04
-6.05 0.81 0.97
-5.90 0.81 1.00
-6.00 0.84 0.98
-5.91 0.86 0.99
-5.67 0.84 1.04
-5.93 0.89 0.99
-5.80 0.90 1.01
-5.60 0.90 1.05
-5.40 0.92 1.09
-5.28 0.95 1.11
-5.53 1.00 1.06
-5.42 1.00 1.08
-5.30 0.99 1.10
-5.27 1.00 1.11
-5.13 0.99 1.13
-5.27 -1.49 0.73
-2.90 -0.92 1.18
-2.90 -0.91 1.18
-7.22 -1.63 0.36
-7.10 -1.59 0.38
-7.23 -1.59 0.36
-7.33 -1.58 0.34
-7.50 -1.58 0.31
-7.35 -1.54 0.34
-7.28 -1.50 0.35
-6.69 -1.39 0.46
-7.09 -1.43 0.39
-7.29 -1.43 0.35
-6.77 -1.31 0.45
-7.20 -1.33 0.37
-6.87 -1.26 0.43
-6.55 -1.20 0.49
-6.92 -1.22 0.42
-6.74 -1.18 0.46
-6.68 -1.15 0.47
-6.76 -1.14 0.45
-7.01 -1.14 0.41
-6.32 -1.04 0.54
-6.45 -1.04 0.51
-7.20 -1.10 0.37
-6.83 -1.03 0.44
-6.56 -0.98 0.49
-6.46 -0.95 0.51
-6.78 -0.92 0.45
-7.30 -0.95 0.35
-6.67 -0.87 0.47
-6.39 -0.82 0.52
-6.27 -0.79 0.55
-6.38 -0.78 0.53
-6.32 -0.75 0.54
-6.44 -0.74 0.51
-6.43 -0.72 0.52
-6.34 -0.69 0.53
-6.33 -0.67 0.54
-6.27 -0.64 0.55
-6.38 -0.63 0.52
-6.29 -0.60 0.54
-6.57 -0.60 0.49
-6.40 -0.57 0.52
-6.55 -0.56 0.49
-6.76 -0.55 0.45
-6.23 -0.48 0.55
-6.42 -0.46 0.52
-6.20 -0.43 0.56
-7.27 -0.39 0.36
-6.09 -0.33 0.58
-6.46 -0.32 0.51
-5.89 -0.28 0.62
-6.03 -0.26 0.59
-6.02 -0.24 0.59
-5.16 -0.20 0.75
-5.94 -0.20 0.61
-5.21 -0.17 0.74
-5.24 -0.15 0.74
-4.99 -0.13 0.78
-4.96 -0.11 0.79
-4.95 -0.09 0.79
-5.15 -0.08 0.75
-5.02 -0.06 0.78
-5.28 -0.04 0.73
-5.05 -0.02 0.77
-7.61 0.00 0.62
-7.53 0.02 0.64
-7.90 0.04 0.57
-6.35 0.05 0.88
-7.77 0.08 0.59
-7.88 0.10 0.57
-7.88 0.12 0.57
-8.03 0.14 0.54
-8.01 0.16 0.54
-7.99 0.18 0.55
-7.82 0.19 0.58
-7.78 0.21 0.59
-7.94 0.23 0.55
-8.07 0.26 0.53
-8.07 0.28 0.53
-8.01 0.30 0.54
-7.79 0.31 0.58
-7.74 0.32 0.59
-7.32 0.33 0.68
-6.92 0.33 0.76
-7.00 0.35 0.74
-7.10 0.37 0.72
-7.07 0.38 0.72
-7.20 0.41 0.70
-7.66 0.45 0.61
-5.42 0.34 1.05
-5.39 0.35 1.06
-5.64 0.38 1.01
-5.86 0.41 0.96
-5.53 0.40 1.03
-5.57 0.42 1.02
-5.64 0.44 1.00
-5.60 0.45 1.01
-5.76 0.47 0.98
-5.91 0.50 0.95
-5.76 0.50 0.98
-6.33 0.57 0.87
-5.74 0.53 0.98
-5.91 0.56 0.95
-5.81 0.57 0.97
-6.10 0.61 0.91
-6.52 0.66 0.82
-6.71 0.70 0.78
-6.54 0.70 0.82
-6.86 0.75 0.75
-6.10 0.68 0.91
-6.14 0.70 0.90
-6.33 0.74 0.86
-5.96 0.71 0.93
-5.89 0.72 0.94
-6.08 0.76 0.91
-5.92 0.75 0.94
-5.93 0.77 0.93
-5.97 0.79 0.93
-5.88 0.79 0.94
-5.88 0.81 0.94
-5.92 0.83 0.93
-5.90 0.84 0.94
-5.78 0.84 0.96
-5.74 0.85 0.97
-5.73 0.86 0.97
-5.80 0.89 0.96
-5.78 0.90 0.96
-5.72 0.91 0.97
-5.79 0.93 0.96
-6.23 1.01 0.87
-5.98 0.99 0.91
-5.72 0.97 0.97
-6.30 1.07 0.85
-6.63 1.14 0.78
-7.04 1.23 0.70
-5.50 0.99 1.01
-5.42 0.99 1.03
-5.41 1.00 1.03
-5.43 1.02 1.02
-5.58 1.06 0.99
-5.67 1.09 0.97
-5.56 1.08 0.99
-5.75 1.13 0.95
-5.58 1.12 0.99
-5.66 1.15 0.97
-5.40 1.14 1.02
-5.44 -1.54 0.62
-6.86 -1.44 0.34
-7.04 -1.45 0.31
-6.84 -1.39 0.35
-6.69 -1.35 0.38
-6.61 -1.32 0.39
-6.72 -1.31 0.37
-6.71 -1.20 0.38
-6.47 -1.15 0.43
-6.63 -1.15 0.39
-6.43 -1.10 0.43
-6.48 -1.08 0.42
-6.41 -1.05 0.44
-6.30 -1.02 0.46
-6.21 -0.99 0.48
-6.39 -0.99 0.44
-6.29 -0.96 0.46
-6.41 -0.95 0.44
-6.60 -0.95 0.40
-6.49 -0.91 0.42
-6.65 -0.91 0.39
-6.56 -0.88 0.41
-6.55 -0.86 0.41
-6.53 -0.83 0.41
-6.45 -0.81 0.43
-6.45 -0.78 0.43
-6.42 -0.76 0.44
-6.44 -0.74 0.43
-6.37 -0.71 0.45
-6.44 -0.70 0.43
-6.64 -0.69 0.39
-6.46 -0.66 0.43
-6.54 -0.64 0.41
-6.78 -0.64 0.37
-6.87 -0.62 0.35
-6.73 -0.59 0.37
-6.39 -0.55 0.44
-6.60 -0.54 0.40
-6.71 -0.52 0.38
-6.58 -0.50 0.40
-6.30 -0.46 0.46
-6.05 -0.43 0.51
-6.08 -0.41 0.50
-6.36 -0.40 0.45
-6.01 -0.36 0.52
-6.64 -0.24 0.82
-7.18 -0.24 0.71
-7.04 -0.22 0.74
-7.52 -0.22 0.65
-7.31 -0.19 0.69
-7.63 -0.18 0.62
-7.17 -0.16 0.72
-7.25 -0.14 0.70
-7.11 -0.12 0.73
-7.39 -0.11 0.67
-7.49 -0.09 0.65
-7.57 -0.07 0.63
-7.50 -0.05 0.65
-7.60 -0.04 0.63
-7.58 -0.02 0.63
-4.77 -0.00 0.70
-4.79 0.01 0.70
-4.98 0.03 0.66
-5.46 0.05 0.56
-4.93 0.06 0.67
-4.84 0.08 0.69
-5.61 0.11 0.53
-5.39 0.12 0.57
-5.25 0.14 0.60
-5.29 0.16 0.59
-5.20 0.18 0.61
-5.22 0.19 0.61
-2.12 0.13 1.25
-1.69 0.12 1.33
-1.66 0.13 1.34
-5.35 0.27 0.58
-5.30 0.29 0.59
-5.53 0.32 0.54
-2.78 0.22 1.11
-5.71 0.28 0.95
-5.66 0.30 0.96
-6.62 0.36 0.76
-5.35 0.31 1.02
-5.37 0.32 1.02
-5.44 0.35 1.00
-5.48 0.37 1.00
-5.52 0.38 0.99
-5.89 0.42 0.91
-5.70 0.42 0.95
-5.61 0.43 0.97
-6.75 0.53 0.73
-5.83 0.49 0.92
-5.59 0.49 0.97
-5.78 0.52 0.93
-6.50 0.64 0.78
-6.31 0.66 0.82
-6.02 0.72 0.87
-5.85 0.71 0.91
-6.28 0.78 0.82
-5.18 0.73 1.04
-4.40 0.63 1.21
-4.78 0.70 1.13
-4.22 0.65 1.24
-4.46 0.70 1.19
-5.11 0.89 1.05
-5.25 0.94 1.02
-5.11 0.93 1.05
-5.18 0.95 1.03
-6.61 -1.31 0.33
-6.56 -1.22 0.34
-6.48 -1.19 0.35
-1.30 -0.48 1.42
-6.48 -1.08 0.35
-6.42 -1.05 0.37
-6.37 -1.00 0.38
-6.53 -1.00 0.35
-6.64 -0.91 0.32
-6.44 -0.80 0.37
-6.61 -0.77 0.33
-6.59 -0.75 0.33
-6.51 -0.72 0.35
-6.18 -0.43 0.42
-6.25 -0.39 0.40
-6.16 -0.37 0.42
-5.78 -0.24 0.50
-5.17 -0.20 0.62
-4.93 -0.18 0.67
-4.91 -0.16 0.68
-4.84 -0.14 0.69
-4.91 -0.13 0.68
-5.08 -0.11 0.64
-4.93 -0.09 0.67
-4.96 -0.07 0.67
-5.03 -0.06 0.65
-5.99 -0.04 0.45
-5.16 -0.02 0.62
-6.19 0.00 0.79
-6.48 0.02 0.73
-6.17 0.03 0.79
-6.60 0.05 0.70
-6.47 0.06 0.73
-7.02 0.09 0.61
-6.98 0.10 0.62
-6.83 0.12 0.65
-6.97 0.14 0.62
-7.35 0.16 0.54
-7.23 0.18 0.56
-7.35 0.20 0.54
-7.08 0.21 0.60
-6.84 0.22 0.65
-6.78 0.23 0.66
-6.92 0.26 0.63
-6.74 0.27 0.67
-6.56 0.28 0.71
-6.82 0.30 0.65
-6.81 0.32 0.65
-6.84 0.34 0.64
-6.72 0.35 0.67
-6.61 0.36 0.69
-6.59 0.38 0.70
-6.53 0.39 0.71
-6.53 0.40 0.71
-6.38 0.41 0.74
-6.37 0.43 0.74
-6.40 0.44 0.74
-6.15 0.44 0.79
-6.18 0.46 0.78
-5.85 0.45 0.85
-5.97 0.48 0.83
-6.46 0.53 0.72
-6.53 0.55 0.70
-5.88 0.51 0.84
-6.75 0.60 0.65
-6.66 0.61 0.67
-6.53 0.62 0.70
-6.38 0.62 0.73
-6.52 0.65 0.70
-6.39 0.65 0.73
-6.47 0.67 0.71
-6.48 0.69 0.71
-6.43 0.70 0.72
-6.44 0.72 0.72
-6.18 0.71 0.77
-6.38 0.75 0.73
-6.44 0.77 0.71
-6.16 0.75 0.77
-6.14 0.77 0.78
-6.12 0.78 0.78
-6.13 0.80 0.78
-6.19 0.82 0.77
-6.17 0.83 0.77
-6.18 0.85 0.77
-4.30 0.61 1.18
-6.18 0.88 0.77
-6.34 0.92 0.73
-6.12 0.90 0.78
-5.93 0.89 0.82
-6.08 0.93 0.78
-4.39 0.70 1.15
-6.15 0.97 0.77
-5.76 0.93 0.85
-5.69 0.93 0.87
-5.71 0.95 0.86
-5.89 0.99 0.82
-5.70 0.98 0.86
-5.75 1.00 0.85
-5.65 1.00 0.87
-5.68 1.02 0.86
-5.62 1.02 0.88
-5.71 1.05 0.86
-5.47 1.03 0.91
-5.52 1.05 0.90
-5.68 1.09 0.86
-5.61 1.09 0.87
-5.64 1.11 0.87
-5.48 1.10 0.90
-5.59 1.13 0.88
-5.83 1.19 0.82
-5.39 1.14 0.92
-5.44 1.16 0.91
-5.60 1.21 0.87
-5.59 1.22 0.87
-5.75 1.27 0.83
-5.74 1.28 0.83
-5.72 1.29 0.84
-5.59 1.28 0.87
-5.45 -1.68 0.47
-5.28 -1.61 0.51
-6.53 -0.38 0.72
-6.48 -0.36 0.73
-6.37 -0.34 0.76
-6.40 -0.33 0.75
-6.30 -0.31 0.77
-6.28 -0.29 0.78
-6.57 -0.29 0.71
-6.25 -0.26 0.78
-6.39 -0.25 0.75
-6.42 -0.23 0.75
-6.21 -0.21 0.79
-6.20 -0.20 0.79
-6.29 -0.18 0.77
-6.29 -0.17 0.77
-6.13 -0.15 0.81
-6.20 -0.14 0.79
-6.53 -0.13 0.72
-6.51 -0.11 0.73
-6.70 -0.10 0.68
-6.88 -0.08 0.64
-7.06 -0.07 0.60
-6.89 -0.05 0.64
-6.18 -0.03 0.79
-6.12 -0.01 0.81
-4.82 -0.01 0.55
-2.28 0.02 1.12
-6.29 0.05 0.71
-6.80 0.07 0.59
-7.02 0.09 0.54
-6.92 0.10 0.57
-6.50 0.11 0.66
-6.31 0.12 0.70
-6.17 0.14 0.73
-6.44 0.16 0.67
-6.63 0.18 0.63
-7.42 0.22 0.45
-6.82 0.22 0.59
-6.45 0.22 0.67
-6.14 0.23 0.74
-6.13 0.24 0.74
-6.35 0.27 0.69
-6.30 0.28 0.70
-6.37 0.30 0.68
-6.59 0.32 0.64
-6.55 0.34 0.64
-6.57 0.36 0.64
-6.50 0.37 0.65
-6.55 0.39 0.64
-6.28 0.39 0.70
-6.34 0.41 0.69
-6.18 0.41 0.72
-5.90 0.41 0.79
-5.81 0.42 0.81
-5.91 0.44 0.78
-6.17 0.47 0.72
-5.77 0.46 0.81
-6.02 0.49 0.76
-5.87 0.50 0.79
-6.20 0.54 0.72
-6.30 0.56 0.69
-6.70 0.61 0.60
-6.67 0.63 0.61
-6.68 0.64 0.60
-6.59 0.65 0.62
-6.41 0.65 0.66
-6.54 0.68 0.63
-6.56 0.70 0.63
-6.65 0.72 0.61
-6.60 0.74 0.62
-6.38 0.73 0.67
-6.50 0.76 0.64
-6.31 0.75 0.68
-6.25 0.76 0.70
-6.28 0.78 0.69
-6.33 0.80 0.68
-4.15 0.55 1.17
-4.11 0.55 1.18
-4.18 0.57 1.17
-4.10 0.57 1.18
-6.79 0.94 0.57
-4.26 0.62 1.15
-3.95 0.59 1.22
-4.20 0.63 1.16
-4.28 0.65 1.14
-6.25 0.95 0.69
-4.22 0.67 1.15
-6.28 0.99 0.68
-4.36 0.71 1.12
-6.32 1.02 0.67
-5.29 0.89 0.90
-4.65 0.80 1.05
-5.31 0.98 0.89
-5.47 1.02 0.86
-5.43 1.04 0.86
-5.33 1.04 0.88
-5.24 1.04 0.90
-5.44 1.13 0.85
-5.51 1.16 0.84
-1.73 -0.63 1.25
-2.01 -0.61 1.19
-2.00 -0.20 1.19
-1.83 -0.18 1.23
-1.96 -0.17 1.20
-2.04 -0.15 1.18
-2.06 -0.14 1.17
-1.92 -0.12 1.21
-4.93 -0.18 0.53
-5.37 -0.17 0.43
-5.23 -0.15 0.46
-5.65 -0.12 0.37
-5.37 -0.10 0.43
-4.88 -0.06 0.54
-4.97 -0.04 0.52
-4.97 -0.02 0.52
-6.08 0.03 0.70
-7.14 0.05 0.45
-7.48 0.07 0.37
-6.41 0.08 0.62
-6.16 0.11 0.68
-7.54 0.15 0.35
-7.53 0.17 0.35
-7.61 0.19 0.33
-7.47 0.20 0.36
-6.28 0.19 0.65
-6.54 0.21 0.59
-7.95 0.27 0.25
-6.84 0.25 0.51
-6.59 0.26 0.57
-6.74 0.28 0.54
-6.68 0.30 0.55
-6.66 0.31 0.55
-6.53 0.32 0.58
-6.73 0.35 0.54
-6.73 0.36 0.54
-6.74 0.38 0.53
-6.69 0.40 0.54
-6.39 0.39 0.61
-6.79 0.43 0.52
-6.34 0.42 0.63
-6.45 0.45 0.60
-6.72 0.48 0.53
-6.62 0.49 0.56
-6.73 0.51 0.53
-6.62 0.52 0.55
-6.76 0.55 0.52
-6.57 0.55 0.57
-6.55 0.57 0.57
-6.46 0.57 0.59
-6.48 0.59 0.59
-6.50 0.61 0.58
-6.53 0.63 0.57
-6.53 0.65 0.57
-6.54 0.66 0.57
-6.51 0.68 0.58
-6.72 0.71 0.52
-6.91 0.75 0.48
-6.64 0.74 0.54
-6.85 0.78 0.49
-6.90 0.80 0.48
-6.74 0.80 0.52
-6.84 0.83 0.49
-7.17 0.89 0.41
-6.80 0.86 0.50
-7.11 0.91 0.42
-7.09 0.93 0.43
-6.95 0.93 0.46
-6.69 0.91 0.52
-7.43 1.03 0.34
-6.73 0.95 0.51
-6.71 0.97 0.51
-6.35 0.93 0.60
-6.54 0.98 0.55
-6.56 1.00 0.55
-6.38 0.99 0.59
-6.54 1.03 0.55
-6.45 1.03 0.57
-6.36 1.03 0.59
-6.24 1.03 0.62
-6.20 1.04 0.63
-5.41 0.98 0.81
-5.69 1.05 0.75
-5.47 1.02 0.80
-5.46 1.05 0.80
-6.22 -0.11 0.67
-2.03 0.78 0.50
-2.71 0.65 0.25
-0.78 -0.84 0.23
-0.88 -0.79 0.25
-0.98 -0.79 0.24
-1.06 -0.67 0.25
