# .PCD v0.7 - Point Cloud Data file format
VERSION 0.7
FIELDS x y z
SIZE 4 4 4
TYPE F F F
COUNT 1 1 1
WIDTH 2559
HEIGHT 1
VIEWPOINT 0 0 0 1 0 0 0
POINTS 2559
DATA ASCII
-1.81 -0.35 2.28
-11.00 0.10 2.37
-1.83 -0.32 2.21
-12.46 0.29 2.02
-12.52 0.32 2.02
-2.85 0.70 2.14
-1.68 -1.15 2.14
-1.60 -1.12 2.14
-12.86 -1.18 1.99
-12.52 -1.02 1.99
-8.85 -0.46 2.07
-12.39 0.44 1.95
-11.52 0.18 1.88
-12.40 0.35 1.88
-13.06 0.52 1.86
-12.23 -0.96 1.83
-12.43 -0.94 1.83
-12.35 -0.90 1.83
-12.48 -0.87 1.82
-12.68 -0.85 1.82
-11.86 -0.70 1.84
-11.23 0.17 1.81
-11.50 0.21 1.80
-11.43 0.24 1.80
-13.58 1.14 1.81
-12.28 -0.96 1.79
-12.31 -0.93 1.79
-11.87 -0.70 1.80
-12.29 0.26 1.80
-12.27 0.29 1.80
-12.10 0.31 1.81
-12.35 0.35 1.80
-12.43 0.38 1.80
-12.51 0.41 1.80
-12.81 0.45 1.79
-12.84 0.48 1.79
-13.06 0.62 1.78
-13.57 1.11 1.76
-12.29 -0.90 1.74
-12.45 -0.87 1.73
-12.53 -0.84 1.73
-12.45 -0.61 1.81
-8.51 -0.40 1.92
-8.48 -0.38 1.92
-8.93 -0.38 1.91
-8.91 -0.35 1.91
-9.03 -0.34 1.91
-8.80 -0.31 1.91
-8.93 -0.12 1.91
-12.11 0.25 1.77
-13.39 1.09 1.72
-12.10 0.19 1.73
-12.13 0.28 1.73
-12.18 0.31 1.72
-12.14 0.34 1.73
-12.59 0.44 1.71
-12.63 0.48 1.71
-13.20 0.59 1.68
-13.52 0.77 1.67
-13.48 0.80 1.67
-13.32 1.08 1.67
-13.52 1.20 1.67
-12.26 -0.79 1.64
-8.12 -0.39 1.79
-11.29 0.24 1.62
-12.40 0.38 1.67
-12.53 0.41 1.66
-12.94 0.58 1.64
-13.55 1.17 1.61
-11.89 0.22 1.64
-11.98 0.25 1.64
-12.07 0.28 1.63
-12.13 0.31 1.63
-12.04 0.37 1.63
-12.37 0.41 1.62
-12.73 0.51 1.60
-12.94 0.55 1.59
-13.49 0.93 1.56
-13.54 1.13 1.56
-13.54 1.30 1.56
-13.87 1.43 1.54
-4.78 1.22 1.94
-12.84 -0.86 1.50
-9.00 -0.29 1.77
-8.95 -0.18 1.78
-9.01 -0.16 1.77
-13.44 1.25 1.51
-12.95 -0.83 1.44
-11.41 0.15 1.57
-11.65 0.18 1.55
-11.88 0.22 1.54
-12.01 0.25 1.53
-12.14 0.28 1.53
-12.14 0.31 1.53
-12.00 0.34 1.53
-12.07 0.37 1.53
-12.18 0.40 1.52
-12.73 0.45 1.49
-12.61 0.47 1.50
-12.50 0.50 1.50
-11.68 0.55 1.55
-13.54 1.30 1.44
-13.45 1.36 1.44
-13.59 1.40 1.44
-3.87 1.05 1.95
-4.29 1.26 1.92
-1.97 -0.92 1.95
-1.97 -0.84 1.95
-13.24 -1.03 1.35
-8.67 -0.43 1.72
-8.53 -0.40 1.72
-8.83 -0.40 1.71
-8.93 -0.36 1.70
-8.80 -0.33 1.71
-9.10 -0.32 1.69
-8.84 -0.29 1.71
-8.98 -0.27 1.70
-9.05 -0.23 1.69
-8.99 -0.18 1.70
-11.37 0.18 1.52
-11.78 0.24 1.50
-11.85 0.27 1.49
-11.96 0.30 1.48
-11.99 0.33 1.48
-12.47 0.44 1.45
-1.83 -1.14 1.94
-1.62 -0.97 1.96
-1.63 -0.79 1.96
-1.88 -0.82 1.94
-1.80 -0.75 1.95
-10.71 -0.65 1.43
-7.30 0.06 1.72
-11.22 0.12 1.48
-11.27 0.18 1.47
-11.30 0.21 1.47
-11.72 0.24 1.44
-12.01 0.28 1.43
-11.97 0.30 1.43
-11.95 0.33 1.43
-12.20 0.37 1.41
-12.18 0.40 1.41
-12.45 0.47 1.40
-12.55 0.50 1.39
-12.98 0.80 1.36
-9.40 -1.00 1.45
-11.20 -0.64 1.34
-11.14 -0.60 1.34
-10.89 -0.56 1.36
-10.90 -0.50 1.36
-10.85 -0.47 1.36
-10.34 -0.39 1.39
-10.00 0.01 1.35
-9.64 0.03 1.37
-10.04 0.06 1.34
-9.92 0.09 1.35
-9.78 0.12 1.36
-9.75 0.15 1.36
-12.07 0.34 1.36
-12.01 0.36 1.36
-12.29 0.46 1.34
-11.91 0.53 1.37
-12.58 0.81 1.32
-12.94 0.89 1.29
-1.81 -0.80 1.90
-9.24 -1.10 1.40
-9.28 -1.08 1.40
-9.11 -1.03 1.41
-9.29 -1.02 1.40
-9.11 -0.98 1.41
-10.05 -0.53 1.35
-10.63 -0.52 1.31
-10.15 -0.47 1.34
-10.32 -0.45 1.33
-7.70 -0.33 1.50
-10.32 -0.27 1.33
-10.39 -0.24 1.32
-10.56 -0.21 1.31
-10.43 -0.18 1.32
-10.44 -0.15 1.32
-10.67 -0.12 1.30
-10.69 -0.09 1.30
-10.17 -0.05 1.33
-10.47 -0.02 1.31
-7.46 0.01 1.63
-7.43 0.03 1.63
-7.57 0.05 1.62
-10.88 0.09 1.38
-7.62 0.08 1.62
-7.73 0.10 1.61
-7.69 0.12 1.61
-7.66 0.14 1.61
-11.86 0.24 1.31
-11.85 0.27 1.31
-8.63 0.24 1.54
-12.02 0.36 1.30
-12.32 0.40 1.28
-12.41 0.46 1.27
-12.28 0.52 1.28
-12.10 0.54 1.29
-11.24 0.56 1.35
-12.44 0.65 1.26
-12.87 0.79 1.23
-12.91 0.83 1.23
-12.97 0.86 1.22
-12.77 0.88 1.24
-12.73 0.91 1.24
-13.17 0.97 1.21
-12.86 0.98 1.23
-5.11 1.59 1.76
-1.96 -0.66 1.87
-9.01 -1.22 1.36
-8.90 -1.18 1.37
-9.01 -1.08 1.36
-9.09 -1.06 1.35
-9.10 -1.03 1.35
-9.30 -0.97 1.34
-7.75 -0.57 1.45
-7.54 -0.54 1.46
-9.72 -0.63 1.31
-3.09 -0.27 1.79
-7.50 -0.47 1.47
-10.17 -0.56 1.27
-10.14 -0.53 1.28
-10.08 -0.50 1.28
-10.18 -0.47 1.27
-10.16 -0.44 1.27
-8.69 -0.29 1.54
-8.80 -0.27 1.54
-8.55 -0.24 1.55
-8.43 -0.22 1.56
-8.34 -0.19 1.57
-10.24 -0.21 1.43
-8.15 -0.15 1.58
-8.46 -0.13 1.56
-8.25 -0.11 1.57
-10.72 -0.12 1.40
-10.42 -0.09 1.42
-10.78 -0.07 1.39
-7.58 -0.03 1.62
-7.62 -0.01 1.62
-9.98 0.03 1.22
-10.00 0.09 1.22
-9.86 0.12 1.23
-6.63 0.11 1.48
-12.73 0.81 1.18
-12.82 0.85 1.17
-12.92 0.89 1.16
-13.19 0.97 1.14
-2.75 1.18 1.92
-1.91 -1.12 1.85
-8.84 -1.04 1.32
-10.08 -0.71 1.22
-10.12 -0.62 1.22
-10.23 -0.59 1.21
-10.30 -0.57 1.20
-10.29 -0.54 1.20
-10.32 -0.45 1.20
-10.33 -0.42 1.20
-10.36 -0.39 1.20
-10.21 -0.35 1.21
-10.34 -0.30 1.20
-10.34 -0.27 1.20
-10.85 -0.21 1.16
-9.96 -0.11 1.22
-9.64 -0.08 1.25
-9.72 -0.05 1.24
-9.97 -0.02 1.22
-7.68 0.01 1.53
-7.59 0.03 1.53
-10.90 0.06 1.26
-10.90 0.09 1.26
-7.77 0.09 1.52
-11.20 0.15 1.24
-11.04 0.17 1.25
-11.24 0.20 1.23
-10.54 0.22 1.29
-12.73 0.79 1.10
-12.77 0.82 1.10
-12.88 0.86 1.09
-13.33 0.92 1.05
-13.35 0.95 1.05
-13.55 1.03 1.03
-13.65 1.07 1.02
-13.43 1.09 1.04
-13.34 1.18 1.04
-13.18 1.20 1.06
-13.14 1.39 1.06
-5.06 0.78 1.73
-5.42 1.11 1.69
-5.07 1.08 1.72
-3.69 0.93 1.84
-4.70 1.51 1.74
-1.68 -0.98 1.85
-2.30 -1.10 1.79
-1.84 -0.90 1.83
-1.95 -0.91 1.82
-1.77 -0.87 1.84
-1.95 -0.76 1.82
-9.35 -1.34 1.21
-9.10 -1.26 1.23
-9.18 -1.13 1.22
-9.27 -1.08 1.21
-9.15 -1.01 1.22
-9.31 -1.00 1.21
-8.80 -0.93 1.25
-8.94 -0.91 1.24
-8.95 -0.89 1.24
-3.74 -0.45 1.67
-2.90 -0.35 1.74
-7.47 -0.63 1.36
-1.96 -0.27 1.82
-10.17 -0.71 1.14
-8.59 -0.43 1.46
-11.01 -0.52 1.26
-8.76 -0.40 1.44
-8.69 -0.37 1.45
-8.81 -0.35 1.44
-8.49 -0.32 1.46
-10.19 -0.36 1.32
-8.54 -0.28 1.46
-8.48 -0.26 1.46
-8.68 -0.24 1.45
-8.55 -0.22 1.46
-8.44 -0.20 1.47
-8.16 -0.17 1.49
-8.25 -0.15 1.48
-8.25 -0.13 1.48
-10.99 -0.15 1.26
-10.75 -0.12 1.27
-7.63 -0.07 1.53
-7.37 -0.04 1.55
-7.64 -0.03 1.53
-7.52 -0.01 1.54
-9.96 0.00 1.08
-10.98 0.09 1.19
-7.93 0.09 1.46
-11.09 0.15 1.18
-10.96 0.17 1.20
-11.29 0.20 1.17
-11.21 0.23 1.17
-13.06 0.93 1.00
-13.69 1.07 0.94
-13.40 1.15 0.97
-13.14 1.29 0.99
-1.89 -0.88 1.81
-1.95 -0.69 1.80
-2.02 -0.64 1.80
-1.63 -0.43 1.83
-7.23 -0.61 1.33
-7.15 -0.59 1.34
-7.43 -0.58 1.31
-7.09 -0.54 1.34
-6.76 -0.50 1.37
-7.20 -0.50 1.33
-7.15 -0.47 1.34
-6.84 -0.44 1.37
-6.99 -0.42 1.35
-7.03 -0.36 1.35
-10.36 -0.45 1.05
-10.47 -0.42 1.04
-9.61 -0.17 1.12
-9.75 -0.08 1.10
-7.74 0.01 1.43
-7.45 0.03 1.46
-7.78 0.05 1.43
-11.08 0.09 1.12
-11.22 0.12 1.10
-11.06 0.15 1.12
-11.29 0.18 1.10
-12.70 0.69 0.96
-12.69 0.72 0.96
-12.71 0.75 0.96
-13.08 0.80 0.92
-13.12 0.84 0.92
-13.06 0.87 0.92
-13.43 0.92 0.89
-8.90 0.66 1.31
-13.40 1.02 0.89
-9.19 0.73 1.29
-13.47 1.09 0.88
-9.16 0.77 1.29
-13.69 1.17 0.86
-13.42 1.18 0.88
-2.26 -0.73 1.75
-2.15 -0.69 1.76
-8.95 -1.02 1.11
-8.88 -0.96 1.12
-8.85 -0.93 1.12
-7.14 -0.70 1.28
-7.41 -0.70 1.26
-7.24 -0.66 1.27
-7.50 -0.66 1.25
-7.00 -0.60 1.30
-7.10 -0.58 1.29
-7.20 -0.57 1.28
-6.96 -0.53 1.30
-6.92 -0.51 1.30
-6.80 -0.48 1.31
-6.88 -0.46 1.31
-6.84 -0.44 1.31
-6.73 -0.41 1.32
-2.41 -0.21 1.73
-6.80 -0.37 1.31
-3.27 -0.22 1.65
-6.56 -0.32 1.34
-3.02 -0.18 1.67
-6.37 -0.23 1.35
-9.86 -0.26 1.02
-9.29 -0.22 1.08
-7.97 -0.11 1.41
-8.45 -0.09 1.37
-7.92 -0.07 1.42
-8.16 -0.05 1.39
-11.07 -0.04 1.12
-11.01 -0.02 1.13
-9.41 0.00 0.99
-9.52 0.03 0.98
-11.90 0.17 0.74
-7.91 0.15 1.14
-11.72 0.31 0.76
-9.89 0.30 1.17
-12.98 0.42 0.86
-13.09 0.61 0.84
-13.41 0.66 0.81
-12.74 0.69 0.88
-12.73 0.72 0.88
-13.08 0.77 0.84
-13.09 0.80 0.84
-13.02 0.83 0.85
-13.42 0.89 0.81
-13.35 0.92 0.81
-13.87 0.98 0.76
-9.01 0.67 1.25
-8.92 0.71 1.26
-9.10 0.74 1.24
-13.40 1.12 0.80
-13.20 1.13 0.82
-9.24 0.85 1.22
-9.10 0.86 1.24
-13.19 1.26 0.82
-12.95 1.33 0.84
-4.37 0.49 1.71
-4.33 0.78 1.71
-3.55 1.06 1.77
-3.96 1.19 1.73
-3.88 1.19 1.74
-1.70 -1.33 1.77
-1.62 -1.23 1.78
-1.67 -1.22 1.77
-1.72 -1.22 1.77
-1.88 -1.11 1.75
-1.86 -0.97 1.76
-1.76 -0.94 1.77
-1.95 -0.94 1.75
-1.94 -0.90 1.75
-1.92 -0.88 1.75
-1.95 -0.86 1.75
-1.97 -0.82 1.75
-2.10 -0.82 1.73
-2.03 -0.80 1.74
-2.39 -0.85 1.71
-1.93 -0.74 1.75
-1.99 -0.74 1.75
-2.31 -0.78 1.71
-7.44 -1.59 1.20
-2.24 -0.74 1.72
-2.02 -0.69 1.74
-2.14 -0.68 1.73
-2.58 -0.71 1.69
-9.58 -1.54 0.98
-2.21 -0.44 1.72
-7.70 -0.93 1.17
-9.14 -1.04 1.03
-2.30 -0.41 1.71
-8.29 -0.91 1.11
-6.96 -0.75 1.24
-7.19 -0.75 1.22
-7.25 -0.73 1.22
-7.09 -0.70 1.23
-7.10 -0.67 1.23
-7.11 -0.65 1.23
-7.02 -0.62 1.24
-6.80 -0.59 1.26
-7.01 -0.58 1.24
-6.91 -0.55 1.25
-2.03 -0.25 1.74
-7.06 -0.51 1.23
-6.99 -0.49 1.24
-7.09 -0.47 1.23
-7.45 -0.47 1.19
-7.29 -0.44 1.21
-7.22 -0.41 1.22
-7.23 -0.39 1.22
-6.76 -0.35 1.26
-7.23 -0.34 1.22
-6.98 -0.31 1.24
-2.34 -0.15 1.71
-6.58 -0.25 1.28
-6.39 -0.23 1.30
-6.25 -0.20 1.31
-6.91 -0.20 1.25
-6.36 -0.17 1.30
-7.33 -0.16 1.20
-6.63 -0.13 1.27
-9.70 -0.14 0.96
-10.75 -0.12 0.86
-6.83 -0.06 1.25
-10.40 -0.06 0.89
-10.32 -0.03 0.90
-11.24 0.01 0.96
-11.28 0.04 0.95
-11.19 0.06 0.96
-10.95 0.09 0.99
-11.21 0.12 0.96
-10.82 0.17 1.00
-10.97 0.20 0.99
-10.22 0.23 1.07
-9.87 0.27 1.10
-9.73 0.29 1.12
-12.40 0.49 0.83
-12.65 0.56 0.80
-12.55 0.59 0.81
-13.21 0.71 0.74
-13.22 0.75 0.74
-4.43 0.27 1.68
-13.23 0.81 0.74
-8.75 0.57 1.22
-8.94 0.60 1.20
-12.64 0.87 0.80
-8.87 0.66 1.20
-9.06 0.70 1.18
-8.85 0.70 1.20
-8.89 0.73 1.20
-8.92 0.75 1.19
-13.13 1.13 0.74
-13.47 1.19 0.70
-8.88 0.84 1.20
-13.09 1.25 0.74
-12.48 1.26 0.81
-4.83 0.88 1.62
-4.55 0.84 1.65
-4.92 0.95 1.61
-5.03 0.98 1.60
-5.20 1.37 1.57
-4.87 1.33 1.60
-4.61 1.28 1.63
-4.95 1.45 1.59
-4.41 1.32 1.65
-4.64 1.60 1.61
-2.06 -1.34 1.70
-2.00 -1.01 1.71
-1.90 -0.96 1.72
-2.27 -1.02 1.68
-2.14 -0.89 1.70
-2.41 -0.87 1.67
-1.74 -0.54 1.74
-2.08 -0.58 1.71
-6.87 -0.88 1.19
-6.96 -0.87 1.18
-7.02 -0.85 1.18
-7.02 -0.80 1.18
-6.94 -0.78 1.18
-3.01 -0.44 1.61
-6.80 -0.72 1.20
-7.03 -0.72 1.18
-3.43 -0.43 1.56
-3.27 -0.41 1.58
-3.49 -0.41 1.55
-3.03 -0.36 1.60
-3.01 -0.35 1.61
-2.87 -0.33 1.62
-2.81 -0.31 1.63
-7.29 -0.55 1.15
-6.98 -0.51 1.18
-7.44 -0.51 1.13
-7.02 -0.45 1.17
-2.73 -0.23 1.63
-8.51 -0.47 1.02
-3.38 -0.23 1.56
-8.31 -0.41 1.04
-7.86 -0.28 1.32
-7.70 -0.26 1.34
-8.02 -0.25 1.30
-7.80 -0.22 1.33
-7.71 -0.18 1.34
-7.68 -0.16 1.34
-7.75 -0.14 1.33
-7.53 -0.12 1.36
-7.85 -0.11 1.32
-10.77 -0.12 1.01
-10.74 -0.09 1.01
-11.06 -0.04 0.98
-10.78 -0.02 1.01
-11.00 0.10 0.66
-11.12 0.16 0.64
-11.42 0.26 0.61
-11.72 0.54 0.57
-11.66 0.57 0.58
-12.72 0.72 0.71
-9.00 0.73 1.13
-13.03 1.08 0.67
-13.15 1.13 0.65
-13.06 1.18 0.66
-2.65 1.08 1.82
-2.05 1.66 1.84
-7.05 -0.72 1.11
-8.97 -0.81 0.89
-7.94 -0.59 1.01
-8.25 -0.58 0.98
-7.85 -0.49 1.02
-8.47 -0.31 0.95
-6.40 -0.19 1.18
-9.09 -0.22 0.88
-8.73 -0.16 0.92
-8.64 -0.13 0.93
-8.81 -0.10 0.91
-11.18 0.01 0.81
-9.64 0.13 1.00
-11.57 0.21 0.76
-9.45 0.19 1.02
-9.65 0.22 0.99
-9.75 0.27 0.98
-12.52 0.37 0.65
-12.22 0.39 0.68
-12.02 0.42 0.71
-12.32 0.49 0.67
-12.18 0.51 0.69
-12.22 0.63 0.68
-12.52 0.68 0.64
-12.48 0.71 0.65
-12.51 0.77 0.64
-12.55 0.80 0.64
-12.62 0.84 0.63
-12.87 0.88 0.60
-12.87 0.95 0.60
-9.14 0.70 1.05
-13.05 1.02 0.57
-8.88 0.73 1.08
-13.04 1.09 0.57
-13.23 1.13 0.55
-12.91 1.20 0.59
-12.49 1.19 0.64
-12.46 1.22 0.64
-12.34 1.24 0.65
-12.95 1.33 0.58
-13.06 1.67 0.56
-12.97 1.69 0.57
-1.47 -0.92 1.72
-1.55 -0.92 1.71
-1.59 -0.89 1.70
-6.63 -0.77 1.10
-7.04 -0.74 1.05
-9.16 -0.82 0.79
-6.75 -0.63 1.08
-8.21 -0.71 0.90
-8.50 -0.67 0.87
-8.07 -0.62 0.92
-8.10 -0.60 0.92
-7.93 -0.44 1.21
-7.78 -0.41 1.22
-8.66 -0.41 1.12
-7.88 -0.36 1.21
-7.93 -0.34 1.21
-7.78 -0.32 1.22
-7.81 -0.30 1.22
-7.48 -0.25 1.26
-10.56 -0.32 0.89
-7.95 -0.23 1.20
-9.99 -0.26 0.96
-10.73 -0.25 0.87
-10.17 -0.21 0.94
-10.14 -0.19 0.94
-10.33 -0.17 0.92
-10.57 -0.15 0.89
-10.65 -0.12 0.88
-10.23 -0.04 0.93
-10.63 -0.02 0.88
-10.69 0.00 0.51
-10.73 0.03 0.51
-7.80 0.05 0.88
-9.31 0.10 0.97
-11.36 0.17 0.71
-9.40 0.17 0.96
-9.60 0.19 0.93
-9.39 0.21 0.96
-9.17 0.25 0.99
-9.03 0.27 1.01
-9.07 0.32 1.00
-12.13 0.45 0.61
-12.53 0.62 0.56
-12.41 0.67 0.57
-12.28 0.69 0.59
-12.50 0.74 0.56
-13.03 0.80 0.49
-9.01 0.58 1.00
-12.62 0.83 0.54
-12.47 0.86 0.56
-12.53 0.92 0.55
-8.74 0.67 1.03
-8.71 0.69 1.04
-8.78 0.72 1.03
-8.85 0.74 1.02
-8.85 0.77 1.02
-13.07 1.15 0.48
-13.30 1.24 0.45
-12.45 1.19 0.56
-12.34 1.21 0.57
-12.45 1.25 0.55
-12.47 1.28 0.55
-12.63 1.33 0.53
-12.57 1.35 0.54
-12.40 1.40 0.56
-12.59 1.45 0.53
-12.50 1.47 0.54
-12.47 1.50 0.55
-12.36 1.51 0.56
-12.64 1.58 0.52
-3.60 1.10 1.66
-1.40 -1.26 1.70
-1.36 -1.23 1.70
-1.47 -1.20 1.69
-1.51 -1.18 1.68
-1.32 -1.11 1.71
-1.67 -1.11 1.66
-1.53 -1.04 1.68
-1.49 -1.01 1.69
-1.63 -0.98 1.67
-1.75 -1.00 1.66
-1.81 -0.99 1.65
-1.59 -0.93 1.68
-1.67 -0.87 1.67
-1.78 -0.89 1.65
-1.71 -0.86 1.66
-1.80 -0.86 1.65
-2.24 -0.87 1.59
-1.79 -0.76 1.65
-1.86 -0.76 1.64
-7.37 -1.68 0.94
-7.14 -1.61 0.97
-7.12 -1.59 0.97
-7.19 -1.58 0.96
-7.41 -1.57 0.93
-7.24 -1.52 0.96
-7.11 -1.47 0.97
-7.19 -1.46 0.96
-7.26 -1.45 0.95
-6.96 -1.29 0.99
-2.25 -0.60 1.60
-6.92 -1.02 1.00
-4.84 -0.65 1.26
-6.50 -0.76 1.05
-6.56 -0.74 1.05
-7.00 -0.74 0.99
-7.38 -0.74 0.94
-7.45 -0.73 0.93
-7.02 -0.67 0.99
-7.57 -0.66 0.92
-7.74 -0.65 0.89
-7.26 -0.60 0.96
-7.47 -0.59 0.93
-7.79 -0.58 0.89
-7.62 -0.55 0.91
-8.49 -0.57 0.80
-8.26 -0.53 0.83
-8.46 -0.49 0.80
-2.31 -0.20 1.58
-8.33 -0.43 0.82
-7.08 -0.36 0.98
-7.41 -0.35 0.93
-8.83 -0.37 0.75
-6.43 -0.25 1.06
-6.83 -0.24 1.01
-6.70 -0.22 1.02
-8.58 -0.23 0.78
-8.60 -0.21 0.78
-8.79 -0.19 0.76
-8.69 -0.16 0.77
-8.78 -0.13 0.76
-8.79 0.01 0.97
-9.04 0.03 0.94
-8.91 0.05 0.96
-8.88 0.07 0.96
-9.50 0.10 0.88
-9.19 0.12 0.92
-9.05 0.14 0.94
-9.33 0.17 0.90
-9.44 0.19 0.88
-9.10 0.21 0.93
-9.22 0.23 0.91
-9.47 0.26 0.88
-9.26 0.28 0.91
-9.32 0.30 0.90
-9.35 0.33 0.89
-9.49 0.35 0.88
-9.38 0.37 0.89
-6.76 0.29 1.24
-9.66 0.43 0.85
-12.06 0.62 0.53
-9.16 0.50 0.92
-8.41 0.48 1.02
-12.47 0.73 0.47
-9.07 0.56 0.93
-8.83 0.57 0.96
-8.94 0.60 0.94
-8.82 0.61 0.96
-8.81 0.63 0.96
-8.73 0.65 0.97
-8.79 0.67 0.96
-6.17 0.50 1.32
-6.65 0.55 1.25
-6.47 0.55 1.27
-6.45 0.56 1.28
-6.36 0.57 1.29
-6.27 0.58 1.30
-6.51 0.62 1.27
-12.80 1.22 0.42
-12.28 1.20 0.49
-12.62 1.27 0.44
-12.78 1.31 0.42
-12.62 1.33 0.44
-12.77 1.37 0.42
-12.67 1.40 0.43
-12.51 1.41 0.45
-12.84 1.48 0.40
-12.80 1.50 0.41
-12.59 1.51 0.44
-12.78 1.56 0.41
-12.74 1.59 0.41
-12.72 1.62 0.42
-12.70 1.65 0.42
-4.93 1.10 1.46
-4.16 1.27 1.55
-3.99 1.24 1.57
-4.60 1.48 1.48
-4.96 1.65 1.43
-1.74 -1.16 1.62
-1.87 -1.01 1.61
-1.78 -0.91 1.62
-1.85 -0.91 1.61
-2.14 -0.96 1.57
-1.84 -0.88 1.61
-2.03 -0.91 1.59
-1.95 -0.87 1.60
-2.17 -0.86 1.57
-7.42 -1.69 0.86
-7.42 -1.66 0.86
-7.04 -1.58 0.91
-7.13 -1.57 0.90
-6.93 -1.51 0.93
-7.18 -1.53 0.89
-7.28 -1.52 0.88
-7.03 -1.46 0.91
-7.15 -1.46 0.90
-7.12 -1.43 0.90
-7.28 -1.43 0.88
-6.99 -1.36 0.92
-6.82 -1.30 0.94
-4.38 -0.94 1.27
-4.55 -0.89 1.25
-4.72 -0.90 1.23
-4.71 -0.88 1.23
-2.30 -0.53 1.55
-2.57 -0.53 1.52
-4.81 -0.75 1.22
-4.68 -0.62 1.23
-5.18 -0.65 1.17
-6.49 -0.74 0.99
-2.77 -0.42 1.49
-6.86 -0.73 0.94
-9.58 -0.88 0.57
-6.59 -0.64 0.98
-4.38 -0.47 1.27
-4.33 -0.45 1.28
-4.22 -0.43 1.29
-6.95 -0.58 0.93
-4.05 -0.38 1.32
-3.95 -0.36 1.33
-6.56 -0.49 0.98
-6.52 -0.47 0.98
-6.65 -0.45 0.97
-3.68 -0.29 1.37
-6.98 -0.42 0.92
-7.78 -0.44 0.81
-8.03 -0.42 0.78
-6.43 -0.34 0.99
-6.45 -0.32 0.99
-6.69 -0.30 0.96
-6.40 -0.27 1.00
-8.64 -0.32 0.70
-6.34 -0.23 1.01
-6.46 -0.21 0.99
-3.23 -0.12 1.42
-8.32 -0.20 0.74
-3.31 -0.10 1.41
-9.83 -0.14 0.83
-10.26 -0.12 0.78
-10.04 -0.09 0.81
-10.31 -0.07 0.77
-10.34 -0.04 0.77
-9.11 -0.01 0.93
-3.22 -0.00 1.39
-3.33 0.03 1.37
-7.90 0.10 0.72
-8.12 0.12 0.69
-8.26 0.15 0.67
-8.46 0.18 0.64
-8.21 0.20 0.67
-8.69 0.26 0.60
-9.35 0.28 0.83
-9.50 0.33 0.81
-11.88 0.44 0.47
-11.95 0.47 0.46
-12.07 0.50 0.44
-12.24 0.54 0.41
-8.83 0.44 0.90
-12.10 0.65 0.43
-8.81 0.50 0.90
-8.92 0.53 0.88
-8.95 0.55 0.88
-8.87 0.57 0.89
-8.96 0.62 0.88
-12.85 0.94 0.32
-6.43 0.50 1.23
-12.92 1.01 0.31
-12.79 1.03 0.33
-12.89 1.07 0.31
-12.90 1.13 0.31
-13.00 1.21 0.30
-12.33 1.18 0.39
-12.52 1.22 0.36
-12.53 1.26 0.36
-12.74 1.31 0.33
-12.57 1.35 0.35
-12.50 1.41 0.36
-12.47 1.43 0.36
-12.94 1.52 0.30
-12.70 1.52 0.33
-12.77 1.56 0.32
-12.82 1.63 0.31
-12.65 1.64 0.33
-12.47 1.68 0.36
-3.55 1.07 1.61
-1.46 -1.13 1.63
-1.44 -1.11 1.64
-1.58 -1.13 1.62
-1.48 -1.09 1.63
-1.31 -0.99 1.66
-1.62 -0.98 1.62
-1.63 -0.92 1.61
-1.61 -0.88 1.62
-1.88 -0.84 1.58
-7.02 -1.69 0.85
-1.76 -0.73 1.60
-7.11 -1.66 0.83
-7.05 -1.62 0.84
-6.97 -1.56 0.85
-7.08 -1.54 0.84
-7.05 -1.51 0.84
-6.91 -1.46 0.86
-7.06 -1.46 0.84
-6.86 -1.41 0.87
-7.04 -1.39 0.85
-6.93 -1.33 0.86
-4.58 -0.98 1.20
-6.61 -1.24 0.91
-6.54 -1.21 0.92
-4.57 -0.93 1.20
-4.65 -0.90 1.19
-4.61 -0.87 1.19
-4.83 -0.88 1.16
-4.71 -0.84 1.18
-4.80 -0.84 1.17
-4.70 -0.81 1.18
-6.19 -0.94 0.97
-10.03 -1.24 0.42
-9.79 -1.19 0.46
-9.85 -1.16 0.45
-4.73 -0.64 1.18
-6.09 -0.71 0.98
-6.03 -0.68 0.99
-6.42 -0.67 0.94
-6.71 -0.65 0.89
-6.63 -0.60 0.91
-6.77 -0.59 0.89
-7.44 -0.61 0.79
-6.66 -0.54 0.90
-7.82 -0.58 0.74
-6.82 -0.48 0.88
-7.79 -0.48 0.74
-7.38 -0.44 0.80
-7.37 -0.42 0.80
-6.48 -0.36 0.93
-6.49 -0.34 0.92
-5.94 -0.28 1.00
-6.36 -0.25 0.94
-6.08 -0.22 0.98
-6.29 -0.21 0.95
-3.09 -0.12 1.41
-8.73 -0.21 0.61
-8.83 -0.16 0.59
-7.92 -0.10 0.72
-7.70 -0.07 0.75
-7.74 -0.05 0.74
-7.68 -0.03 0.75
-6.99 0.01 1.11
-9.72 0.03 0.70
-11.15 0.06 0.49
-9.66 0.08 0.71
-7.32 0.08 1.06
-9.11 0.12 0.79
-8.94 0.14 0.81
-8.89 0.16 0.82
-9.17 0.19 0.78
-9.24 0.21 0.77
-9.24 0.23 0.77
-9.29 0.26 0.76
-9.08 0.27 0.79
-9.17 0.30 0.78
-9.22 0.32 0.77
-9.22 0.34 0.77
-9.42 0.37 0.74
-12.10 0.51 0.34
-9.16 0.41 0.78
-12.04 0.56 0.35
-8.77 0.43 0.83
-8.86 0.46 0.82
-8.62 0.47 0.86
-8.83 0.50 0.82
-8.68 0.52 0.85
-8.78 0.54 0.83
-8.89 0.57 0.81
-6.67 0.45 1.14
-6.37 0.45 1.19
-6.70 0.49 1.14
-6.21 0.47 1.21
-6.27 0.49 1.20
-6.38 0.51 1.19
-6.16 0.51 1.22
-6.25 0.53 1.21
-6.03 0.53 1.24
-6.13 0.55 1.22
-6.24 0.58 1.21
-6.14 0.58 1.22
-6.16 0.60 1.22
-6.01 0.60 1.24
-12.49 1.25 0.26
-12.68 1.30 0.23
-12.43 1.31 0.27
-6.39 0.70 1.18
-6.33 0.71 1.19
-12.83 1.44 0.21
-12.80 1.47 0.21
-12.60 1.48 0.24
-12.85 1.57 0.20
-12.75 1.62 0.22
-12.36 1.60 0.27
-12.67 1.68 0.23
-12.51 1.69 0.25
-5.82 1.41 1.24
-4.09 1.05 1.50
-3.96 1.14 1.51
-2.08 -0.95 1.51
-2.20 -0.95 1.50
-2.16 -0.93 1.50
-2.15 -0.91 1.50
-2.17 -0.91 1.50
-7.02 -1.69 0.77
-6.83 -1.63 0.80
-6.80 -1.61 0.80
-6.69 -1.56 0.82
-6.74 -1.55 0.81
-6.69 -1.52 0.82
-6.79 -1.51 0.81
-6.48 -1.44 0.85
-6.69 -1.46 0.82
-6.67 -1.43 0.82
-6.83 -1.43 0.80
-6.59 -1.37 0.84
-6.79 -1.38 0.81
-6.56 -1.33 0.84
-6.60 -1.31 0.84
-6.64 -1.29 0.83
-4.72 -1.00 1.12
-4.68 -0.98 1.13
-6.70 -1.24 0.82
-4.67 -0.94 1.13
-4.71 -0.93 1.12
-4.55 -0.89 1.15
-4.60 -0.89 1.14
-4.60 -0.87 1.14
-4.67 -0.86 1.13
-4.68 -0.84 1.13
-4.56 -0.81 1.14
-4.55 -0.80 1.15
-4.63 -0.79 1.13
-4.64 -0.77 1.13
-4.68 -0.76 1.13
-4.62 -0.74 1.13
-4.64 -0.72 1.13
-4.63 -0.70 1.13
-2.23 -0.45 1.49
-4.60 -0.67 1.14
-4.61 -0.65 1.14
-4.53 -0.63 1.15
-4.66 -0.62 1.13
-4.75 -0.61 1.12
-5.03 -0.62 1.07
-4.61 -0.57 1.14
-4.51 -0.54 1.15
-4.72 -0.54 1.12
-6.32 -0.64 0.88
-4.44 -0.49 1.16
-4.30 -0.46 1.18
-4.35 -0.45 1.17
-4.53 -0.45 1.15
-4.54 -0.43 1.15
-4.32 -0.40 1.18
-3.87 -0.36 1.25
-6.73 -0.50 0.82
-4.01 -0.34 1.23
-3.62 -0.30 1.28
-3.88 -0.30 1.24
-3.91 -0.29 1.24
-4.08 -0.28 1.21
-3.80 -0.25 1.26
-3.62 -0.23 1.28
-3.61 -0.22 1.28
-8.45 -0.28 0.89
-8.34 -0.26 0.91
-10.03 -0.29 0.66
-8.28 -0.22 0.92
-9.68 -0.23 0.71
-9.95 -0.21 0.67
-10.07 -0.19 0.65
-10.12 -0.17 0.64
-9.99 -0.14 0.66
-10.22 -0.12 0.63
-10.35 -0.09 0.61
-10.34 -0.07 0.61
-9.73 -0.04 0.70
-10.67 -0.02 0.56
-7.80 0.05 0.58
-7.88 0.07 0.57
-8.09 0.10 0.54
-8.13 0.12 0.53
-8.11 0.15 0.53
-8.30 0.18 0.50
-8.27 0.20 0.51
-8.39 0.23 0.49
-8.20 0.25 0.52
-7.78 0.34 0.58
-8.18 0.37 0.52
-7.85 0.39 0.57
-8.15 0.45 0.52
-7.98 0.47 0.55
-12.12 0.59 0.25
-12.34 0.63 0.21
-9.46 0.53 0.66
-8.81 0.52 0.76
-8.84 0.57 0.76
-9.14 0.61 0.71
-8.94 0.62 0.74
-9.03 0.64 0.73
-9.12 0.67 0.71
-8.79 0.67 0.76
-3.15 0.95 1.62
-3.33 1.00 1.59
-3.24 0.99 1.60
-3.25 1.04 1.60
-1.01 -1.28 1.64
-0.98 -1.25 1.65
-0.80 -1.08 1.68
-1.43 -1.06 1.58
-1.07 -0.93 1.64
-1.30 -0.97 1.61
-1.71 -1.06 1.54
-1.20 -0.91 1.62
-1.54 -0.97 1.57
-1.08 -0.84 1.64
-1.30 -0.86 1.61
-1.35 -0.85 1.60
-1.10 -0.79 1.64
-1.48 -0.87 1.58
-1.41 -0.84 1.59
-1.71 -0.90 1.54
-1.53 -0.85 1.57
-1.40 -0.81 1.59
-1.78 -0.82 1.53
-6.96 -1.67 0.72
-7.15 -1.69 0.68
-6.79 -1.60 0.74
-6.76 -1.57 0.75
-7.03 -1.57 0.71
-6.67 -1.49 0.76
-7.03 -1.53 0.71
-6.67 -1.43 0.76
-6.99 -1.45 0.71
-6.63 -1.35 0.77
-1.65 -0.59 1.55
-6.68 -1.32 0.76
-1.94 -0.62 1.51
-4.57 -0.91 1.10
-4.61 -0.90 1.09
-4.67 -0.89 1.08
-4.71 -0.88 1.07
-4.63 -0.85 1.09
-4.50 -0.82 1.11
-4.53 -0.81 1.10
-4.67 -0.81 1.08
-4.82 -0.81 1.06
-4.53 -0.76 1.10
-4.70 -0.76 1.08
-4.70 -0.74 1.07
-10.05 -1.27 0.24
-9.95 -1.23 0.25
-9.68 -1.15 0.29
-9.63 -1.11 0.30
-9.69 -1.09 0.29
-9.89 -1.08 0.26
-6.59 -0.71 0.78
-6.48 -0.68 0.80
-6.44 -0.65 0.80
-6.48 -0.63 0.80
-6.88 -0.64 0.73
-6.71 -0.61 0.76
-7.18 -0.62 0.69
-6.78 -0.57 0.75
-6.63 -0.54 0.77
-7.09 -0.54 0.70
-7.45 -0.54 0.64
-7.63 -0.53 0.62
-6.64 -0.45 0.77
-6.20 -0.39 0.84
-8.80 -0.45 0.43
-8.70 -0.42 0.45
-6.37 -0.29 0.81
-9.30 -0.36 0.35
-8.98 -0.33 0.40
-8.95 -0.30 0.41
-9.01 -0.25 0.40
-9.26 -0.22 0.36
-9.49 -0.20 0.32
-10.04 0.03 0.49
-11.13 0.09 0.31
-9.15 0.09 0.64
-8.99 0.11 0.66
-9.11 0.14 0.64
-9.20 0.16 0.63
-9.16 0.21 0.64
-9.17 0.23 0.63
-9.04 0.25 0.65
-9.22 0.28 0.63
-8.87 0.29 0.68
-9.00 0.31 0.66
-9.22 0.34 0.62
-9.28 0.39 0.61
-9.02 0.40 0.66
-8.71 0.41 0.71
-5.78 0.29 1.19
-8.64 0.45 0.72
-6.01 0.33 1.15
-6.06 0.35 1.14
-8.78 0.54 0.69
-8.97 0.58 0.66
-9.01 0.60 0.65
-9.06 0.63 0.64
-6.03 0.44 1.14
-9.00 0.67 0.65
-8.90 0.70 0.67
-8.68 0.71 0.70
-8.66 0.77 0.71
-6.23 0.62 1.10
-3.66 0.99 1.50
-3.79 1.06 1.48
-3.38 0.99 1.55
-3.19 0.95 1.58
-3.65 1.08 1.50
-3.48 1.18 1.52
-1.58 -0.92 1.52
-1.66 -0.91 1.51
-1.70 -0.85 1.51
-6.87 -1.66 0.65
-7.25 -1.69 0.59
-7.05 -1.61 0.62
-6.94 -1.56 0.64
-6.54 -1.45 0.71
-6.20 -1.38 0.76
-6.61 -1.40 0.69
-6.46 -1.31 0.72
-6.69 -1.32 0.68
-6.55 -1.28 0.71
-6.74 -1.29 0.67
-6.19 -1.09 0.77
-6.24 -1.07 0.76
-6.42 -1.07 0.73
-4.88 -0.85 0.98
-4.82 -0.83 0.99
-4.82 -0.79 0.99
-4.69 -0.76 1.01
-4.63 -0.74 1.02
-4.62 -0.72 1.03
-4.59 -0.68 1.03
-1.91 -0.41 1.47
-4.60 -0.64 1.03
-4.69 -0.63 1.01
-4.54 -0.60 1.04
-6.56 -0.75 0.71
-4.47 -0.54 1.05
-4.50 -0.51 1.05
-6.58 -0.64 0.70
-6.79 -0.64 0.67
-6.57 -0.60 0.70
-6.38 -0.57 0.74
-3.96 -0.38 1.13
-4.16 -0.36 1.10
-8.62 -0.44 0.73
-9.17 -0.44 0.64
-9.56 -0.44 0.58
-9.66 -0.42 0.56
-9.26 -0.38 0.63
-8.35 -0.30 0.77
-8.16 -0.25 0.81
-7.91 -0.23 0.85
-9.54 -0.25 0.58
-9.28 -0.22 0.62
-10.52 -0.22 0.42
-9.94 -0.16 0.51
-10.23 -0.12 0.46
-10.43 -0.10 0.43
-10.51 -0.07 0.42
-10.58 -0.05 0.41
-10.17 -0.02 0.47
-3.47 -0.00 1.17
-4.28 0.01 1.03
-4.56 0.03 0.98
-9.13 0.07 0.57
-9.04 0.09 0.58
-9.05 0.11 0.58
-9.06 0.14 0.58
-9.06 0.16 0.58
-9.08 0.18 0.58
-8.99 0.20 0.59
-9.10 0.23 0.57
-4.38 0.12 1.39
-8.99 0.27 0.59
-9.01 0.29 0.59
-9.15 0.32 0.56
-8.95 0.33 0.60
-8.98 0.35 0.59
-8.72 0.37 0.63
-8.72 0.39 0.63
-9.17 0.43 0.56
-8.74 0.43 0.63
-8.74 0.45 0.63
-8.71 0.47 0.64
-8.71 0.49 0.63
-5.77 0.35 1.14
-5.66 0.35 1.16
-8.94 0.57 0.59
-9.26 0.61 0.54
-8.90 0.61 0.60
-8.99 0.64 0.58
-8.95 0.66 0.59
-9.01 0.69 0.58
-6.04 0.48 1.09
-5.99 0.49 1.10
-6.07 0.52 1.09
-5.90 0.52 1.12
-8.77 0.78 0.62
-5.72 0.53 1.15
-5.03 0.50 1.26
-5.77 0.58 1.13
-5.59 0.57 1.17
-5.90 0.62 1.11
-5.96 0.64 1.10
-5.88 0.65 1.11
-5.46 0.62 1.19
-5.99 0.71 1.09
-5.53 0.67 1.17
-5.28 0.65 1.22
-5.59 0.70 1.16
-5.49 0.72 1.18
-5.68 0.76 1.14
-5.18 0.71 1.23
-5.16 0.72 1.23
-5.12 0.74 1.24
-5.26 0.77 1.21
-5.15 0.80 1.23
-5.31 0.83 1.20
-3.85 1.03 1.44
-3.33 0.91 1.53
-3.57 0.98 1.49
-3.38 0.94 1.52
-3.23 0.92 1.55
-3.35 0.96 1.52
-3.40 0.98 1.51
-3.23 0.94 1.54
-3.41 1.00 1.51
-3.49 1.03 1.50
-3.50 1.04 1.49
-3.51 1.06 1.49
-3.84 1.16 1.43
-3.50 1.07 1.49
-3.55 1.10 1.48
-3.36 1.05 1.52
-3.43 1.08 1.50
-3.46 1.10 1.50
-3.57 1.14 1.48
-3.80 1.22 1.43
-2.98 0.99 1.58
-3.35 1.11 1.51
-0.97 -1.34 1.59
-1.04 -1.34 1.58
-1.25 -1.39 1.54
-0.88 -1.20 1.61
-0.99 -1.23 1.59
-1.09 -1.24 1.57
-1.08 -1.22 1.57
-1.62 -1.28 1.48
-1.55 -1.18 1.49
-1.40 -1.11 1.52
-1.58 -1.15 1.49
-1.47 -1.11 1.51
-1.32 -1.06 1.54
-1.33 -1.05 1.54
-1.41 -1.07 1.52
-1.62 -1.11 1.48
-1.43 -1.04 1.52
-1.57 -1.07 1.50
-1.28 -0.98 1.55
-1.44 -1.01 1.52
-1.48 -1.01 1.51
-1.51 -1.01 1.51
-1.25 -0.93 1.55
-1.29 -0.93 1.55
-1.45 -0.92 1.52
-1.34 -0.88 1.54
-1.50 -0.88 1.51
-1.61 -0.89 1.49
-1.57 -0.86 1.50
-1.63 -0.86 1.49
-1.80 -0.89 1.46
-1.73 -0.87 1.47
-1.54 -0.82 1.50
-1.60 -0.82 1.49
-1.74 -0.84 1.47
-1.71 -0.82 1.48
-1.49 -0.77 1.51
-1.29 -0.71 1.55
-1.66 -0.76 1.48
-1.58 -0.74 1.50
-6.52 -1.64 0.64
-6.77 -1.67 0.59
-6.61 -1.62 0.62
-1.94 -0.76 1.44
-1.88 -0.74 1.45
-1.67 -0.70 1.48
-1.44 -0.65 1.52
-5.81 -1.37 0.76
-1.56 -0.65 1.50
-6.26 -1.41 0.68
-6.11 -1.36 0.71
-1.65 -0.64 1.49
-5.66 -1.25 0.79
-1.84 -0.65 1.45
-1.69 -0.61 1.48
-2.17 -0.68 1.40
-2.13 -0.66 1.40
-2.14 -0.65 1.40
-2.03 -0.62 1.42
-2.13 -0.63 1.40
-2.30 -0.64 1.37
-2.27 -0.62 1.38
-2.35 -0.62 1.36
-6.19 -1.08 0.70
-6.12 -1.06 0.71
-4.64 -0.86 0.97
-4.90 -0.87 0.92
-4.66 -0.82 0.97
-5.07 -0.86 0.89
-4.65 -0.79 0.97
-4.65 -0.77 0.97
-4.71 -0.76 0.96
-4.55 -0.73 0.99
-4.64 -0.72 0.97
-4.68 -0.71 0.96
-4.51 -0.68 0.99
-4.60 -0.67 0.98
-4.48 -0.64 1.00
-4.49 -0.62 0.99
-4.60 -0.62 0.98
-4.42 -0.59 1.01
-4.51 -0.58 0.99
-4.51 -0.56 0.99
-4.47 -0.54 1.00
-6.38 -0.67 0.67
-6.84 -0.68 0.59
-7.01 -0.67 0.56
-6.79 -0.64 0.60
-6.66 -0.61 0.62
-4.17 -0.42 1.05
-4.11 -0.41 1.06
-3.67 -0.36 1.14
-3.87 -0.36 1.10
-3.42 -0.32 1.18
-7.67 -0.53 0.44
-7.46 -0.49 0.48
-5.60 -0.38 0.80
-5.59 -0.36 0.80
-8.22 -0.46 0.35
-3.25 -0.23 1.21
-3.67 -0.23 1.14
-3.54 -0.21 1.16
-3.34 -0.19 1.19
-5.53 -0.25 0.81
-3.42 -0.17 1.18
-3.25 -0.15 1.21
-3.35 -0.14 1.19
-3.30 -0.12 1.20
-3.17 -0.11 1.22
-3.38 -0.10 1.18
-3.17 -0.08 1.22
-7.86 -0.13 0.41
-3.23 -0.06 1.21
-3.36 -0.04 1.19
-3.42 -0.03 1.17
-3.47 -0.02 1.17
-8.11 0.00 0.68
-8.27 0.02 0.65
-8.62 0.05 0.59
-8.83 0.07 0.55
-8.95 0.09 0.53
-8.79 0.11 0.55
-9.01 0.14 0.51
-8.94 0.16 0.53
-8.70 0.17 0.57
-8.79 0.20 0.55
-8.91 0.22 0.53
-8.54 0.23 0.60
-5.98 0.18 1.06
-5.40 0.18 1.16
-5.76 0.20 1.10
-5.40 0.21 1.16
-5.79 0.23 1.09
-5.69 0.24 1.11
-6.45 0.29 0.97
-5.84 0.28 1.08
-5.83 0.29 1.08
-5.87 0.31 1.07
-5.97 0.33 1.06
-5.88 0.34 1.07
-5.97 0.36 1.06
-6.04 0.38 1.04
-5.91 0.38 1.07
-5.92 0.40 1.06
-5.88 0.41 1.07
-5.81 0.42 1.08
-5.88 0.44 1.07
-6.05 0.47 1.04
-5.95 0.48 1.06
-5.96 0.49 1.05
-5.95 0.51 1.06
-5.99 0.52 1.05
-5.99 0.54 1.05
-6.09 0.56 1.03
-6.07 0.58 1.03
-6.02 0.59 1.04
-6.12 0.61 1.02
-6.09 0.62 1.03
-6.17 0.65 1.01
-6.11 0.66 1.02
-6.12 0.67 1.02
-6.14 0.69 1.01
-6.21 0.71 1.00
-6.08 0.72 1.03
-5.66 0.68 1.10
-5.41 0.67 1.15
-5.96 0.75 1.05
-5.88 0.75 1.06
-5.80 0.76 1.07
-6.05 0.80 1.03
-5.71 0.78 1.09
-5.83 0.81 1.07
-5.66 0.80 1.10
-5.70 0.82 1.09
-5.67 0.83 1.09
-5.52 0.82 1.12
-6.16 0.93 1.00
-6.44 1.00 0.95
-6.66 1.05 0.91
-5.34 0.86 1.15
-5.47 0.90 1.13
-5.71 0.95 1.08
-5.32 0.94 1.15
-5.73 1.16 1.07
-4.38 1.06 1.31
-4.59 1.19 1.26
-4.14 1.09 1.35
-4.72 1.26 1.24
-5.33 1.46 1.12
-4.47 1.27 1.28
-4.39 1.26 1.29
-3.99 1.18 1.37
-3.77 1.15 1.41
-1.90 -0.87 1.40
-6.29 -1.67 0.60
-6.27 -1.64 0.61
-6.31 -1.63 0.60
-6.37 -1.62 0.59
-6.44 -1.61 0.58
-6.56 -1.61 0.56
-6.31 -1.54 0.60
-2.89 -0.92 1.23
-2.23 -0.80 1.35
-5.97 -1.42 0.66
-5.63 -1.34 0.73
-5.68 -1.33 0.72
-5.70 -1.32 0.71
-2.48 -0.78 1.30
-2.42 -0.76 1.31
-5.58 -1.24 0.74
-5.46 -1.20 0.76
-6.59 -1.35 0.55
-5.17 -1.12 0.81
-6.51 -1.30 0.57
-5.09 -1.07 0.83
-5.92 -1.17 0.68
-5.47 -1.09 0.76
-5.18 -1.03 0.81
-5.58 -1.07 0.74
-5.28 -1.01 0.79
-4.83 -0.93 0.88
-4.75 -0.91 0.89
-5.71 -1.01 0.72
-4.92 -0.89 0.86
-4.78 -0.86 0.88
-6.38 -1.03 0.59
-4.72 -0.82 0.90
-4.69 -0.80 0.90
-4.64 -0.77 0.91
-4.92 -0.79 0.86
-6.32 -0.92 0.61
-4.75 -0.73 0.89
-4.70 -0.71 0.90
-4.47 -0.67 0.94
-4.42 -0.65 0.95
-4.49 -0.64 0.94
-4.50 -0.63 0.94
-4.48 -0.61 0.94
-4.58 -0.60 0.92
-4.57 -0.58 0.92
-4.47 -0.56 0.94
-4.54 -0.55 0.93
-4.50 -0.53 0.94
-4.72 -0.53 0.90
-6.01 -0.60 0.66
-4.22 -0.46 0.99
-4.03 -0.43 1.02
-3.99 -0.41 1.03
-4.00 -0.40 1.03
-4.26 -0.40 0.98
-7.35 -0.56 0.42
-3.94 -0.35 1.04
-7.76 -0.53 0.34
-7.61 -0.50 0.37
-5.41 -0.37 0.77
-3.81 -0.28 1.06
-3.74 -0.27 1.07
-3.62 -0.25 1.09
-5.38 -0.30 0.78
-3.43 -0.21 1.13
-5.51 -0.27 0.75
-3.45 -0.18 1.12
-3.41 -0.17 1.13
-3.21 -0.15 1.17
-3.53 -0.14 1.11
-3.34 -0.13 1.14
-3.64 -0.12 1.09
-3.60 -0.10 1.10
-8.36 -0.12 0.63
-7.81 -0.09 0.73
-10.42 -0.10 0.26
-8.21 -0.06 0.66
-8.07 -0.04 0.69
-8.05 -0.02 0.69
-3.73 -0.00 1.02
-3.93 0.01 0.98
-3.95 0.03 0.98
-4.00 0.04 0.97
-4.01 0.06 0.97
-4.01 0.09 0.96
-3.85 0.10 0.99
-4.13 0.12 0.94
-3.82 0.13 1.00
-4.36 0.16 0.90
-5.37 0.15 1.12
-8.80 0.26 0.47
-5.56 0.18 1.09
-5.58 0.21 1.08
-5.71 0.23 1.06
-5.53 0.24 1.09
-5.62 0.25 1.07
-5.59 0.27 1.08
-5.60 0.28 1.07
-5.54 0.29 1.09
-5.77 0.33 1.04
-5.68 0.34 1.06
-5.80 0.36 1.04
-5.95 0.39 1.01
-5.89 0.40 1.02
-5.77 0.40 1.04
-5.72 0.43 1.05
-5.94 0.46 1.01
-5.71 0.46 1.05
-5.87 0.48 1.02
-5.87 0.50 1.02
-8.81 0.76 0.46
-5.87 0.53 1.02
-5.69 0.54 1.05
-5.53 0.60 1.08
-5.75 0.63 1.04
-6.06 0.70 0.98
-5.95 0.70 1.00
-5.70 0.69 1.04
-5.58 0.68 1.07
-5.24 0.66 1.13
-5.30 0.68 1.12
-5.03 0.66 1.17
-4.71 0.65 1.23
-4.40 0.62 1.29
-3.68 0.88 1.41
-3.89 1.01 1.36
-3.56 0.94 1.43
-3.51 0.94 1.43
-3.24 0.89 1.49
-3.45 0.95 1.44
-3.54 0.98 1.43
-3.50 0.98 1.43
-3.51 0.99 1.43
-3.33 0.96 1.47
-3.71 1.08 1.39
-3.43 1.01 1.44
-3.30 0.99 1.47
-3.28 0.99 1.47
-3.29 1.00 1.47
-3.38 1.04 1.45
-3.27 1.02 1.47
-3.26 1.03 1.47
-3.32 1.06 1.46
-2.94 0.98 1.53
-3.16 1.08 1.49
-2.83 1.20 1.53
-1.17 -1.34 1.49
-1.08 -1.29 1.51
-1.05 -1.26 1.52
-1.26 -1.10 1.49
-1.59 -1.19 1.42
-1.46 -1.12 1.45
-1.62 -1.14 1.42
-1.17 -1.00 1.51
-1.48 -1.08 1.44
-1.59 -1.08 1.42
-1.47 -0.98 1.45
-1.63 -0.93 1.42
-1.63 -0.90 1.42
-1.78 -0.92 1.39
-1.37 -0.82 1.47
-1.30 -0.79 1.48
-1.52 -0.82 1.44
-1.80 -0.87 1.39
-1.73 -0.84 1.40
-6.40 -1.68 0.51
-6.24 -1.63 0.54
-6.08 -1.58 0.57
-6.24 -1.59 0.54
-1.63 -0.73 1.42
-1.69 -0.72 1.41
-1.73 -0.72 1.40
-1.60 -0.68 1.43
-6.48 -1.51 0.50
-1.85 -0.71 1.38
-1.76 -0.68 1.40
-1.88 -0.69 1.38
-1.84 -0.67 1.38
-1.80 -0.65 1.39
-1.91 -0.66 1.37
-1.77 -0.62 1.40
-6.32 -1.29 0.53
-6.17 -1.25 0.56
-1.80 -0.60 1.39
-2.36 -0.66 1.28
-2.25 -0.63 1.31
-2.00 -0.59 1.35
-2.16 -0.60 1.32
-4.62 -0.90 0.85
-5.02 -0.94 0.78
-2.18 -0.56 1.32
-2.00 -0.52 1.35
-1.81 -0.49 1.39
-4.40 -0.78 0.90
-4.21 -0.74 0.93
-4.30 -0.73 0.92
-4.45 -0.72 0.89
-4.37 -0.68 0.90
-4.39 -0.66 0.90
-4.79 -0.69 0.82
-6.00 -0.78 0.59
-4.51 -0.63 0.88
-4.39 -0.60 0.90
-7.06 -0.79 0.39
-2.03 -0.36 1.35
-4.24 -0.52 0.93
-4.07 -0.48 0.96
-3.79 -0.44 1.01
-6.95 -0.65 0.41
-7.11 -0.64 0.38
-3.27 -0.35 1.11
-2.10 -0.27 1.33
-3.58 -0.34 1.05
-3.49 -0.31 1.07
-3.37 -0.29 1.09
-2.79 -0.25 1.20
-2.48 -0.21 1.26
-2.32 -0.19 1.29
-2.28 -0.18 1.30
-2.57 -0.18 1.24
-2.83 -0.18 1.19
-2.70 -0.16 1.22
-2.65 -0.15 1.23
-2.56 -0.12 1.24
-2.58 -0.11 1.24
-2.60 -0.10 1.24
-2.35 -0.08 1.28
-2.26 -0.07 1.30
-2.45 -0.06 1.26
-3.53 -0.06 1.06
-3.73 -0.03 1.02
-3.73 -0.02 1.02
-5.32 0.02 1.08
-5.32 0.03 1.08
-5.43 0.04 1.06
-5.25 0.07 1.09
-5.26 0.09 1.09
-5.31 0.12 1.08
-5.37 0.15 1.07
-5.51 0.18 1.04
-5.55 0.21 1.03
-5.63 0.24 1.01
-5.68 0.27 1.00
-5.77 0.30 0.99
-5.78 0.33 0.98
-5.75 0.36 0.99
-5.82 0.39 0.97
-5.86 0.43 0.97
-5.83 0.45 0.97
-5.95 0.49 0.95
-6.04 0.53 0.93
-5.91 0.55 0.95
-5.94 0.58 0.94
-5.81 0.60 0.97
-5.86 0.63 0.96
-5.50 0.62 1.03
-5.42 0.64 1.04
-5.30 0.66 1.07
-5.84 0.75 0.96
-5.88 0.78 0.95
-6.25 0.86 0.87
-6.31 0.90 0.86
-6.53 1.00 0.81
-4.70 0.83 1.17
-4.85 0.88 1.14
-5.01 1.17 1.10
-4.26 1.15 1.24
-4.31 1.18 1.23
-3.87 1.09 1.32
-3.56 1.03 1.38
-3.99 1.17 1.29
-3.60 1.09 1.37
-3.77 1.15 1.33
-3.62 1.13 1.36
-4.02 1.27 1.28
-3.97 1.28 1.29
-6.31 -1.69 0.44
-5.57 -1.53 0.59
-5.94 -1.58 0.52
-5.27 -1.42 0.65
-6.21 -1.55 0.47
-6.21 -1.50 0.47
-5.89 -1.43 0.53
-6.35 -1.49 0.44
-6.49 -1.47 0.41
-6.76 -1.47 0.36
-6.86 -1.44 0.34
-6.72 -1.37 0.37
-6.29 -1.27 0.46
-6.16 -1.21 0.48
-6.37 -1.20 0.44
-6.63 -1.21 0.39
-6.37 -1.15 0.44
-4.83 -0.92 0.75
-4.58 -0.85 0.80
-4.53 -0.81 0.81
-4.28 -0.75 0.86
-4.28 -0.72 0.86
-5.55 -0.82 0.61
-5.87 -0.81 0.54
-5.97 -0.80 0.52
-5.46 -0.73 0.62
-4.24 -0.59 0.87
-4.27 -0.56 0.86
-4.83 -0.57 0.75
-5.37 -0.60 0.64
-5.03 -0.55 0.71
-6.40 -0.61 0.44
-6.42 -0.57 0.43
-3.73 -0.37 0.96
-3.52 -0.34 1.01
-3.61 -0.33 0.99
-3.58 -0.30 1.00
-3.56 -0.27 1.00
-3.42 -0.24 1.03
-3.34 -0.21 1.04
-7.48 -0.25 0.66
-7.53 -0.24 0.65
-7.38 -0.20 0.68
-7.57 -0.16 0.64
-7.59 -0.13 0.64
-7.98 -0.09 0.56
-5.05 -0.03 1.14
-8.12 -0.02 0.53
-3.79 -0.00 0.90
-3.62 0.01 0.94
-4.42 0.03 0.77
-3.77 0.04 0.91
-4.26 0.06 0.81
-3.58 0.07 0.94
-3.63 0.08 0.93
-3.47 0.09 0.97
-3.71 0.11 0.92
-3.72 0.13 0.92
-3.63 0.14 0.93
-3.66 0.15 0.93
-3.74 0.17 0.91
-3.68 0.18 0.92
-3.75 0.20 0.91
-3.58 0.21 0.94
-3.75 0.23 0.91
-3.67 0.24 0.92
-2.06 0.19 1.26
-3.52 0.26 0.95
-5.40 0.27 1.02
-5.74 0.30 0.95
-5.59 0.31 0.98
-5.72 0.33 0.95
-5.54 0.33 0.99
-5.57 0.35 0.98
-5.67 0.37 0.96
-5.81 0.39 0.93
-5.70 0.40 0.95
-5.52 0.40 0.99
-5.43 0.41 1.01
-5.60 0.43 0.97
-5.83 0.46 0.92
-5.83 0.49 0.92
-5.63 0.49 0.96
-5.91 0.53 0.91
-5.71 0.56 0.95
-5.01 0.50 1.09
-4.96 0.51 1.10
-4.93 0.52 1.11
-4.94 0.53 1.10
-4.83 0.54 1.13
-5.11 0.58 1.07
-5.05 0.58 1.08
-5.04 0.60 1.08
-5.17 0.62 1.05
-5.48 0.70 0.99
-3.85 0.80 1.31
-3.49 0.87 1.38
-3.41 0.88 1.39
-2.97 0.79 1.48
-3.24 0.86 1.43
-3.23 0.87 1.43
-3.17 0.86 1.44
-3.42 0.93 1.39
-3.33 0.92 1.40
-3.19 0.89 1.43
-3.38 0.95 1.39
-3.37 0.96 1.39
-3.35 0.96 1.40
-3.22 0.94 1.43
-3.17 0.93 1.44
-3.26 0.96 1.42
-3.31 0.99 1.40
-3.28 0.99 1.41
-3.36 1.02 1.39
-3.27 1.01 1.41
-3.25 1.01 1.41
-3.17 1.00 1.43
-3.33 1.05 1.39
-3.32 1.06 1.40
-3.22 1.04 1.42
-3.21 1.04 1.42
-3.20 1.05 1.42
-3.32 1.09 1.39
-2.95 0.99 1.47
-3.04 1.03 1.45
-2.86 0.98 1.49
-1.29 -1.03 1.42
-1.42 -1.05 1.39
-1.12 -0.89 1.46
-1.23 -0.86 1.44
-1.64 -0.93 1.35
-0.92 -0.75 1.50
-1.29 -0.82 1.42
-1.37 -0.80 1.41
-1.27 -0.77 1.43
-1.47 -0.80 1.39
-1.40 -0.77 1.40
-5.12 -1.49 0.62
-1.34 -0.73 1.42
-6.13 -1.63 0.41
-1.41 -0.72 1.40
-1.76 -0.77 1.33
-1.75 -0.76 1.33
-1.68 -0.74 1.34
-6.49 -1.59 0.34
-6.40 -1.56 0.36
-6.42 -1.54 0.36
-6.34 -1.50 0.37
-1.78 -0.70 1.33
-2.03 -0.74 1.27
-1.82 -0.69 1.32
-1.86 -0.69 1.31
-1.82 -0.67 1.32
-2.03 -0.69 1.27
-1.87 -0.66 1.31
-1.94 -0.66 1.29
-1.61 -0.60 1.36
-1.68 -0.60 1.35
-1.63 -0.58 1.36
-1.35 -0.53 1.41
-1.64 -0.57 1.35
-1.81 -0.58 1.32
-1.84 -0.57 1.31
-6.41 -1.18 0.36
-3.31 -0.75 1.01
-1.99 -0.56 1.28
-2.06 -0.56 1.27
-4.54 -0.86 0.75
-1.71 -0.50 1.34
-3.82 -0.74 0.90
-4.10 -0.76 0.84
-2.14 -0.52 1.25
-4.20 -0.74 0.82
-5.67 -0.88 0.52
-5.77 -0.88 0.50
-5.70 -0.85 0.51
-4.59 -0.72 0.74
-1.10 -0.35 1.47
-1.32 -0.36 1.42
-0.98 -0.32 1.49
-4.58 -0.65 0.74
-3.99 -0.58 0.87
-4.20 -0.58 0.82
-4.23 -0.57 0.82
-4.16 -0.55 0.83
-4.35 -0.55 0.79
-5.54 -0.63 0.55
-4.92 -0.56 0.68
-5.83 -0.61 0.49
-5.33 -0.55 0.59
-5.79 -0.55 0.49
-5.64 -0.52 0.53
-6.58 -0.56 0.33
-6.39 -0.51 0.37
-6.00 -0.46 0.45
-5.98 -0.44 0.46
-3.66 -0.29 0.94
-6.34 -0.40 0.38
-5.94 -0.36 0.46
-3.45 -0.24 0.98
-3.16 -0.22 1.04
-2.74 -0.19 1.12
-3.02 -0.18 1.06
-2.67 -0.16 1.14
-2.75 -0.15 1.12
-3.30 -0.15 1.01
-2.99 -0.13 1.07
-3.10 -0.12 1.05
-2.97 -0.11 1.08
-2.95 -0.09 1.08
-2.65 -0.08 1.14
-2.62 -0.06 1.15
-2.95 -0.06 1.08
-3.45 -0.05 0.97
-3.01 -0.03 1.07
-3.33 -0.02 1.00
-5.52 0.00 0.94
-5.73 0.02 0.89
-5.70 0.03 0.90
-5.54 0.04 0.93
-5.65 0.06 0.91
-5.51 0.07 0.94
-5.40 0.08 0.96
-5.42 0.10 0.96
-5.40 0.11 0.96
-5.39 0.12 0.96
-5.33 0.14 0.98
-5.34 0.15 0.97
-5.38 0.16 0.97
-5.49 0.18 0.94
-5.41 0.19 0.96
-5.44 0.21 0.95
-5.39 0.22 0.96
-5.56 0.24 0.93
-5.46 0.25 0.95
-5.55 0.26 0.93
-5.62 0.28 0.91
-5.48 0.29 0.94
-5.61 0.31 0.91
-5.53 0.32 0.93
-5.60 0.34 0.91
-5.64 0.35 0.90
-5.66 0.37 0.90
-5.64 0.38 0.90
-5.78 0.40 0.87
-5.44 0.40 0.94
-5.45 0.41 0.94
-5.50 0.43 0.93
-5.34 0.43 0.97
-5.62 0.47 0.90
-5.65 0.48 0.90
-5.63 0.49 0.90
-5.68 0.51 0.89
-5.59 0.52 0.91
-5.48 0.52 0.93
-5.39 0.53 0.95
-5.29 0.53 0.97
-5.43 0.56 0.94
-5.56 0.59 0.91
-5.56 0.60 0.91
-5.61 0.62 0.90
-5.79 0.65 0.86
-5.55 0.64 0.91
-5.66 0.67 0.89
-5.68 0.68 0.88
-5.65 0.70 0.89
-5.80 0.73 0.86
-5.63 0.72 0.89
-5.77 0.75 0.86
-5.69 0.76 0.88
-5.69 0.77 0.88
-5.68 0.79 0.88
-5.99 0.84 0.81
-5.72 0.82 0.87
-6.27 0.91 0.75
-5.73 0.85 0.86
-6.12 0.92 0.78
-6.25 0.96 0.75
-6.38 0.99 0.72
-4.42 0.71 1.15
-4.10 0.71 1.22
-4.19 0.73 1.20
-4.22 0.76 1.19
-4.46 0.84 1.13
-5.05 0.99 1.00
-4.32 0.88 1.16
-5.13 1.06 0.98
-4.19 0.89 1.19
-4.44 0.95 1.13
-4.04 0.88 1.22
-4.77 1.04 1.06
-4.38 0.98 1.14
-4.40 0.99 1.14
-4.45 1.02 1.12
-4.23 0.99 1.17
-4.58 1.09 1.09
-4.62 1.14 1.08
-4.61 1.15 1.08
-4.15 1.05 1.18
-4.12 1.06 1.19
-4.88 1.26 1.02
-3.99 1.06 1.22
-3.80 1.02 1.26
-3.57 0.98 1.31
-3.63 1.00 1.29
-3.62 1.01 1.30
-3.42 0.97 1.34
-3.44 0.98 1.33
-3.48 1.01 1.32
-2.66 -1.24 1.08
-3.09 -1.34 0.98
-2.22 -1.08 1.18
-2.41 -1.10 1.14
-2.26 -1.05 1.17
-2.31 -1.05 1.16
-2.13 -1.00 1.20
-2.60 -1.09 1.09
-2.32 -1.02 1.15
-2.47 -1.04 1.12
-2.51 -1.04 1.11
-2.58 -1.04 1.10
-2.11 -0.93 1.20
-2.11 -0.92 1.20
-2.47 -0.98 1.12
-2.44 -0.96 1.13
-2.43 -0.95 1.13
-6.15 -1.66 0.32
-2.43 -0.93 1.13
-2.99 -1.02 1.01
-6.00 -1.57 0.35
-1.86 -0.79 1.26
-3.47 -1.07 0.91
-2.65 -0.91 1.09
-5.81 -1.46 0.40
-3.03 -0.95 1.00
-5.96 -1.44 0.36
-6.25 -1.47 0.30
-3.00 -0.91 1.01
-6.22 -1.43 0.31
-4.06 -0.99 0.78
-3.96 -0.96 0.80
-3.98 -0.95 0.80
-3.99 -0.93 0.80
-4.00 -0.92 0.80
-4.01 -0.91 0.79
-3.96 -0.88 0.80
-3.95 -0.87 0.81
-3.95 -0.85 0.81
-5.78 -1.08 0.41
-4.31 -0.87 0.73
-3.91 -0.80 0.82
-3.89 -0.78 0.82
-4.25 -0.81 0.74
-4.15 -0.79 0.76
-4.79 -0.84 0.62
-4.17 -0.76 0.76
-4.12 -0.74 0.77
-3.98 -0.70 0.80
-4.02 -0.69 0.79
-4.02 -0.68 0.79
-3.99 -0.66 0.80
-4.05 -0.65 0.79
-4.11 -0.64 0.77
-4.03 -0.62 0.79
-4.13 -0.61 0.77
-4.12 -0.60 0.77
-3.97 -0.57 0.80
-4.14 -0.57 0.77
-3.88 -0.53 0.82
-4.05 -0.53 0.79
-4.10 -0.52 0.78
-4.06 -0.50 0.78
-4.21 -0.49 0.75
-4.48 -0.50 0.69
-4.06 -0.45 0.78
-4.03 -0.43 0.79
-4.00 -0.42 0.80
-5.24 -0.48 0.53
-5.51 -0.48 0.47
-3.79 -0.36 0.84
-7.29 -0.41 0.56
-4.22 -0.23 1.22
-7.28 -0.37 0.56
-4.16 -0.21 1.24
-7.41 -0.34 0.54
-7.28 -0.32 0.56
-7.08 -0.29 0.61
-4.31 -0.17 1.20
-4.41 -0.16 1.18
-4.33 -0.15 1.20
-4.16 -0.13 1.23
-4.38 -0.13 1.19
-4.37 -0.12 1.19
-6.83 -0.17 0.66
-6.83 -0.13 0.66
-6.74 -0.11 0.68
-6.64 -0.08 0.70
-6.61 -0.06 0.71
-6.56 -0.05 0.72
-5.93 -0.03 0.85
-5.86 -0.01 0.87
-3.01 -0.01 0.96
-3.05 0.01 0.95
-3.08 0.02 0.94
-5.22 0.04 0.95
-5.26 0.05 0.94
-5.24 0.07 0.95
-5.22 0.08 0.95
-5.21 0.09 0.96
-5.21 0.11 0.95
-5.22 0.12 0.95
-5.20 0.13 0.96
-5.18 0.14 0.96
-5.18 0.16 0.96
-5.31 0.17 0.93
-5.33 0.19 0.93
-5.40 0.20 0.91
-5.40 0.22 0.91
-5.39 0.23 0.91
-5.48 0.25 0.89
-5.56 0.26 0.87
-5.50 0.28 0.88
-5.44 0.29 0.90
-5.49 0.30 0.88
-5.45 0.31 0.89
-5.54 0.33 0.87
-5.47 0.34 0.89
-5.48 0.36 0.89
-5.39 0.36 0.91
-5.50 0.38 0.88
-5.92 0.43 0.78
-5.43 0.41 0.90
-5.28 0.41 0.93
-5.53 0.44 0.87
-5.17 0.43 0.95
-5.13 0.44 0.96
-5.15 0.45 0.96
-5.04 0.46 0.98
-5.10 0.47 0.97
-4.99 0.48 0.99
-5.00 0.49 0.99
-5.06 0.51 0.97
-4.97 0.51 0.99
-5.20 0.55 0.94
-5.38 0.58 0.90
-5.53 0.61 0.87
-5.64 0.63 0.84
-5.61 0.65 0.84
-5.60 0.66 0.85
-5.68 0.68 0.83
-5.60 0.69 0.85
-5.54 0.69 0.86
-5.62 0.72 0.84
-5.64 0.73 0.84
-5.55 0.74 0.85
-5.64 0.76 0.83
-5.48 0.76 0.87
-5.46 0.77 0.87
-5.56 0.80 0.85
-5.48 0.80 0.87
-5.10 0.79 0.95
-5.49 0.86 0.86
-5.16 0.82 0.94
-5.02 0.81 0.97
-4.10 0.69 1.18
-4.47 0.76 1.09
-4.45 0.83 1.09
-4.22 0.83 1.14
-4.13 0.84 1.16
-5.59 -1.67 0.36
-1.85 -0.86 1.22
-1.91 -0.86 1.21
-1.91 -0.85 1.21
-3.02 -1.06 0.95
-2.14 -0.88 1.16
-2.29 -0.90 1.12
-1.82 -0.80 1.23
-1.77 -0.78 1.24
-3.20 -1.03 0.91
-1.97 -0.79 1.20
-2.24 -0.83 1.14
-1.70 -0.72 1.26
-2.27 -0.81 1.13
-2.89 -0.91 0.99
-2.19 -0.78 1.15
-2.37 -0.80 1.11
-1.85 -0.69 1.22
-3.75 -0.98 0.79
-1.49 -0.61 1.31
-1.63 -0.63 1.27
-1.37 -0.58 1.34
-1.29 -0.55 1.35
-1.65 -0.60 1.27
-1.35 -0.55 1.34
-1.37 -0.54 1.33
-1.50 -0.55 1.31
-3.92 -0.88 0.75
-1.57 -0.54 1.29
-0.96 -0.45 1.43
-3.77 -0.81 0.79
-1.25 -0.47 1.36
-1.13 -0.45 1.39
-3.82 -0.77 0.78
-3.87 -0.76 0.77
-3.85 -0.75 0.77
-3.91 -0.74 0.76
-3.78 -0.71 0.79
-1.34 -0.42 1.34
-3.82 -0.68 0.78
-4.02 -0.69 0.73
-4.57 -0.73 0.61
-3.82 -0.64 0.78
-0.76 -0.32 1.47
-0.70 -0.30 1.49
-0.70 -0.30 1.49
-0.76 -0.30 1.47
-3.55 -0.54 0.84
-3.67 -0.54 0.81
-3.67 -0.52 0.81
-3.87 -0.53 0.77
-3.73 -0.50 0.80
-3.84 -0.49 0.77
-3.79 -0.48 0.79
-3.80 -0.46 0.78
-3.83 -0.45 0.78
-3.58 -0.42 0.83
-3.89 -0.42 0.76
-3.92 -0.41 0.76
-4.47 -0.43 0.63
-4.38 -0.41 0.65
-3.39 -0.34 0.88
-3.76 -0.34 0.79
-3.52 -0.31 0.85
-3.63 -0.31 0.82
-3.53 -0.29 0.84
-3.53 -0.27 0.84
-3.43 -0.25 0.87
-3.46 -0.24 0.86
-3.34 -0.22 0.89
-3.45 -0.21 0.86
-3.41 -0.20 0.87
-3.20 -0.18 0.92
-3.28 -0.17 0.90
-3.30 -0.15 0.90
-3.18 -0.14 0.92
-3.25 -0.13 0.90
-3.18 -0.11 0.92
-3.10 -0.10 0.94
-3.05 -0.08 0.95
-3.12 -0.07 0.93
-3.10 -0.06 0.94
-3.22 -0.05 0.91
-3.16 -0.03 0.92
-3.12 -0.02 0.93
-5.88 0.06 0.75
-5.35 0.07 0.87
-5.47 0.08 0.84
-5.52 0.11 0.83
-5.44 0.12 0.85
-5.66 0.14 0.80
-5.50 0.15 0.83
-5.49 0.17 0.83
-5.48 0.18 0.84
-5.52 0.19 0.83
-5.54 0.21 0.82
-5.62 0.22 0.80
-5.77 0.24 0.77
-5.76 0.26 0.77
-5.81 0.28 0.76
-5.75 0.29 0.77
-6.06 0.32 0.70
-5.88 0.32 0.74
-5.87 0.34 0.74
-6.01 0.36 0.71
-5.99 0.37 0.71
-6.07 0.39 0.69
-6.10 0.41 0.68
-6.10 0.42 0.68
-5.90 0.43 0.73
-6.10 0.46 0.68
-6.34 0.49 0.62
-6.12 0.49 0.68
-5.66 0.47 0.78
-5.57 0.47 0.80
-5.54 0.49 0.81
-5.08 0.46 0.92
-5.15 0.48 0.90
-5.11 0.49 0.91
-5.14 0.50 0.90
-5.12 0.52 0.91
-5.33 0.55 0.86
-5.54 0.58 0.81
-5.53 0.59 0.81
-5.55 0.61 0.80
-5.65 0.64 0.78
-5.75 0.66 0.75
-5.76 0.68 0.75
-5.72 0.69 0.76
-5.86 0.72 0.73
-5.66 0.71 0.77
-5.69 0.73 0.77
-5.68 0.74 0.77
-5.75 0.76 0.75
-5.67 0.77 0.77
-5.77 0.80 0.74
-5.70 0.80 0.76
-5.81 0.83 0.73
-5.76 0.84 0.74
-5.63 0.84 0.77
-5.16 0.78 0.89
-5.41 0.83 0.83
-5.44 0.85 0.82
-5.44 0.86 0.82
-5.41 0.87 0.82
-5.29 0.87 0.85
-5.29 0.88 0.85
-5.23 0.89 0.86
-5.40 0.94 0.82
-5.93 -1.52 0.21
-4.69 -1.03 0.51
-4.86 -0.92 0.47
-4.06 -0.80 0.66
-3.72 -0.73 0.74
-4.04 -0.76 0.67
-4.10 -0.75 0.65
-4.37 -0.47 0.59
-4.26 -0.45 0.61
-4.09 -0.41 0.66
-3.96 -0.38 0.69
-3.93 -0.37 0.69
-3.90 -0.35 0.70
-3.88 -0.32 0.70
-4.01 -0.31 0.67
-3.80 -0.27 0.72
-3.68 -0.25 0.75
-3.82 -0.24 0.72
-3.53 -0.22 0.78
-3.51 -0.19 0.79
-3.65 -0.18 0.76
-3.51 -0.15 0.79
-3.63 -0.14 0.76
-3.60 -0.12 0.77
-6.66 -0.10 0.57
-2.56 1.42 1.37
-2.55 1.46 1.37
-2.57 1.69 1.34
-0.29 -1.64 1.41
-2.55 1.37 1.28
-0.36 -1.52 1.36
-0.46 -1.52 1.34
-0.97 -1.57 1.20
-3.03 1.55 1.06
-2.54 1.25 1.20
-2.33 1.19 1.26
-2.32 1.33 1.24
-0.01 -1.50 1.37
-2.67 0.71 0.42
-2.16 0.76 0.43
-0.79 -0.93 0.47
-2.46 0.83 0.38
-2.41 0.66 0.35
-2.75 0.67 0.30
-2.33 0.75 0.23
-2.24 0.82 0.24
-2.02 0.78 0.25
-2.08 0.77 0.23
-1.99 0.76 0.24
-1.71 0.65 0.30
-2.07 0.76 0.21
-2.02 0.78 0.22
-1.74 0.68 0.28
-1.80 0.75 0.23
-0.78 -0.94 0.27
-0.88 -0.90 0.28
-0.89 -0.86 0.24
-1.04 -0.84 0.25
-1.04 -0.84 0.21
