# .PCD v0.7 - Point Cloud Data file format
VERSION 0.7
FIELDS x y z
SIZE 4 4 4
TYPE F F F
COUNT 1 1 1
WIDTH 2272
HEIGHT 1
VIEWPOINT 0 0 0 1 0 0 0
POINTS 2272
DATA ASCII
-10.82 -0.70 2.16
-1.43 -0.98 2.13
-8.73 1.32 2.04
-10.58 -1.12 1.83
-12.67 -1.02 1.72
-12.81 -0.85 1.71
-12.66 -0.52 1.83
-12.39 -0.32 1.84
-12.42 -0.29 1.84
-10.88 -1.12 1.68
-11.07 -0.97 1.68
-11.04 -0.91 1.68
-11.46 -0.90 1.66
-12.54 -0.83 1.62
-12.37 -0.75 1.63
-12.36 -0.68 1.62
-11.99 -0.60 1.64
-11.87 -0.56 1.64
-11.98 -0.53 1.64
-12.08 -0.50 1.63
-12.21 -0.47 1.63
-11.94 -0.43 1.64
-11.96 -0.39 1.64
-11.77 -0.96 1.60
-11.56 -0.84 1.61
-12.32 -0.85 1.57
-12.00 -0.80 1.59
-11.95 -0.77 1.59
-12.27 -0.75 1.57
-12.27 -0.57 1.57
-11.96 -0.53 1.59
-11.76 -0.49 1.59
-11.70 -0.45 1.60
-11.79 -0.42 1.59
-11.62 -0.38 1.60
-11.65 -0.32 1.60
-10.78 -1.30 1.59
-10.52 -1.06 1.60
-10.94 -1.03 1.58
-11.91 -1.04 1.53
-12.13 -1.02 1.52
-11.22 -0.92 1.57
-12.22 -0.92 1.52
-12.03 -0.87 1.53
-11.46 -0.74 1.55
-11.83 -0.73 1.54
-11.45 -0.48 1.55
-12.09 -0.35 1.67
-11.81 -0.39 1.48
-11.33 -0.25 1.50
-10.57 -1.16 1.49
-10.62 -1.07 1.48
-12.40 -1.11 1.39
-12.75 -0.88 1.37
-11.95 -0.80 1.41
-11.74 -0.65 1.59
-11.52 -0.58 1.60
-12.20 -0.59 1.56
-11.79 -0.54 1.58
-11.84 -0.51 1.58
-11.56 -0.47 1.59
-11.89 -0.43 1.58
-11.90 -0.40 1.58
-12.17 -0.38 1.56
-11.46 -0.19 1.60
-11.40 -0.48 1.38
-11.92 -1.07 1.29
-11.63 -0.98 1.31
-12.70 -0.92 1.24
-11.19 -0.60 1.33
-11.11 -0.56 1.34
-11.05 -0.53 1.34
-11.20 -0.50 1.33
-11.11 -0.47 1.34
-11.22 -0.44 1.33
-11.06 -0.31 1.34
-5.48 -0.08 1.85
-3.85 0.83 1.91
-7.51 -1.19 1.52
-11.09 -0.66 1.27
-11.26 -0.63 1.26
-11.36 -0.61 1.25
-11.48 -0.58 1.24
-11.18 -0.53 1.26
-11.15 -0.50 1.26
-11.21 -0.44 1.26
-11.21 -0.34 1.26
-10.66 1.68 1.41
-7.41 -1.34 1.47
-7.17 -0.99 1.49
-7.07 -0.91 1.50
-7.15 -0.90 1.49
-6.99 -0.86 1.50
-6.87 -0.81 1.51
-11.03 -1.14 1.21
-10.60 -0.98 1.24
-10.84 -0.74 1.22
-11.03 -0.72 1.20
-11.46 -0.68 1.17
-11.22 -0.63 1.19
-11.37 -0.58 1.18
-11.06 -0.53 1.20
-11.10 -0.50 1.20
-12.26 -0.44 1.32
-11.58 -0.36 1.37
-11.72 -0.31 1.36
-11.75 -0.28 1.35
-11.55 -0.14 1.37
-11.70 -0.08 1.36
-10.46 0.61 1.38
-7.18 -1.08 1.44
-7.08 -0.93 1.45
-7.23 -0.93 1.44
-6.85 -0.87 1.47
-11.07 -1.04 1.14
-11.00 -0.59 1.14
-11.22 -0.57 1.12
-11.01 -0.53 1.14
-7.00 0.00 1.60
-7.24 0.07 1.58
-6.97 0.10 1.60
-10.85 1.06 1.28
-10.51 1.08 1.31
-11.09 1.61 1.25
-10.69 1.58 1.28
-10.95 1.65 1.26
-2.47 -0.79 1.78
-4.54 -0.85 1.61
-4.26 -0.69 1.63
-4.07 -0.64 1.64
-6.98 -0.91 1.40
-7.13 -0.90 1.39
-7.07 -0.85 1.39
-11.07 -1.14 1.06
-3.98 -0.49 1.65
-8.05 -0.74 1.31
-10.88 -0.81 1.07
-10.95 -0.78 1.07
-11.56 -0.64 1.24
-12.42 -0.66 1.17
-12.49 -0.60 1.17
-12.66 -0.55 1.15
-12.04 -0.49 1.20
-11.72 -0.45 1.23
-12.15 -0.44 1.19
-12.16 -0.41 1.19
-10.34 0.61 1.27
-7.19 -0.92 1.33
-7.16 -0.90 1.34
-7.02 -0.84 1.35
-7.00 -0.82 1.35
-7.23 -0.79 1.33
-10.64 -0.76 1.02
-7.16 0.03 1.51
-9.62 0.52 1.27
-9.87 0.56 1.25
-10.66 1.60 1.16
-10.87 1.66 1.14
-2.20 -0.85 1.75
-5.41 -1.18 1.44
-5.17 -1.13 1.47
-5.09 -0.88 1.47
-5.02 -0.82 1.48
-7.14 -1.03 1.28
-4.66 -0.73 1.52
-6.96 -0.95 1.30
-6.98 -0.93 1.29
-6.64 -0.87 1.33
-7.05 -0.89 1.29
-6.95 -0.86 1.30
-6.97 -0.84 1.30
-6.91 -0.81 1.30
-6.86 -0.78 1.31
-6.82 -0.76 1.31
-6.92 -0.74 1.30
-6.95 -0.72 1.30
-7.40 -0.74 1.25
-7.20 -0.70 1.27
-10.41 -0.78 0.97
-10.06 -0.70 1.00
-9.10 -0.62 1.09
-6.96 -0.03 1.52
-7.31 0.01 1.20
-7.55 0.03 1.17
-7.54 0.05 1.17
-7.43 0.08 1.19
-8.61 0.14 1.07
-7.98 0.15 1.13
-8.30 0.21 1.10
-7.28 0.24 1.20
-10.55 0.88 1.12
-10.63 0.91 1.11
-10.79 1.27 1.09
-11.27 1.38 1.04
-11.18 1.40 1.05
-10.88 1.39 1.08
-11.13 1.44 1.05
-11.06 1.49 1.06
-11.21 1.54 1.04
-9.82 1.38 1.18
-11.09 1.63 1.05
-2.79 -1.36 1.66
-5.29 -1.20 1.41
-5.29 -1.13 1.41
-5.17 -1.07 1.42
-5.60 -1.11 1.38
-5.54 -1.09 1.39
-5.59 -1.07 1.38
-5.35 -1.02 1.40
-5.00 -0.92 1.44
-4.68 -0.85 1.47
-4.94 -0.86 1.45
-6.95 -0.99 1.24
-4.96 -0.76 1.44
-6.75 -0.86 1.26
-6.96 -0.86 1.24
-7.08 -0.85 1.23
-6.98 -0.81 1.24
-6.85 -0.78 1.25
-6.90 -0.76 1.25
-7.11 -0.76 1.23
-6.81 -0.71 1.26
-3.81 -0.47 1.56
-10.25 -0.89 0.91
-10.04 -0.85 0.93
-10.19 -0.83 0.91
-10.04 -0.79 0.93
-10.22 -0.77 0.91
-9.99 -0.70 0.93
-9.70 -0.62 0.96
-10.12 -0.61 0.92
-10.21 -0.59 0.91
-10.19 -0.56 0.91
-10.87 -0.56 0.84
-10.38 -0.51 0.89
-10.57 -0.48 0.87
-10.46 -0.45 0.88
-10.70 -0.43 0.86
-10.32 -0.38 0.90
-10.12 -0.35 0.92
-6.33 -0.22 1.30
-6.41 -0.20 1.29
-10.14 -0.23 0.91
-6.93 -0.15 1.24
-7.04 -0.08 1.23
-7.05 -0.06 1.23
-7.12 -0.04 1.22
-7.23 -0.02 1.21
-6.67 -0.00 1.46
-6.82 0.12 1.45
-6.90 0.14 1.44
-6.74 0.15 1.45
-7.19 0.18 1.41
-6.98 0.19 1.43
-7.17 0.26 1.41
-7.24 0.29 1.40
-9.94 0.44 1.12
-9.79 0.45 1.13
-9.80 0.48 1.13
-9.85 0.60 1.13
-9.26 0.59 1.19
-10.96 1.34 1.00
-10.80 1.35 1.01
-10.48 1.47 1.04
-10.83 1.57 1.01
-9.79 1.55 1.11
-3.04 -1.12 1.60
-4.46 -1.30 1.45
-4.47 -1.27 1.45
-5.03 -1.30 1.39
-4.95 -1.27 1.39
-5.02 -1.25 1.39
-4.78 -1.19 1.41
-5.13 -1.21 1.38
-4.76 -1.14 1.42
-3.36 -0.90 1.57
-5.18 -1.13 1.37
-5.20 -1.11 1.37
-5.37 -1.08 1.35
-5.19 -1.04 1.37
-5.37 -1.05 1.35
-4.50 -0.85 1.44
-6.68 -1.05 1.21
-6.29 -0.96 1.25
-6.62 -0.98 1.22
-6.51 -0.95 1.23
-6.57 -0.93 1.22
-6.27 -0.88 1.25
-6.41 -0.87 1.24
-6.54 -0.86 1.22
-6.85 -0.85 1.19
-6.69 -0.81 1.21
-6.83 -0.80 1.19
-6.75 -0.78 1.20
-6.93 -0.75 1.18
-7.02 -0.73 1.17
-7.38 -0.74 1.13
-9.97 -0.90 0.85
-9.96 -0.87 0.85
-10.00 -0.85 0.85
-9.91 -0.81 0.86
-2.92 -0.34 1.61
-9.71 -0.74 0.88
-5.89 -0.49 1.29
-5.92 -0.47 1.29
-5.58 -0.43 1.33
-9.99 -0.64 0.85
-9.44 -0.58 0.91
-9.57 -0.56 0.89
-10.19 -0.56 0.83
-10.03 -0.52 0.84
-9.83 -0.49 0.87
-10.03 -0.46 0.84
-10.50 -0.38 1.07
-10.64 -0.36 1.05
-10.81 -0.34 1.04
-10.56 -0.31 1.06
-10.82 -0.29 1.03
-10.80 -0.26 1.04
-10.32 -0.23 1.09
-7.74 0.01 1.02
-7.35 0.03 1.07
-7.81 0.05 1.02
-7.84 0.08 1.01
-8.02 0.10 0.99
-7.80 0.13 1.02
-7.82 0.15 1.01
-7.93 0.35 1.00
-9.16 0.76 1.14
-9.33 0.80 1.12
-8.98 0.90 1.15
-7.05 -0.67 1.11
-9.60 -0.70 0.82
-7.22 -0.11 1.09
-6.94 -0.06 1.12
-7.39 -0.04 1.06
-7.45 -0.02 1.06
-9.38 0.78 1.04
-9.16 0.79 1.07
-9.46 0.86 1.03
-8.96 0.86 1.09
-9.38 0.95 1.04
-8.89 0.94 1.09
-9.33 1.03 1.04
-9.15 1.08 1.06
-9.52 1.15 1.02
-6.51 -0.86 1.11
-6.62 -0.85 1.09
-7.05 -0.83 1.04
-6.88 -0.79 1.06
-7.06 -0.78 1.04
-6.81 -0.65 1.07
-11.88 -0.81 0.45
-11.23 -0.60 0.84
-10.61 -0.49 0.91
-10.75 -0.47 0.89
-11.21 -0.44 0.84
-7.48 0.00 0.92
-7.54 0.03 0.91
-7.71 0.06 1.19
-8.12 0.12 1.14
-8.23 0.16 1.13
-7.87 0.19 1.17
-8.17 0.22 1.14
-8.31 0.24 1.12
-8.35 0.26 1.11
-8.24 0.28 1.13
-9.16 0.38 1.01
-9.49 0.42 0.97
-9.53 0.44 0.96
-9.18 0.45 1.01
-9.71 0.50 0.94
-9.57 0.58 0.96
-9.13 0.58 1.01
-8.95 0.59 1.03
-9.32 0.64 0.99
-8.86 0.63 1.04
-8.87 0.65 1.04
-9.11 0.69 1.01
-8.96 0.70 1.03
-9.11 0.74 1.01
-9.09 0.76 1.01
-9.08 0.78 1.01
-9.35 0.82 0.98
-8.84 0.80 1.04
-8.93 0.83 1.03
-9.02 0.86 1.02
-9.92 0.97 0.91
-8.99 0.90 1.02
-8.94 0.92 1.03
-8.97 0.95 1.02
-9.04 0.98 1.01
-9.06 1.00 1.01
-9.06 1.02 1.01
-9.92 1.14 0.90
-9.46 1.11 0.96
-9.28 1.12 0.98
-9.21 1.13 0.99
-9.12 1.14 1.00
-9.14 1.17 1.00
-9.25 1.21 0.98
-9.28 1.23 0.98
-9.21 1.25 0.99
-9.21 1.27 0.99
-9.58 1.34 0.94
-9.58 1.37 0.94
-10.55 1.53 0.81
-10.64 1.57 0.80
-9.70 1.46 0.92
-10.73 1.63 0.79
-10.48 1.62 0.82
-9.65 1.52 0.93
-9.62 1.54 0.93
-2.44 -1.18 1.57
-5.07 -1.06 1.23
-5.26 -1.07 1.21
-5.01 -1.00 1.24
-5.49 -1.04 1.18
-5.14 -0.91 1.22
-4.99 -0.87 1.24
-6.78 -1.04 1.01
-6.55 -0.95 1.04
-6.36 -0.87 1.07
-6.35 -0.78 1.07
-6.37 -0.76 1.07
-6.40 -0.75 1.06
-6.46 -0.73 1.05
-6.44 -0.71 1.06
-6.43 -0.69 1.06
-6.56 -0.67 1.04
-6.63 -0.66 1.03
-6.55 -0.63 1.04
-6.60 -0.61 1.03
-6.57 -0.59 1.04
-6.52 -0.57 1.05
-6.67 -0.55 1.03
-6.06 -0.50 1.10
-6.15 -0.48 1.09
-6.37 -0.47 1.06
-6.00 -0.43 1.11
-5.84 -0.41 1.13
-5.96 -0.39 1.12
-5.92 -0.37 1.12
-5.80 -0.35 1.14
-6.46 -0.35 1.05
-5.98 -0.31 1.11
-6.24 -0.30 1.08
-6.32 -0.28 1.07
-5.73 -0.25 1.15
-6.28 -0.24 1.07
-6.80 -0.24 1.01
-7.22 -0.22 0.95
-6.87 -0.19 1.00
-7.03 -0.17 0.98
-6.83 -0.15 1.00
-6.84 -0.13 1.00
-6.94 -0.11 0.99
-6.97 -0.08 0.98
-6.99 -0.06 0.98
-6.93 -0.04 0.99
-7.26 -0.02 0.95
-7.97 -0.00 1.10
-8.01 0.10 1.10
-7.84 0.11 1.12
-7.82 0.13 1.12
-7.91 0.15 1.11
-7.70 0.17 1.14
-7.63 0.19 1.14
-7.73 0.21 1.13
-8.05 0.26 1.09
-8.27 0.28 1.06
-8.07 0.30 1.09
-8.51 0.33 1.03
-9.10 0.38 0.95
-8.36 0.37 1.05
-8.37 0.39 1.04
-8.46 0.43 1.03
-8.69 0.47 1.00
-9.66 0.54 0.87
-9.11 0.53 0.95
-8.85 0.54 0.98
-8.74 0.56 0.99
-9.01 0.59 0.96
-8.93 0.63 0.97
-8.87 0.65 0.98
-8.87 0.67 0.97
-8.90 0.70 0.97
-9.27 0.75 0.92
-9.06 0.75 0.95
-9.06 0.78 0.95
-9.25 0.84 0.92
-9.09 0.85 0.94
-9.51 0.93 0.89
-9.01 0.91 0.95
-8.99 0.93 0.95
-8.96 0.97 0.96
-9.15 1.01 0.93
-9.31 1.05 0.91
-9.19 1.08 0.92
-9.38 1.13 0.90
-9.78 1.20 0.84
-9.35 1.20 0.90
-9.27 1.21 0.91
-9.34 1.24 0.90
-9.34 1.29 0.90
-9.41 1.32 0.89
-9.30 1.33 0.90
-9.30 1.38 0.90
-9.24 1.39 0.91
-9.28 1.42 0.90
-10.16 1.60 0.78
-9.42 1.51 0.88
-10.09 1.64 0.79
-3.66 0.95 1.64
-2.57 -1.18 1.51
-2.27 -1.10 1.55
-2.84 -1.14 1.48
-4.67 -1.29 1.23
-4.52 -1.13 1.25
-4.83 -1.16 1.21
-7.40 -1.56 0.86
-7.22 -1.44 0.89
-5.25 -1.09 1.15
-4.76 -1.00 1.22
-5.04 -1.02 1.18
-5.10 -1.01 1.17
-5.47 -1.04 1.12
-5.26 -1.00 1.15
-5.34 -0.99 1.14
-5.15 -0.93 1.17
-5.71 -0.98 1.09
-5.02 -0.88 1.18
-5.25 -0.89 1.15
-4.25 -0.75 1.29
-5.11 -0.83 1.17
-6.31 -0.95 1.01
-6.40 -0.94 1.00
-6.19 -0.73 1.03
-3.80 -0.51 1.35
-6.17 -0.69 1.03
-6.13 -0.66 1.03
-6.23 -0.65 1.02
-6.35 -0.64 1.00
-6.40 -0.62 1.00
-6.17 -0.59 1.03
-6.21 -0.57 1.02
-6.40 -0.56 1.00
-6.36 -0.54 1.00
-6.44 -0.52 0.99
-6.27 -0.49 1.01
-6.08 -0.46 1.04
-6.16 -0.44 1.03
-5.90 -0.41 1.06
-5.94 -0.39 1.06
-6.11 -0.38 1.04
-7.00 -0.40 0.91
-6.41 -0.35 0.99
-7.23 -0.36 0.88
-7.17 -0.34 0.89
-7.10 -0.31 0.90
-5.98 -0.25 1.05
-6.70 -0.26 0.95
-6.66 -0.23 0.96
-6.58 -0.21 0.97
-6.92 -0.19 0.92
-6.84 -0.17 0.93
-7.18 -0.16 0.89
-8.26 -0.04 1.07
-7.64 -0.02 1.15
-6.79 0.00 0.87
-6.82 0.03 0.87
-6.56 0.05 0.91
-6.65 0.07 0.89
-6.62 0.09 0.90
-6.59 0.11 0.90
-6.60 0.13 0.90
-6.64 0.15 0.89
-6.82 0.18 0.87
-7.05 0.21 0.83
-7.15 0.23 0.82
-7.90 0.21 1.05
-7.96 0.23 1.04
-8.11 0.26 1.02
-8.09 0.28 1.03
-7.73 0.28 1.07
-7.85 0.31 1.06
-8.16 0.34 1.01
-8.42 0.37 0.98
-8.26 0.38 1.00
-8.44 0.41 0.97
-8.51 0.44 0.96
-8.33 0.45 0.99
-8.34 0.47 0.99
-8.40 0.49 0.98
-8.31 0.51 0.99
-8.26 0.52 1.00
-8.26 0.55 1.00
-8.37 0.57 0.98
-8.36 0.59 0.98
-8.37 0.61 0.98
-8.44 0.64 0.97
-8.50 0.67 0.96
-8.54 0.69 0.96
-8.92 0.74 0.90
-9.04 0.77 0.88
-8.86 0.78 0.91
-9.04 0.82 0.88
-9.09 0.85 0.88
-9.11 0.87 0.87
-8.93 0.88 0.90
-8.93 0.90 0.90
-9.14 0.94 0.87
-9.22 0.97 0.85
-9.09 0.98 0.87
-9.15 1.01 0.86
-9.13 1.03 0.87
-9.22 1.06 0.85
-9.27 1.09 0.85
-9.41 1.13 0.83
-9.73 1.19 0.78
-9.46 1.18 0.82
-9.18 1.17 0.86
-9.14 1.19 0.86
-9.11 1.21 0.86
-9.28 1.25 0.84
-9.30 1.28 0.84
-9.15 1.28 0.86
-9.38 1.34 0.82
-9.42 1.37 0.82
-10.19 1.50 0.71
-10.04 1.50 0.73
-9.59 1.46 0.79
-9.63 1.49 0.78
-9.84 1.55 0.75
-9.58 1.53 0.79
-10.06 1.63 0.72
-10.03 1.65 0.73
-9.74 1.63 0.77
-9.33 1.59 0.82
-3.69 1.02 1.60
-4.12 -1.06 1.26
-4.09 -1.04 1.26
-4.93 -1.13 1.14
-4.64 -1.05 1.19
-4.64 -1.03 1.19
-4.94 -1.06 1.14
-4.82 -1.02 1.16
-5.00 -1.03 1.14
-4.94 -1.01 1.14
-4.73 -0.96 1.17
-5.08 -0.95 1.12
-6.06 -0.94 0.98
-6.27 -0.94 0.95
-5.88 -0.86 1.01
-5.50 -0.80 1.06
-5.86 -0.78 1.01
-5.66 -0.72 1.04
-5.64 -0.70 1.04
-5.58 -0.68 1.05
-5.82 -0.68 1.02
-5.82 -0.66 1.02
-6.05 -0.66 0.99
-6.14 -0.64 0.97
-5.88 -0.60 1.01
-6.25 -0.61 0.96
-5.85 -0.56 1.01
-6.01 -0.55 0.99
-6.17 -0.54 0.97
-6.19 -0.53 0.96
-6.33 -0.51 0.95
-6.46 -0.50 0.93
-6.11 -0.46 0.98
-6.35 -0.45 0.94
-6.34 -0.43 0.94
-6.49 -0.42 0.92
-6.13 -0.38 0.97
-6.10 -0.36 0.98
-6.76 -0.37 0.88
-6.87 -0.35 0.87
-6.97 -0.33 0.85
-6.73 -0.30 0.89
-7.04 -0.29 0.84
-6.76 -0.26 0.88
-7.09 -0.24 0.83
-6.76 -0.21 0.88
-6.96 -0.20 0.85
-6.88 -0.17 0.86
-6.82 -0.15 0.87
-6.96 -0.13 0.85
-6.71 -0.10 0.89
-6.64 -0.08 0.90
-6.79 -0.06 0.87
-6.88 -0.04 0.86
-6.96 -0.02 0.85
-8.04 -0.00 0.97
-6.58 0.01 1.18
-7.98 0.04 0.98
-7.93 0.06 0.98
-7.69 0.07 1.02
-7.87 0.09 0.99
-7.44 0.11 1.06
-7.93 0.13 0.98
-7.68 0.15 1.02
-7.53 0.16 1.04
-7.41 0.18 1.06
-7.61 0.20 1.03
-8.07 0.24 0.96
-7.76 0.25 1.01
-7.91 0.27 0.98
-7.61 0.28 1.03
-7.89 0.31 0.99
-7.98 0.33 0.97
-7.91 0.35 0.98
-8.09 0.38 0.96
-8.30 0.41 0.93
-8.28 0.43 0.93
-8.13 0.44 0.95
-8.27 0.47 0.93
-8.13 0.48 0.95
-8.17 0.50 0.94
-8.18 0.52 0.94
-8.21 0.54 0.93
-8.25 0.57 0.93
-8.22 0.58 0.93
-8.25 0.61 0.93
-8.29 0.63 0.92
-8.24 0.65 0.93
-8.55 0.69 0.88
-8.40 0.70 0.90
-8.61 0.74 0.87
-9.06 0.80 0.81
-9.21 0.84 0.78
-8.86 0.83 0.83
-8.93 0.85 0.82
-9.02 0.89 0.81
-9.00 0.91 0.81
-9.00 0.93 0.81
-9.00 0.95 0.81
-9.38 1.01 0.75
-9.46 1.04 0.74
-9.47 1.07 0.74
-9.38 1.08 0.75
-9.31 1.10 0.76
-9.44 1.14 0.74
-4.71 0.60 1.44
-9.48 1.19 0.73
-9.89 1.26 0.67
-9.58 1.25 0.72
-9.74 1.29 0.69
-9.89 1.34 0.67
-9.30 1.28 0.76
-9.43 1.32 0.74
-9.42 1.35 0.74
-9.57 1.39 0.72
-9.55 1.41 0.72
-9.80 1.47 0.68
-10.26 1.57 0.61
-9.53 1.48 0.72
-9.40 1.49 0.74
-9.31 1.49 0.75
-9.49 1.55 0.72
-9.69 1.60 0.69
-9.40 1.58 0.73
-9.38 1.60 0.74
-9.52 1.65 0.71
-9.46 1.66 0.72
-3.99 1.08 1.52
-2.48 -1.28 1.45
-4.84 -1.26 1.10
-4.64 -1.17 1.13
-4.60 -1.15 1.13
-4.44 -1.10 1.16
-4.39 -1.08 1.17
-4.65 -1.10 1.13
-4.71 -1.10 1.12
-4.67 -1.07 1.12
-4.56 -1.04 1.14
-4.64 -1.03 1.13
-4.50 -1.00 1.15
-4.79 -1.02 1.11
-4.75 -1.00 1.11
-5.15 -1.04 1.05
-5.20 -1.03 1.04
-5.00 -0.98 1.07
-5.10 -0.96 1.06
-4.96 -0.92 1.08
-4.97 -0.85 1.08
-5.05 -0.85 1.07
-6.30 -0.97 0.88
-6.30 -0.95 0.88
-5.39 -0.79 1.02
-5.54 -0.77 0.99
-5.41 -0.74 1.01
-5.80 -0.76 0.96
-5.47 -0.71 1.01
-5.23 -0.67 1.04
-3.70 -0.52 1.27
-5.64 -0.66 0.98
-5.59 -0.64 0.99
-5.55 -0.62 0.99
-5.60 -0.61 0.98
-5.60 -0.59 0.99
-5.53 -0.56 1.00
-5.43 -0.54 1.01
-5.41 -0.52 1.01
-5.71 -0.52 0.97
-5.76 -0.50 0.96
-6.00 -0.50 0.92
-6.12 -0.48 0.91
-6.16 -0.46 0.90
-6.25 -0.45 0.89
-6.19 -0.43 0.90
-6.17 -0.40 0.90
-6.14 -0.38 0.90
-5.95 -0.35 0.93
-6.01 -0.34 0.92
-6.48 -0.33 0.85
-6.26 -0.31 0.88
-10.76 -0.37 0.57
-8.62 -0.21 0.89
-8.34 -0.19 0.93
-8.41 -0.17 0.92
-8.03 -0.14 0.97
-8.05 -0.12 0.97
-7.82 -0.08 1.00
-7.80 -0.06 1.00
-8.01 -0.04 0.97
-7.93 -0.02 0.99
-6.38 0.00 0.80
-6.60 0.04 0.77
-6.55 0.07 0.77
-6.58 0.09 0.77
-6.29 0.10 0.82
-6.82 0.13 0.73
-6.73 0.18 0.75
-6.34 0.21 0.81
-6.45 0.23 0.79
-6.57 0.26 0.77
-5.50 0.25 0.94
-6.74 0.35 0.74
-6.75 0.41 0.74
-8.27 0.40 0.87
-8.45 0.43 0.84
-8.40 0.45 0.85
-8.51 0.48 0.83
-8.23 0.48 0.88
-8.30 0.51 0.87
-9.46 0.60 0.69
-8.86 0.58 0.78
-8.24 0.56 0.87
-8.37 0.59 0.85
-8.24 0.60 0.87
-8.34 0.63 0.86
-8.61 0.67 0.81
-8.60 0.69 0.81
-8.47 0.70 0.84
-8.63 0.74 0.81
-8.83 0.78 0.78
-8.81 0.80 0.78
-9.21 0.85 0.72
-9.28 0.88 0.71
-9.30 0.91 0.70
-9.37 0.94 0.69
-9.63 0.99 0.65
-9.92 1.04 0.61
-9.70 1.04 0.64
-9.46 1.04 0.68
-9.45 1.06 0.68
-9.66 1.11 0.64
-9.51 1.12 0.67
-9.59 1.15 0.65
-9.96 1.22 0.60
-9.89 1.23 0.60
-10.13 1.29 0.57
-9.99 1.30 0.59
-9.82 1.32 0.61
-9.90 1.36 0.60
-9.65 1.35 0.64
-9.86 1.40 0.60
-9.67 1.40 0.63
-9.61 1.42 0.64
-9.46 1.42 0.66
-9.63 1.47 0.64
-9.56 1.48 0.65
-9.61 1.51 0.64
-9.72 1.55 0.62
-10.08 1.64 0.56
-10.09 1.66 0.56
-3.73 0.94 1.54
-3.87 1.01 1.52
-3.99 1.07 1.50
-1.65 -0.68 1.56
-2.06 -0.71 1.49
-5.75 -0.77 0.91
-5.55 -0.64 0.94
-5.43 -0.53 0.96
-6.47 -0.59 0.79
-5.67 -0.49 0.92
-5.94 -0.47 0.88
-6.17 -0.44 0.84
-6.09 -0.42 0.85
-5.96 -0.39 0.87
-6.38 -0.39 0.81
-6.24 -0.37 0.83
-6.23 -0.32 0.83
-6.49 -0.29 0.79
-6.54 -0.27 0.78
-6.42 -0.25 0.80
-6.46 -0.23 0.79
-6.76 -0.21 0.75
-6.50 -0.17 0.79
-6.40 -0.12 0.80
-6.34 -0.10 0.81
-6.34 -0.08 0.81
-6.30 -0.06 0.82
-6.33 -0.04 0.81
-6.85 -0.00 1.03
-7.72 0.02 0.89
-7.20 0.03 0.98
-7.35 0.05 0.95
-7.49 0.07 0.93
-7.61 0.09 0.91
-7.52 0.11 0.92
-7.45 0.13 0.94
-7.55 0.15 0.92
-7.59 0.17 0.91
-7.60 0.18 0.91
-7.57 0.20 0.91
-7.65 0.22 0.90
-7.63 0.24 0.90
-7.54 0.26 0.92
-7.77 0.28 0.88
-7.75 0.30 0.88
-7.72 0.32 0.89
-7.99 0.35 0.84
-8.11 0.38 0.82
-7.89 0.39 0.86
-8.25 0.42 0.80
-8.06 0.43 0.83
-8.04 0.45 0.83
-7.95 0.47 0.85
-7.95 0.49 0.85
-7.95 0.51 0.85
-8.11 0.54 0.82
-8.09 0.56 0.82
-8.98 0.64 0.68
-8.97 0.66 0.68
-8.28 0.63 0.79
-8.26 0.65 0.79
-5.20 0.43 1.29
-8.87 0.74 0.69
-5.01 0.44 1.32
-8.29 0.73 0.79
-9.76 0.88 0.55
-8.55 0.80 0.74
-9.10 0.87 0.65
-4.94 0.50 1.33
-9.58 0.96 0.57
-9.08 0.94 0.65
-9.25 0.98 0.63
-9.29 1.00 0.62
-9.42 1.04 0.60
-9.43 1.07 0.59
-9.65 1.11 0.56
-9.68 1.14 0.55
-9.69 1.17 0.55
-9.77 1.20 0.54
-9.92 1.24 0.51
-9.94 1.27 0.51
-9.95 1.30 0.50
-9.86 1.31 0.52
-9.82 1.33 0.52
-9.74 1.34 0.54
-9.49 1.33 0.58
-9.45 1.35 0.58
-9.26 1.35 0.61
-9.87 1.46 0.51
-9.93 1.49 0.50
-9.73 1.49 0.53
-9.66 1.50 0.54
-9.67 1.53 0.54
-9.63 1.55 0.55
-9.66 1.57 0.54
-9.43 1.56 0.58
-9.58 1.61 0.55
-9.48 1.62 0.57
-9.56 1.65 0.55
-9.47 1.66 0.57
-3.96 0.97 1.46
-3.91 0.97 1.47
-4.01 1.00 1.45
-4.07 1.09 1.44
-0.49 -1.35 1.69
-4.99 -1.61 0.95
-4.59 -1.47 1.02
-4.95 -1.53 0.96
-4.69 -1.45 1.01
-4.41 -1.36 1.05
-5.00 -1.46 0.96
-4.77 -1.40 0.99
-1.87 -0.79 1.48
-2.65 -0.55 1.35
-5.29 -0.82 0.91
-2.55 -0.52 1.37
-5.45 -0.80 0.89
-5.46 -0.78 0.89
-5.30 -0.75 0.91
-5.55 -0.75 0.87
-5.94 -0.77 0.81
-5.69 -0.73 0.85
-5.64 -0.70 0.86
-5.77 -0.70 0.83
-5.79 -0.68 0.83
-5.66 -0.65 0.85
-5.47 -0.61 0.88
-5.38 -0.59 0.90
-5.34 -0.57 0.90
-5.68 -0.57 0.85
-5.61 -0.55 0.86
-5.50 -0.52 0.88
-5.49 -0.50 0.88
-5.60 -0.49 0.86
-6.09 -0.50 0.78
-5.79 -0.47 0.83
-6.07 -0.35 1.16
-7.05 -0.38 1.00
-9.80 -0.50 0.56
-6.83 -0.34 1.04
-6.18 -0.28 1.14
-7.40 -0.31 0.95
-7.47 -0.30 0.94
-7.81 -0.27 0.88
-7.87 -0.25 0.87
-7.29 -0.22 0.96
-7.34 -0.20 0.96
-7.08 -0.18 1.00
-7.60 -0.17 0.91
-7.61 -0.15 0.91
-7.20 -0.11 0.98
-7.70 -0.10 0.90
-7.18 -0.07 0.98
-7.47 -0.06 0.93
-7.76 -0.04 0.89
-7.30 -0.02 0.96
-6.03 0.00 0.72
-5.91 0.02 0.74
-6.10 0.04 0.71
-7.35 0.05 0.89
-7.28 0.07 0.91
-7.52 0.09 0.87
-7.21 0.10 0.92
-7.40 0.12 0.88
-7.37 0.14 0.89
-7.42 0.16 0.88
-7.29 0.18 0.90
-7.70 0.21 0.83
-7.47 0.22 0.87
-7.51 0.24 0.86
-7.67 0.26 0.84
-7.65 0.30 0.84
-7.89 0.33 0.80
-7.86 0.34 0.80
-7.91 0.37 0.79
-8.08 0.39 0.76
-7.96 0.41 0.78
-7.90 0.42 0.79
-7.93 0.46 0.79
-7.89 0.48 0.79
-8.11 0.53 0.76
-7.95 0.54 0.78
-8.06 0.57 0.76
-8.08 0.59 0.76
-5.26 0.42 1.24
-4.91 0.42 1.30
-5.42 0.47 1.21
-4.93 0.44 1.29
-5.12 0.49 1.26
-5.34 0.52 1.22
-5.14 0.51 1.26
-5.20 0.55 1.24
-9.09 0.96 0.58
-10.04 1.08 0.42
-9.57 1.08 0.50
-9.37 1.08 0.53
-9.40 1.13 0.52
-9.48 1.16 0.51
-9.92 1.24 0.43
-9.77 1.24 0.46
-9.85 1.30 0.44
-9.88 1.33 0.44
-9.82 1.37 0.44
-9.64 1.37 0.47
-9.68 1.40 0.47
-9.77 1.44 0.45
-9.79 1.49 0.44
-9.73 1.53 0.45
-9.49 1.52 0.49
-9.54 1.55 0.48
-9.43 1.56 0.50
-9.52 1.60 0.49
-9.43 1.63 0.50
-9.46 1.68 0.49
-9.32 1.68 0.52
-3.84 0.80 1.46
-3.80 0.83 1.47
-3.89 0.92 1.44
-3.95 0.97 1.43
-3.90 0.97 1.44
-3.95 0.99 1.43
-3.93 1.02 1.43
-4.06 1.06 1.41
-3.96 1.06 1.43
-3.93 1.06 1.43
-3.81 1.04 1.45
-3.88 1.07 1.44
-3.94 1.10 1.43
-3.91 1.10 1.43
-3.95 1.12 1.42
-3.89 1.12 1.43
-3.93 1.14 1.43
-4.61 -1.57 0.96
-2.44 -1.00 1.35
-2.01 -0.88 1.42
-4.99 -1.46 0.90
-5.39 -1.50 0.83
-5.53 -1.45 0.81
-2.39 -0.83 1.36
-7.07 -1.53 0.54
-3.91 -1.00 1.09
-6.93 -1.46 0.57
-3.73 -0.90 1.12
-2.73 -0.72 1.30
-4.92 -1.01 0.92
-3.08 -0.74 1.24
-3.63 -0.80 1.14
-3.13 -0.68 1.23
-3.55 -0.72 1.16
-3.94 -0.75 1.09
-2.89 -0.59 1.27
-3.14 -0.60 1.23
-3.06 -0.58 1.24
-5.12 -0.78 0.88
-2.73 -0.52 1.30
-2.45 -0.48 1.35
-3.16 -0.54 1.22
-2.61 -0.47 1.32
-5.62 -0.74 0.80
-5.66 -0.72 0.79
-2.79 -0.45 1.29
-5.78 -0.68 0.77
-5.66 -0.65 0.79
-5.60 -0.62 0.80
-5.92 -0.61 0.75
-6.09 -0.60 0.72
-5.71 -0.56 0.78
-5.67 -0.53 0.79
-5.67 -0.51 0.79
-5.63 -0.49 0.80
-5.71 -0.48 0.78
-5.87 -0.47 0.75
-5.93 -0.45 0.74
-6.12 -0.44 0.71
-6.23 -0.43 0.69
-5.94 -0.39 0.74
-6.08 -0.38 0.72
-5.91 -0.35 0.75
-6.12 -0.34 0.71
-6.11 -0.32 0.71
-6.31 -0.31 0.67
-6.18 -0.28 0.70
-6.53 -0.27 0.64
-6.09 -0.24 0.71
-6.06 -0.22 0.72
-6.23 -0.20 0.69
-6.22 -0.18 0.69
-6.18 -0.16 0.70
-6.07 -0.14 0.72
-6.36 -0.12 0.66
-6.40 -0.10 0.66
-6.12 -0.08 0.71
-6.45 -0.06 0.65
-6.03 -0.04 0.72
-5.87 -0.02 0.75
-7.09 -0.00 0.88
-6.80 0.01 0.93
-7.07 0.03 0.88
-7.01 0.05 0.89
-6.92 0.06 0.91
-7.22 0.09 0.85
-7.15 0.10 0.87
-7.12 0.12 0.87
-7.28 0.14 0.84
-7.22 0.16 0.85
-7.25 0.18 0.85
-7.29 0.19 0.84
-7.41 0.22 0.82
-7.25 0.23 0.85
-7.43 0.25 0.81
-7.49 0.27 0.80
-7.51 0.29 0.80
-7.52 0.31 0.80
-7.67 0.34 0.77
-7.64 0.35 0.77
-7.63 0.37 0.77
-7.60 0.39 0.78
-7.77 0.42 0.75
-7.63 0.43 0.77
-7.59 0.45 0.78
-7.54 0.46 0.79
-7.58 0.48 0.78
-7.97 0.53 0.71
-7.91 0.54 0.72
-7.79 0.55 0.74
-7.92 0.58 0.72
-7.89 0.60 0.72
-5.38 0.43 1.17
-5.46 0.45 1.16
-8.20 0.68 0.67
-8.07 0.69 0.69
-8.04 0.71 0.70
-8.24 0.75 0.66
-8.19 0.76 0.67
-8.13 0.78 0.68
-8.48 0.83 0.61
-8.84 0.91 0.55
-6.17 0.66 1.02
-5.38 0.59 1.17
-8.54 0.94 0.60
-8.81 0.99 0.55
-6.33 0.74 0.99
-5.89 0.70 1.07
-5.97 0.73 1.06
-6.06 0.75 1.04
-5.96 0.76 1.06
-5.89 0.76 1.07
-5.81 0.77 1.08
-6.31 0.91 0.99
-9.50 1.43 0.41
-9.51 1.45 0.41
-9.48 1.54 0.41
-9.26 1.55 0.45
-9.38 1.67 0.43
-6.20 1.30 0.99
-4.05 0.89 1.38
-4.06 0.92 1.38
-4.10 1.00 1.37
-4.08 1.02 1.37
-3.98 1.01 1.39
-4.08 1.04 1.37
-4.11 1.06 1.36
-4.10 1.07 1.36
-4.11 1.10 1.36
-3.90 1.07 1.40
-4.00 1.10 1.38
-4.17 1.16 1.35
-4.05 1.14 1.37
-4.24 1.21 1.33
-5.36 1.57 1.12
-4.49 -1.61 0.92
-4.77 -1.66 0.87
-4.97 -1.69 0.84
-4.66 -1.60 0.89
-4.78 -1.61 0.87
-5.20 -1.69 0.80
-4.47 -1.51 0.93
-4.46 -1.49 0.93
-4.96 -1.58 0.84
-4.72 -1.51 0.89
-4.71 -1.49 0.89
-4.78 -1.49 0.88
-4.84 -1.48 0.86
-4.70 -1.44 0.89
-4.84 -1.45 0.87
-4.67 -1.40 0.90
-4.80 -1.40 0.87
-4.60 -1.35 0.91
-5.00 -1.41 0.84
-5.23 -1.43 0.80
-5.27 -1.43 0.79
-4.85 -1.33 0.87
-4.51 -1.23 0.93
-4.54 -1.22 0.92
-4.32 -1.17 0.96
-4.34 -1.15 0.96
-4.00 -1.08 1.02
-4.09 -1.08 1.01
-3.93 -1.04 1.04
-3.96 -1.03 1.03
-4.11 -1.04 1.00
-3.73 -0.96 1.07
-3.91 -0.97 1.04
-4.12 -0.99 1.00
-4.09 -0.97 1.01
-3.94 -0.93 1.04
-3.72 -0.89 1.08
-3.54 -0.84 1.11
-3.85 -0.87 1.05
-3.69 -0.84 1.08
-3.91 -0.85 1.04
-4.85 -0.96 0.87
-4.55 -0.91 0.92
-4.34 -0.86 0.96
-4.50 -0.87 0.94
-5.04 -0.92 0.84
-4.77 -0.87 0.89
-4.79 -0.85 0.88
-4.86 -0.84 0.87
-5.41 -0.89 0.77
-6.00 -0.94 0.66
-5.60 -0.87 0.73
-3.43 -0.62 1.13
-5.48 -0.82 0.76
-5.11 -0.77 0.82
-6.02 -0.84 0.66
-5.62 -0.78 0.73
-5.38 -0.74 0.77
-5.68 -0.75 0.72
-5.42 -0.70 0.77
-5.41 -0.68 0.77
-5.55 -0.68 0.74
-5.50 -0.66 0.75
-5.21 -0.61 0.80
-5.37 -0.61 0.78
-5.15 -0.57 0.82
-5.27 -0.56 0.80
-5.29 -0.55 0.79
-5.46 -0.54 0.76
-5.37 -0.52 0.78
-5.51 -0.51 0.75
-5.47 -0.48 0.76
-5.69 -0.48 0.72
-5.78 -0.46 0.70
-5.69 -0.44 0.72
-5.76 -0.43 0.70
-6.06 -0.42 0.65
-5.94 -0.40 0.67
-5.91 -0.37 0.68
-5.78 -0.35 0.70
-5.82 -0.33 0.69
-5.98 -0.32 0.66
-5.94 -0.30 0.67
-6.03 -0.28 0.65
-5.85 -0.25 0.69
-5.73 -0.23 0.71
-5.73 -0.21 0.71
-5.65 -0.19 0.72
-5.89 -0.18 0.68
-5.78 -0.16 0.70
-5.89 -0.14 0.68
-7.30 -0.11 0.84
-7.38 -0.09 0.83
-7.24 -0.07 0.85
-7.18 -0.06 0.86
-7.05 -0.04 0.89
-7.26 -0.02 0.85
-5.52 -0.00 0.68
-5.13 0.02 0.75
-5.32 0.04 0.71
-4.92 0.05 0.79
-4.57 0.07 0.86
-4.32 0.08 0.90
-4.81 0.10 0.81
-4.84 0.12 0.80
-4.82 0.14 0.81
-5.15 0.16 0.74
-6.29 0.21 0.53
-7.40 0.20 0.76
-7.12 0.21 0.81
-7.31 0.23 0.77
-7.02 0.24 0.82
-6.99 0.25 0.83
-7.08 0.28 0.81
-7.02 0.29 0.82
-7.23 0.32 0.78
-7.28 0.34 0.77
-7.42 0.36 0.75
-7.31 0.37 0.77
-7.37 0.40 0.76
-7.44 0.42 0.74
-7.76 0.45 0.68
-7.99 0.49 0.64
-8.04 0.51 0.63
-8.05 0.53 0.63
-8.06 0.55 0.62
-5.34 0.38 1.13
-5.43 0.40 1.12
-8.15 0.62 0.61
-5.20 0.41 1.16
-7.69 0.62 0.69
-7.02 0.59 0.82
-6.62 0.57 0.89
-6.30 0.56 0.95
-6.61 0.60 0.89
-6.71 0.63 0.87
-6.59 0.63 0.90
-6.39 0.63 0.93
-6.83 0.69 0.85
-6.68 0.69 0.88
-7.35 0.78 0.75
-6.91 0.77 0.83
-7.00 0.79 0.81
-6.51 0.76 0.91
-7.20 0.85 0.77
-6.75 0.82 0.86
-6.56 0.81 0.89
-5.88 0.76 1.02
-5.90 0.78 1.02
-4.18 0.83 1.33
-3.69 0.77 1.42
-4.03 0.87 1.35
-4.09 0.90 1.34
-3.89 0.87 1.38
-3.84 0.87 1.39
-3.82 0.89 1.39
-3.88 0.94 1.37
-3.85 0.94 1.38
-3.90 0.97 1.37
-3.95 0.99 1.36
-3.91 0.99 1.37
-3.93 1.00 1.36
-3.87 1.00 1.37
-3.92 1.02 1.36
-3.92 1.04 1.36
-3.92 1.05 1.36
-3.97 1.07 1.35
-3.88 1.06 1.37
-3.86 1.06 1.37
-3.86 1.08 1.37
-3.88 1.09 1.36
-3.93 1.12 1.35
-1.80 -1.57 1.37
-1.42 -1.14 1.45
-1.90 -1.28 1.36
-2.14 -1.13 1.32
-4.86 -1.65 0.80
-4.55 -1.56 0.86
-4.79 -1.59 0.81
-4.53 -1.52 0.86
-4.73 -1.55 0.82
-4.57 -1.49 0.85
-4.55 -1.47 0.86
-4.58 -1.46 0.85
-2.60 -0.98 1.24
-4.31 -1.31 0.91
-4.19 -1.27 0.93
-4.19 -1.20 0.93
-4.16 -1.15 0.94
-3.59 -1.04 1.05
-3.57 -1.02 1.05
-3.87 -1.05 0.99
-4.21 -1.10 0.93
-4.11 -1.06 0.95
-3.28 -0.89 1.11
-3.65 -0.93 1.04
-3.41 -0.88 1.08
-4.07 -0.97 0.96
-3.24 -0.83 1.12
-3.30 -0.82 1.10
-3.41 -0.82 1.08
-3.52 -0.83 1.06
-3.11 -0.76 1.14
-3.44 -0.79 1.08
-3.79 -0.82 1.01
-2.60 -0.65 1.24
-3.03 -0.69 1.16
-2.94 -0.67 1.18
-2.92 -0.65 1.18
-2.88 -0.64 1.19
-3.35 -0.68 1.10
-3.03 -0.63 1.16
-3.36 -0.65 1.10
-2.27 -0.51 1.30
-2.92 -0.57 1.18
-5.74 -0.85 0.64
-2.50 -0.50 1.26
-2.56 -0.49 1.25
-3.04 -0.53 1.16
-2.43 -0.46 1.27
-2.43 -0.44 1.27
-2.58 -0.45 1.24
-2.38 -0.42 1.28
-2.56 -0.42 1.25
-2.87 -0.44 1.19
-5.51 -0.64 0.68
-2.49 -0.38 1.26
-5.23 -0.58 0.74
-5.06 -0.55 0.77
-5.21 -0.52 0.74
-6.36 -0.58 0.52
-5.79 -0.52 0.63
-5.63 -0.49 0.66
-5.55 -0.47 0.68
-6.06 -0.48 0.58
-5.59 -0.43 0.67
-6.22 -0.45 0.55
-5.81 -0.41 0.63
-5.80 -0.39 0.63
-5.85 -0.37 0.62
-6.00 -0.36 0.59
-5.79 -0.27 0.63
-5.37 -0.24 0.71
-4.95 -0.21 0.79
-5.32 -0.20 0.72
-5.59 -0.19 0.67
-5.36 -0.17 0.71
-5.21 -0.14 0.74
-4.46 -0.11 0.88
-5.26 -0.11 0.73
-5.58 -0.09 0.67
-5.40 -0.07 0.70
-5.62 -0.06 0.66
-5.67 -0.04 0.65
-5.62 -0.02 0.66
-6.75 -0.00 0.81
-6.74 0.01 0.82
-6.69 0.03 0.82
-6.66 0.05 0.83
-6.67 0.06 0.83
-6.61 0.08 0.84
-6.71 0.10 0.82
-6.69 0.11 0.82
-6.63 0.13 0.84
-6.76 0.15 0.81
-6.66 0.16 0.83
-6.75 0.18 0.81
-6.81 0.20 0.80
-6.78 0.21 0.80
-6.81 0.23 0.80
-6.81 0.25 0.80
-6.88 0.27 0.78
-6.89 0.29 0.78
-6.87 0.30 0.79
-6.82 0.32 0.79
-6.96 0.34 0.77
-7.11 0.36 0.74
-7.25 0.39 0.71
-7.62 0.43 0.64
-7.54 0.44 0.65
-7.57 0.46 0.65
-7.56 0.48 0.65
-7.73 0.51 0.61
-7.94 0.54 0.57
-7.81 0.55 0.60
-7.65 0.56 0.63
-7.71 0.59 0.61
-7.76 0.61 0.61
-7.78 0.63 0.60
-7.73 0.64 0.61
-7.85 0.67 0.58
-8.07 0.71 0.54
-7.86 0.71 0.58
-8.04 0.75 0.54
-8.08 0.77 0.54
-8.06 0.79 0.54
-6.94 0.74 0.76
-6.76 0.74 0.79
-6.64 0.74 0.82
-6.58 0.75 0.83
-6.56 0.76 0.83
-6.65 0.79 0.81
-6.57 0.80 0.83
-6.73 0.84 0.80
-6.62 0.84 0.82
-6.64 0.86 0.81
-6.63 0.87 0.81
-6.62 0.89 0.81
-6.51 0.89 0.84
-6.38 0.89 0.86
-6.27 0.89 0.88
-6.38 0.92 0.86
-5.72 0.86 0.99
-5.97 1.02 0.93
-5.92 1.03 0.94
-5.58 1.00 1.01
-4.66 0.93 1.19
-4.32 0.88 1.25
-4.03 0.84 1.31
-3.99 0.87 1.32
-4.05 0.92 1.30
-4.03 0.92 1.31
-4.06 0.96 1.30
-4.15 0.99 1.28
-3.95 0.96 1.32
-4.15 1.02 1.28
-4.13 1.02 1.28
-4.15 1.04 1.28
-3.90 0.99 1.33
-4.07 1.04 1.29
-3.95 1.03 1.31
-4.05 1.06 1.29
-4.01 1.06 1.30
-3.88 1.04 1.33
-3.92 1.06 1.32
-4.25 1.16 1.25
-3.98 1.10 1.30
-4.04 1.12 1.29
-3.91 1.11 1.32
-4.00 1.15 1.30
-4.06 1.18 1.28
-4.34 -1.68 0.83
-4.45 -1.69 0.81
-4.53 -1.68 0.79
-4.52 -1.66 0.79
-4.47 -1.63 0.80
-4.59 -1.64 0.78
-4.49 -1.60 0.80
-4.67 -1.62 0.77
-4.65 -1.60 0.77
-4.75 -1.61 0.75
-4.72 -1.58 0.76
-4.32 -1.48 0.84
-4.18 -1.43 0.87
-4.78 -1.54 0.75
-4.48 -1.46 0.81
-4.56 -1.46 0.79
-4.45 -1.42 0.81
-4.46 -1.41 0.81
-4.46 -1.39 0.81
-4.46 -1.37 0.81
-4.34 -1.33 0.84
-4.37 -1.32 0.83
-4.28 -1.29 0.85
-4.34 -1.28 0.84
-4.42 -1.28 0.82
-4.22 -1.23 0.86
-4.22 -1.21 0.86
-4.21 -1.20 0.87
-4.20 -1.18 0.87
-4.34 -1.19 0.84
-4.06 -1.12 0.90
-4.15 -1.12 0.88
-4.36 -1.14 0.84
-4.14 -1.09 0.88
-4.05 -1.06 0.90
-3.87 -1.01 0.94
-4.05 -1.03 0.90
-3.97 -1.00 0.92
-3.97 -0.98 0.92
-3.95 -0.97 0.92
-3.69 -0.91 0.97
-4.00 -0.94 0.91
-3.84 -0.90 0.94
-4.25 -0.95 0.86
-4.18 -0.92 0.88
-4.41 -0.94 0.83
-4.54 -0.94 0.80
-4.40 -0.90 0.83
-4.42 -0.89 0.83
-4.20 -0.85 0.87
-4.50 -0.87 0.81
-4.57 -0.86 0.80
-4.47 -0.83 0.82
-4.79 -0.85 0.75
-4.91 -0.85 0.73
-3.42 -0.66 1.03
-4.91 -0.82 0.73
-5.02 -0.81 0.71
-4.90 -0.78 0.73
-4.94 -0.77 0.72
-5.38 -0.79 0.64
-5.14 -0.75 0.69
-5.31 -0.75 0.65
-5.38 -0.74 0.64
-5.28 -0.71 0.66
-5.30 -0.69 0.65
-5.20 -0.67 0.67
-5.08 -0.64 0.70
-5.47 -0.65 0.62
-5.68 -0.65 0.58
-5.49 -0.62 0.62
-5.69 -0.62 0.57
-5.39 -0.57 0.64
-5.17 -0.54 0.68
-4.97 -0.51 0.72
-5.10 -0.50 0.69
-5.31 -0.49 0.65
-5.97 -0.52 0.52
-5.61 -0.48 0.59
-5.46 -0.45 0.62
-5.31 -0.42 0.65
-5.00 -0.39 0.71
-5.41 -0.39 0.63
-4.95 -0.35 0.72
-4.92 -0.33 0.73
-5.77 -0.35 0.56
-5.17 -0.31 0.68
-5.44 -0.30 0.62
-6.64 -0.25 0.84
-6.71 -0.24 0.83
-6.67 -0.22 0.83
-6.56 -0.20 0.85
-6.75 -0.19 0.82
-6.64 -0.17 0.84
-6.63 -0.15 0.84
-6.68 -0.14 0.83
-6.83 -0.12 0.80
-6.83 -0.10 0.80
-6.78 -0.09 0.81
-6.76 -0.07 0.81
-6.90 -0.05 0.79
-6.86 -0.04 0.79
-6.81 -0.02 0.80
-5.45 -0.00 0.56
-5.67 0.02 0.51
-5.71 0.04 0.50
-5.70 0.06 0.50
-5.62 0.07 0.52
-5.57 0.09 0.53
-5.01 0.10 0.65
-6.96 0.15 0.24
-6.17 0.16 0.41
-5.17 0.16 0.61
-5.16 0.18 0.61
-5.29 0.20 0.59
-5.39 0.22 0.57
-5.68 0.25 0.50
-6.02 0.28 0.43
-5.94 0.30 0.45
-6.04 0.32 0.43
-5.59 0.32 0.52
-5.41 0.33 0.56
-5.74 0.37 0.49
-7.08 0.34 0.69
-7.42 0.38 0.62
-7.39 0.40 0.62
-7.42 0.42 0.62
-7.47 0.44 0.61
-7.79 0.47 0.54
-7.55 0.48 0.59
-8.08 0.53 0.48
-8.10 0.55 0.48
-8.19 0.58 0.46
-7.72 0.56 0.55
-7.80 0.59 0.54
-5.75 0.45 0.95
-8.07 0.65 0.48
-7.67 0.64 0.56
-7.83 0.67 0.53
-8.03 0.71 0.49
-5.22 0.49 1.06
-6.00 0.58 0.90
-5.04 0.50 1.09
-6.15 0.62 0.87
-6.76 0.77 0.74
-6.68 0.77 0.76
-6.63 0.79 0.76
-6.64 0.80 0.76
-6.55 0.81 0.78
-6.65 0.84 0.76
-6.59 0.85 0.77
-6.74 0.88 0.74
-6.65 0.89 0.76
-6.92 0.94 0.70
-6.82 0.95 0.72
-8.06 1.38 0.45
-4.35 0.85 1.22
-3.97 0.79 1.30
-3.82 0.84 1.32
-3.85 0.87 1.31
-3.76 0.86 1.33
-3.93 0.91 1.30
-3.84 0.90 1.31
-3.77 0.89 1.33
-3.74 0.90 1.33
-3.91 0.95 1.30
-3.65 0.90 1.35
-3.85 0.95 1.31
-3.56 0.90 1.37
-3.67 0.93 1.34
-3.61 0.93 1.35
-3.63 0.94 1.35
-3.83 1.00 1.31
-3.67 0.97 1.34
-3.66 0.98 1.34
-3.67 0.99 1.34
-3.96 1.08 1.28
-3.80 1.05 1.31
-3.71 1.03 1.33
-3.84 1.08 1.30
-3.70 1.05 1.33
-3.88 1.12 1.29
-3.70 1.09 1.33
-3.54 1.06 1.36
-4.51 -1.35 0.75
-4.23 -1.27 0.81
-2.04 -0.83 1.27
-2.04 -0.82 1.27
-4.09 -1.12 0.84
-2.05 -0.76 1.27
-3.95 -1.07 0.87
-3.71 -1.01 0.92
-3.77 -1.01 0.91
-3.85 -0.99 0.89
-4.07 -1.01 0.85
-7.16 -1.48 0.20
-3.70 -0.91 0.92
-3.51 -0.87 0.97
-3.84 -0.90 0.90
-3.40 -0.82 0.99
-3.29 -0.79 1.01
-4.16 -0.90 0.83
-3.43 -0.77 0.98
-3.60 -0.75 0.95
-4.21 -0.80 0.82
-3.65 -0.71 0.94
-5.49 -0.80 0.56
-5.44 -0.78 0.57
-5.31 -0.75 0.59
-2.50 -0.46 1.18
-2.49 -0.45 1.18
-6.17 -0.77 0.41
-3.22 -0.49 1.03
-5.84 -0.70 0.48
-2.79 -0.43 1.12
-3.30 -0.46 1.01
-5.40 -0.59 0.57
-3.27 -0.39 1.02
-5.24 -0.51 0.61
-5.82 -0.53 0.49
-3.69 -0.35 0.93
-3.85 -0.33 0.89
-3.85 -0.31 0.89
-3.71 -0.29 0.92
-4.08 -0.29 0.85
-4.31 -0.29 0.80
-5.06 -0.28 0.64
-5.29 -0.27 0.60
-5.74 -0.27 0.50
-3.84 -0.19 0.90
-5.32 -0.22 0.59
-5.19 -0.20 0.61
-5.19 -0.18 0.61
-4.90 -0.16 0.67
-4.96 -0.14 0.66
-5.04 -0.12 0.65
-5.19 -0.11 0.61
-5.21 -0.09 0.61
-5.22 -0.07 0.61
-5.46 -0.06 0.56
-5.61 -0.04 0.53
-5.40 -0.02 0.57
-6.42 -0.00 0.76
-6.41 0.01 0.76
-6.34 0.03 0.78
-6.44 0.04 0.75
-6.47 0.06 0.75
-6.60 0.08 0.72
-6.49 0.09 0.74
-6.63 0.11 0.71
-6.62 0.13 0.71
-6.66 0.14 0.70
-6.66 0.16 0.70
-6.78 0.18 0.68
-6.82 0.20 0.67
-6.74 0.21 0.69
-6.83 0.23 0.67
-6.68 0.24 0.70
-6.73 0.26 0.69
-6.77 0.28 0.68
-6.83 0.30 0.67
-6.79 0.31 0.67
-6.94 0.34 0.64
-7.08 0.36 0.61
-7.21 0.39 0.58
-7.14 0.40 0.60
-7.36 0.43 0.55
-7.48 0.46 0.52
-7.49 0.48 0.52
-6.15 0.41 0.80
-7.48 0.51 0.52
-7.64 0.54 0.49
-6.41 0.47 0.75
-6.13 0.47 0.81
-7.35 0.58 0.55
-7.49 0.61 0.52
-6.35 0.53 0.76
-6.11 0.53 0.81
-5.78 0.55 0.88
-6.33 0.61 0.76
-6.59 0.65 0.70
-6.40 0.65 0.74
-6.38 0.66 0.75
-6.43 0.69 0.74
-6.52 0.71 0.72
-6.53 0.73 0.72
-6.70 0.76 0.68
-6.75 0.79 0.66
-6.85 0.81 0.64
-6.66 0.81 0.68
-6.61 0.82 0.69
-6.61 0.84 0.69
-6.69 0.86 0.67
-6.65 0.88 0.68
-6.70 0.90 0.67
-6.62 0.91 0.69
-6.80 0.95 0.65
-6.87 0.97 0.63
-7.24 1.04 0.55
-7.13 1.05 0.57
-5.19 0.80 0.99
-5.68 0.89 0.88
-5.62 0.89 0.90
-5.46 0.88 0.93
-5.81 0.95 0.86
-5.77 0.96 0.86
-5.75 0.97 0.87
-5.94 1.02 0.83
-5.57 0.97 0.90
-4.04 0.73 1.23
-5.40 0.97 0.94
-4.31 0.80 1.17
-4.26 0.80 1.18
-4.33 0.82 1.17
-4.10 0.79 1.22
-4.24 0.83 1.19
-4.45 0.88 1.14
-4.22 0.85 1.19
-4.05 0.83 1.23
-4.06 0.84 1.22
-3.96 0.83 1.24
-3.99 0.86 1.24
-4.13 0.90 1.21
-4.05 0.89 1.22
-4.17 0.95 1.19
-3.95 0.92 1.24
-3.90 0.92 1.25
-3.81 0.91 1.27
-3.74 0.90 1.29
-3.92 0.95 1.25
-3.71 0.92 1.29
-3.91 0.97 1.25
-3.74 0.95 1.28
-3.88 0.99 1.25
-4.09 1.05 1.20
-3.89 1.01 1.25
-3.89 1.02 1.25
-3.81 1.01 1.26
-3.78 1.02 1.27
-3.96 1.07 1.23
-3.64 1.01 1.30
-4.28 -1.57 0.72
-4.78 -1.63 0.61
-5.13 -1.69 0.54
-5.06 -1.66 0.55
-4.27 -1.45 0.73
-4.23 -1.43 0.74
-4.42 -1.45 0.70
-4.47 -1.45 0.68
-4.32 -1.40 0.72
-4.30 -1.38 0.72
-4.43 -1.39 0.69
-4.21 -1.33 0.74
-4.21 -1.31 0.74
-4.19 -1.29 0.75
-4.13 -1.26 0.76
-4.10 -1.24 0.77
-4.27 -1.26 0.73
-3.96 -1.18 0.80
-3.96 -1.17 0.80
-3.96 -1.15 0.80
-4.13 -1.17 0.76
-3.96 -1.12 0.80
-3.99 -1.11 0.79
-4.15 -1.12 0.76
-4.00 -1.08 0.79
-3.86 -1.04 0.82
-4.10 -1.07 0.77
-4.02 -1.04 0.79
-4.02 -1.02 0.79
-4.15 -1.03 0.76
-4.00 -0.99 0.79
-3.91 -0.96 0.82
-3.22 -0.84 0.96
-4.10 -0.96 0.77
-4.21 -0.96 0.75
-4.31 -0.96 0.73
-4.36 -0.95 0.72
-4.45 -0.95 0.70
-4.29 -0.91 0.73
-4.29 -0.89 0.73
-4.74 -0.94 0.63
-4.71 -0.91 0.64
-4.67 -0.89 0.65
-4.52 -0.86 0.68
-4.90 -0.89 0.60
-4.62 -0.84 0.66
-4.83 -0.84 0.62
-4.39 -0.77 0.71
-4.91 -0.82 0.60
-4.91 -0.80 0.60
-4.87 -0.78 0.61
-4.78 -0.75 0.63
-4.91 -0.75 0.60
-4.95 -0.73 0.59
-5.06 -0.73 0.57
-5.23 -0.73 0.53
-3.10 -0.51 0.99
-5.23 -0.69 0.53
-5.45 -0.69 0.48
-4.92 -0.63 0.60
-5.12 -0.63 0.55
-4.90 -0.59 0.60
-5.24 -0.60 0.53
-5.17 -0.58 0.54
-5.12 -0.56 0.55
-5.64 -0.57 0.44
-4.68 -0.49 0.65
-5.28 -0.51 0.52
-5.13 -0.48 0.55
-5.24 -0.47 0.53
-3.85 -0.37 0.83
-5.52 -0.45 0.47
-6.55 -0.38 0.73
-6.76 -0.37 0.69
-6.85 -0.36 0.67
-6.51 -0.33 0.74
-6.94 -0.33 0.65
-6.75 -0.30 0.69
-6.45 -0.28 0.76
-6.67 -0.27 0.71
-6.88 -0.26 0.66
-6.72 -0.24 0.70
-6.74 -0.22 0.69
-6.74 -0.20 0.69
-6.68 -0.19 0.70
-6.47 -0.16 0.75
-6.44 -0.15 0.76
-6.31 -0.13 0.78
-6.37 -0.11 0.77
-6.43 -0.10 0.76
-6.46 -0.08 0.75
-6.40 -0.07 0.76
-6.33 -0.05 0.78
-6.39 -0.04 0.76
-6.30 -0.02 0.78
-4.68 -0.00 0.58
-4.58 0.01 0.60
-4.67 0.03 0.58
-6.47 0.06 0.69
-6.37 0.07 0.71
-6.45 0.11 0.69
-6.49 0.12 0.68
-6.53 0.16 0.67
-6.61 0.19 0.65
-6.59 0.21 0.66
-6.68 0.24 0.63
-6.68 0.26 0.63
-6.58 0.29 0.65
-6.41 0.31 0.69
-7.05 0.36 0.55
-7.12 0.40 0.53
-7.22 0.42 0.51
-7.37 0.47 0.48
-7.12 0.49 0.53
-6.87 0.49 0.58
-5.95 0.45 0.79
-6.23 0.49 0.73
-5.83 0.49 0.81
-6.79 0.60 0.60
-5.90 0.57 0.80
-8.54 0.83 0.20
-7.30 0.75 0.48
-6.53 0.71 0.65
-6.46 0.72 0.67
-6.51 0.76 0.65
-6.76 0.80 0.60
-6.71 0.83 0.61
-6.68 0.86 0.61
-6.61 0.87 0.63
-6.92 0.94 0.56
-5.21 0.76 0.94
-4.13 0.71 1.18
-4.85 0.84 1.01
-5.47 0.95 0.87
-3.98 0.73 1.21
-4.07 0.77 1.19
-3.91 0.78 1.22
-3.91 0.80 1.22
-4.00 -1.37 0.73
-4.01 -1.36 0.73
-3.82 -1.30 0.77
-3.88 -1.30 0.76
-3.77 -1.26 0.78
-3.89 -1.27 0.75
-3.94 -1.27 0.74
-3.75 -1.22 0.79
-3.94 -1.24 0.74
-4.02 -1.24 0.73
-2.01 -0.84 1.19
-3.55 -1.12 0.84
-3.78 -1.15 0.78
-3.68 -1.11 0.80
-3.51 -1.07 0.85
-1.73 -0.73 1.25
-3.60 -1.05 0.83
-3.85 -1.08 0.77
-3.97 -1.09 0.74
-3.53 -1.00 0.84
-3.59 -1.00 0.83
-3.71 -1.00 0.80
-3.58 -0.97 0.83
-3.69 -0.97 0.81
-3.82 -0.97 0.78
-3.78 -0.95 0.79
-3.78 -0.94 0.79
-3.82 -0.93 0.78
-3.84 -0.92 0.77
-4.09 -0.94 0.72
-3.34 -0.82 0.89
-3.92 -0.88 0.76
-4.54 -0.96 0.61
-4.55 -0.94 0.61
-4.29 -0.89 0.67
-4.38 -0.89 0.65
-4.19 -0.85 0.69
-3.60 -0.76 0.83
-4.36 -0.84 0.65
-4.47 -0.83 0.63
-4.57 -0.83 0.61
-4.55 -0.81 0.61
-4.77 -0.82 0.56
-4.77 -0.80 0.56
-2.62 -0.55 1.05
-2.43 -0.51 1.10
-2.79 -0.54 1.01
-2.47 -0.50 1.09
-3.12 -0.55 0.94
-3.57 -0.58 0.84
-2.72 -0.49 1.03
-3.03 -0.50 0.96
-3.33 -0.52 0.89
-3.21 -0.49 0.92
-2.53 -0.42 1.07
-2.84 -0.44 1.00
-2.95 -0.43 0.98
-3.76 -0.48 0.79
-3.51 -0.45 0.85
-5.07 -0.55 0.50
-5.25 -0.55 0.45
-5.04 -0.51 0.50
-3.78 -0.41 0.79
-3.89 -0.40 0.76
-4.18 -0.41 0.70
-3.86 -0.37 0.77
-4.29 -0.38 0.67
-4.05 -0.35 0.73
-4.21 -0.35 0.69
-4.42 -0.34 0.64
-3.73 -0.29 0.80
-3.69 -0.28 0.81
-3.32 -0.25 0.89
-3.68 -0.25 0.81
-3.89 -0.24 0.76
-4.01 -0.23 0.73
-4.01 -0.21 0.73
-4.10 -0.20 0.71
-4.24 -0.19 0.68
-4.24 -0.17 0.68
-4.48 -0.17 0.63
-4.13 -0.14 0.70
-4.01 -0.12 0.73
-4.47 -0.12 0.63
-4.46 -0.10 0.63
-4.46 -0.08 0.63
-4.36 -0.07 0.65
-4.58 -0.05 0.60
-4.64 -0.04 0.59
-4.58 -0.02 0.60
-6.15 0.03 0.69
-6.35 0.04 0.65
-6.36 0.06 0.65
-6.36 0.07 0.65
-6.47 0.09 0.62
-6.77 0.11 0.55
-6.55 0.12 0.60
-6.51 0.14 0.61
-6.75 0.16 0.55
-6.66 0.18 0.57
-6.81 0.20 0.54
-6.83 0.21 0.53
-6.86 0.23 0.53
-6.82 0.25 0.53
-6.83 0.26 0.53
-6.87 0.28 0.52
-7.10 0.31 0.47
-7.00 0.32 0.49
-8.05 0.39 0.25
-8.01 0.41 0.26
-6.97 0.37 0.50
-7.05 0.40 0.48
-7.06 0.41 0.48
-8.09 0.49 0.24
-8.21 0.54 0.21
-8.23 0.56 0.20
-8.18 0.58 0.21
-6.02 0.52 0.71
-6.39 0.57 0.62
-6.78 0.69 0.53
-6.75 0.70 0.54
-6.69 0.71 0.55
-6.86 0.74 0.51
-6.89 0.76 0.50
-7.04 0.80 0.47
-6.84 0.83 0.51
-6.92 0.86 0.49
-6.95 0.88 0.48
-7.03 0.90 0.46
-7.04 0.92 0.46
-8.11 1.08 0.21
-5.29 0.77 0.87
-5.40 0.83 0.84
-5.70 0.93 0.77
-5.75 0.95 0.75
-3.71 -1.22 0.74
-3.92 -1.24 0.69
-3.76 -1.19 0.73
-3.88 -1.20 0.70
-3.63 -1.13 0.76
-3.58 -1.11 0.77
-3.87 -1.15 0.70
-3.72 -1.11 0.74
-3.75 -1.10 0.73
-3.74 -1.08 0.73
-3.77 -1.07 0.73
-3.96 -1.09 0.68
-4.26 -1.11 0.61
-4.14 -1.07 0.64
-4.96 -1.19 0.44
-4.78 -1.15 0.49
-4.08 -1.02 0.66
-4.25 -1.03 0.62
-4.30 -1.02 0.60
-4.13 -0.98 0.64
-4.25 -0.98 0.61
-4.15 -0.95 0.64
-4.37 -0.97 0.59
-4.40 -0.95 0.58
-4.56 -0.96 0.54
-4.50 -0.94 0.56
-4.52 -0.92 0.55
-4.61 -0.92 0.53
-4.57 -0.90 0.54
-4.08 -0.82 0.66
-4.56 -0.86 0.54
-4.70 -0.86 0.51
-4.64 -0.84 0.52
-4.89 -0.85 0.47
-4.71 -0.79 0.51
-4.29 -0.73 0.61
-4.70 -0.76 0.51
-4.88 -0.75 0.47
-4.50 -0.39 0.56
-4.52 -0.38 0.55
-4.50 -0.36 0.56
-4.13 -0.33 0.65
-4.24 -0.32 0.62
-4.60 -0.32 0.53
-4.27 -0.29 0.61
-4.42 -0.28 0.58
-4.33 -0.26 0.60
-4.28 -0.24 0.61
-4.33 -0.23 0.60
-4.14 -0.20 0.64
-4.08 -0.19 0.65
-4.26 -0.18 0.61
-4.29 -0.16 0.61
-4.21 -0.14 0.62
-4.24 -0.13 0.62
-6.34 -0.11 0.65
-6.00 -0.09 0.73
-0.63 -1.56 1.29
-1.07 -1.59 1.18
