# .PCD v0.7 - Point Cloud Data file format
VERSION 0.7
FIELDS x y z
SIZE 4 4 4
TYPE F F F
COUNT 1 1 1
WIDTH 2181
HEIGHT 1
VIEWPOINT 0 0 0 1 0 0 0
POINTS 2181
DATA ASCII
-9.11 0.77 2.07
-8.78 0.98 2.07
-8.94 0.84 1.94
-8.67 0.37 1.92
-8.84 0.57 1.91
-8.67 0.61 1.91
-8.56 0.62 1.92
-9.97 1.01 1.87
-9.03 0.56 1.84
-9.03 0.76 1.84
-8.73 0.76 1.85
-9.29 0.85 1.83
-8.57 0.64 1.82
-8.65 0.77 1.82
-8.61 0.79 1.82
-8.79 0.92 1.81
-8.99 0.98 1.80
-10.50 1.30 1.74
-11.77 1.54 1.69
-8.72 0.54 1.78
-8.91 0.60 1.78
-8.57 0.64 1.79
-8.82 0.72 1.78
-8.97 0.78 1.77
-8.84 0.79 1.78
-8.81 0.81 1.78
-8.80 0.87 1.78
-8.60 0.88 1.79
-9.17 0.98 1.76
-8.96 0.98 1.77
-8.93 1.00 1.77
-8.98 1.03 1.77
-9.04 1.06 1.76
-9.04 1.10 1.76
-11.58 1.54 1.65
-11.68 1.61 1.64
-12.06 1.69 1.62
-8.95 0.80 1.74
-8.95 0.95 1.73
-11.59 1.63 1.60
-8.67 0.48 1.71
-8.85 0.55 1.70
-9.15 0.62 1.68
-9.23 0.64 1.68
-9.32 0.67 1.67
-9.21 0.69 1.68
-9.27 0.71 1.68
-9.36 0.74 1.67
-8.93 0.73 1.69
-8.88 0.75 1.70
-8.85 0.77 1.70
-8.94 0.80 1.69
-8.93 0.82 1.69
-8.99 0.85 1.69
-8.91 0.86 1.69
-9.41 0.93 1.67
-8.88 0.91 1.69
-9.40 0.98 1.67
-9.05 0.97 1.69
-10.75 1.25 1.59
-11.31 1.40 1.56
-11.48 1.45 1.55
-11.50 1.48 1.55
-9.14 1.34 1.68
-8.51 0.59 1.68
-9.60 0.95 1.62
-11.32 1.39 1.51
-3.85 0.51 1.95
-8.16 0.29 1.67
-7.95 0.30 1.68
-8.32 0.48 1.65
-8.90 0.60 1.62
-8.79 0.68 1.62
-9.73 0.87 1.56
-9.60 0.90 1.57
-9.70 0.94 1.57
-9.29 0.92 1.59
-10.00 1.01 1.55
-8.62 0.96 1.63
-10.23 1.16 1.53
-10.96 1.27 1.48
-11.18 1.32 1.47
-11.35 1.37 1.46
-10.93 1.35 1.48
-11.12 1.40 1.47
-11.01 1.41 1.48
-11.09 1.45 1.47
-11.33 1.51 1.46
-6.19 -1.46 1.66
-6.93 0.03 1.56
-6.55 0.05 1.58
-6.66 0.10 1.58
-8.24 0.55 1.61
-8.57 0.68 1.59
-9.25 0.80 1.54
-9.17 0.84 1.55
-9.06 0.85 1.56
-9.33 0.90 1.54
-11.15 1.34 1.41
-11.07 1.36 1.42
-11.18 1.40 1.41
-10.50 1.37 1.45
-10.96 1.46 1.42
-10.98 1.54 1.42
-8.08 0.13 1.59
-7.99 0.15 1.59
-7.82 0.16 1.61
-7.96 0.18 1.59
-7.78 0.20 1.61
-7.84 0.22 1.60
-8.04 0.24 1.59
-8.38 0.27 1.56
-7.90 0.28 1.60
-7.94 0.40 1.59
-8.54 0.49 1.55
-9.30 0.62 1.49
-8.62 0.60 1.54
-8.17 0.59 1.57
-8.49 0.63 1.55
-8.53 0.66 1.55
-8.84 0.70 1.53
-8.82 0.72 1.53
-9.02 0.76 1.51
-9.02 0.78 1.51
-9.21 0.82 1.50
-9.15 0.86 1.50
-9.25 0.94 1.49
-8.93 0.93 1.52
-8.66 0.92 1.53
-10.52 1.14 1.40
-8.58 0.96 1.54
-10.31 1.20 1.41
-10.91 1.29 1.37
-10.94 1.32 1.37
-10.73 1.32 1.38
-10.95 1.38 1.37
-10.65 1.39 1.39
-10.59 1.41 1.39
-10.35 1.46 1.41
-10.42 1.49 1.40
-10.68 1.56 1.38
-10.81 1.63 1.37
-6.53 -1.46 1.55
-6.36 -1.37 1.56
-5.89 -0.84 1.59
-6.62 0.07 1.49
-8.16 0.99 1.53
-8.11 1.01 1.53
-8.30 1.05 1.52
-11.03 1.41 1.30
-10.71 1.40 1.33
-10.78 1.43 1.32
-10.81 1.46 1.32
-10.77 1.49 1.32
-10.33 1.48 1.35
-10.87 1.66 1.31
-3.59 1.08 1.87
-6.96 -0.10 1.46
-6.69 -0.01 1.48
-7.86 0.01 1.52
-7.86 0.03 1.52
-7.35 0.04 1.56
-7.56 0.16 1.54
-8.26 0.19 1.48
-8.09 0.21 1.49
-7.84 0.22 1.51
-7.80 0.24 1.52
-7.94 0.26 1.51
-7.18 0.25 1.57
-7.75 0.29 1.52
-7.70 0.31 1.53
-7.22 0.31 1.56
-7.24 0.35 1.56
-7.83 0.39 1.51
-7.60 0.40 1.53
-8.21 0.45 1.48
-8.13 0.49 1.49
-8.29 0.58 1.47
-8.49 0.61 1.46
-8.10 0.61 1.49
-6.17 0.48 1.65
-8.51 0.68 1.45
-8.57 0.72 1.45
-8.82 0.77 1.43
-8.06 0.76 1.49
-8.45 0.82 1.46
-8.48 0.84 1.45
-8.50 0.87 1.45
-10.14 1.05 1.31
-8.18 0.88 1.48
-8.10 0.89 1.48
-7.92 0.89 1.50
-4.21 0.50 1.81
-7.95 0.93 1.49
-8.05 0.96 1.49
-7.95 0.97 1.49
-8.03 1.00 1.49
-8.13 1.03 1.48
-8.12 1.05 1.48
-4.81 0.65 1.76
-8.65 1.16 1.43
-10.68 1.45 1.26
-10.73 1.48 1.26
-10.55 1.49 1.27
-4.22 0.63 1.80
-10.44 1.52 1.28
-10.63 1.58 1.26
-3.77 0.72 1.84
-2.07 -1.05 1.82
-2.08 -1.04 1.82
-6.14 -1.05 1.48
-5.70 -0.94 1.52
-1.91 -0.48 1.83
-6.42 -0.64 1.46
-7.86 -0.03 1.52
-6.82 0.01 1.37
-7.16 0.03 1.34
-7.78 0.06 1.48
-8.07 0.19 1.45
-7.97 0.20 1.46
-7.68 0.25 1.49
-7.90 0.34 1.47
-7.75 0.35 1.48
-7.56 0.36 1.49
-7.40 0.37 1.51
-8.26 0.59 1.43
-8.52 0.63 1.41
-7.73 0.60 1.48
-10.86 1.15 1.19
-7.92 0.89 1.45
-8.01 0.96 1.45
-7.94 0.97 1.45
-8.09 1.01 1.44
-8.00 1.01 1.45
-8.01 1.04 1.44
-8.12 1.07 1.43
-8.13 1.09 1.43
-10.95 1.48 1.18
-10.77 1.51 1.20
-8.37 1.21 1.41
-0.52 -1.38 1.92
-6.70 -0.23 1.38
-6.63 -0.18 1.39
-6.67 -0.14 1.38
-6.64 -0.12 1.39
-7.06 -0.08 1.35
-6.86 -0.06 1.37
-6.84 -0.01 1.37
-7.76 0.01 1.43
-7.66 0.03 1.44
-7.62 0.04 1.45
-7.67 0.06 1.44
-7.65 0.08 1.44
-7.71 0.10 1.44
-7.76 0.12 1.43
-7.79 0.14 1.43
-7.85 0.16 1.42
-7.79 0.18 1.43
-7.97 0.20 1.41
-7.97 0.22 1.41
-7.98 0.24 1.41
-7.77 0.25 1.43
-8.02 0.28 1.41
-7.72 0.29 1.43
-7.85 0.31 1.42
-7.71 0.33 1.43
-7.90 0.36 1.42
-7.40 0.35 1.46
-7.69 0.38 1.44
-7.32 0.38 1.47
-7.55 0.41 1.45
-7.54 0.43 1.45
-7.79 0.47 1.42
-7.73 0.48 1.43
-8.11 0.52 1.39
-8.00 0.54 1.40
-8.39 0.60 1.37
-8.07 0.60 1.40
-8.69 0.67 1.34
-6.47 0.54 1.55
-7.94 0.69 1.41
-8.18 0.75 1.38
-8.00 0.76 1.40
-8.43 0.82 1.36
-8.20 0.81 1.38
-8.22 0.84 1.38
-9.33 0.97 1.27
-9.51 1.01 1.26
-8.15 0.89 1.38
-10.17 1.13 1.19
-10.40 1.18 1.17
-7.95 0.95 1.40
-8.15 0.99 1.38
-8.02 1.00 1.39
-8.08 1.02 1.39
-8.21 1.06 1.37
-8.16 1.08 1.38
-8.03 1.08 1.39
-8.16 1.12 1.38
-8.42 1.17 1.35
-3.88 0.57 1.79
-8.53 1.23 1.34
-8.59 1.26 1.34
-8.36 1.25 1.36
-8.44 1.28 1.35
-8.41 1.30 1.35
-8.32 1.31 1.36
-8.39 1.36 1.35
-8.82 1.45 1.31
-6.55 -0.18 1.34
-6.74 -0.17 1.32
-6.73 -0.14 1.32
-7.64 -0.01 1.45
-6.79 0.01 1.26
-6.65 0.03 1.28
-2.89 0.04 1.65
-6.78 0.16 1.26
-6.91 0.21 1.25
-6.81 0.23 1.26
-7.84 0.22 1.38
-7.85 0.24 1.37
-7.65 0.25 1.39
-7.89 0.28 1.37
-7.87 0.30 1.37
-7.64 0.31 1.39
-7.73 0.33 1.39
-7.35 0.35 1.42
-7.65 0.38 1.39
-7.63 0.40 1.39
-8.16 0.45 1.34
-8.10 0.46 1.35
-8.02 0.48 1.35
-8.44 0.52 1.31
-8.61 0.55 1.29
-8.16 0.55 1.34
-8.33 0.58 1.32
-8.05 0.58 1.35
-8.38 0.62 1.32
-8.88 0.68 1.27
-8.30 0.66 1.32
-8.25 0.69 1.33
-8.27 0.78 1.32
-7.99 0.79 1.35
-9.05 0.92 1.24
-8.53 0.89 1.30
-8.48 0.90 1.30
-9.53 1.03 1.19
-9.73 1.08 1.17
-9.82 1.11 1.16
-7.82 0.91 1.37
-8.09 0.96 1.34
-8.31 1.01 1.32
-4.40 0.56 1.71
-8.15 1.03 1.33
-8.19 1.06 1.33
-8.02 1.06 1.34
-8.15 1.09 1.33
-8.25 1.13 1.32
-8.46 1.17 1.30
-8.36 1.18 1.31
-5.22 0.77 1.62
-8.50 1.24 1.29
-8.41 1.25 1.30
-8.50 1.29 1.29
-8.36 1.29 1.30
-8.52 1.33 1.29
-8.41 1.34 1.30
-8.61 1.39 1.28
-8.41 1.38 1.30
-8.51 1.42 1.29
-9.14 1.54 1.22
-3.76 0.83 1.76
-3.09 1.14 1.82
-1.42 -1.63 1.80
-1.97 -1.06 1.75
-2.03 -1.06 1.74
-5.92 -1.32 1.36
-7.20 -0.38 1.23
-6.76 -0.28 1.27
-6.85 -0.19 1.26
-6.80 -0.17 1.26
-7.07 -0.15 1.24
-6.84 -0.10 1.26
-6.96 -0.06 1.25
-6.98 -0.04 1.24
-7.52 0.01 1.36
-7.58 0.02 1.35
-7.48 0.04 1.36
-7.50 0.06 1.36
-7.60 0.10 1.35
-7.73 0.12 1.33
-7.55 0.14 1.35
-7.32 0.15 1.38
-7.47 0.17 1.36
-7.63 0.19 1.34
-7.50 0.21 1.36
-7.68 0.25 1.34
-7.79 0.27 1.33
-7.51 0.28 1.36
-7.59 0.30 1.35
-7.52 0.32 1.35
-7.60 0.34 1.35
-7.31 0.35 1.38
-7.51 0.38 1.35
-7.80 0.41 1.32
-7.82 0.43 1.32
-7.56 0.43 1.35
-7.84 0.47 1.32
-7.57 0.47 1.35
-8.21 0.53 1.28
-8.19 0.55 1.28
-8.10 0.56 1.29
-8.07 0.60 1.29
-7.94 0.61 1.31
-7.81 0.62 1.32
-8.50 0.70 1.24
-4.66 0.40 1.66
-7.78 0.68 1.32
-8.46 0.78 1.25
-7.92 0.75 1.30
-9.31 0.90 1.15
-8.04 0.80 1.29
-8.16 0.83 1.28
-8.25 0.86 1.27
-8.95 0.95 1.19
-8.60 0.96 1.23
-5.43 0.63 1.57
-5.54 0.66 1.56
-5.06 0.62 1.61
-5.33 0.66 1.58
-5.19 0.66 1.59
-5.21 0.67 1.59
-5.08 0.68 1.60
-5.04 0.69 1.61
-5.15 0.72 1.60
-5.24 0.75 1.59
-5.39 0.78 1.57
-5.49 0.81 1.56
-5.35 0.80 1.57
-5.45 0.84 1.56
-8.32 1.29 1.25
-8.50 1.35 1.23
-8.69 1.43 1.21
-9.20 1.53 1.15
-8.99 1.54 1.17
-5.57 0.99 1.54
-4.89 1.03 1.61
-2.10 -1.38 1.70
-2.16 -1.22 1.70
-2.22 -1.20 1.69
-2.40 -1.08 1.67
-2.33 -1.03 1.68
-5.10 -1.30 1.39
-6.30 -0.21 1.49
-7.99 -0.11 1.31
-7.64 -0.09 1.35
-7.48 -0.03 1.36
-7.57 -0.01 1.35
-6.51 0.05 1.17
-6.20 0.21 1.21
-6.18 0.23 1.21
-6.41 0.26 1.18
-6.55 0.28 1.17
-6.44 0.30 1.18
-6.14 0.31 1.21
-6.02 0.33 1.23
-6.05 0.35 1.22
-6.64 0.41 1.15
-7.09 0.37 1.35
-8.45 0.86 1.19
-7.95 0.87 1.25
-8.14 1.03 1.22
-10.61 1.41 0.94
-10.50 1.42 0.95
-10.63 1.52 0.93
-11.14 1.62 0.87
-2.86 0.93 1.80
-2.85 0.97 1.80
-0.93 -1.23 1.81
-7.94 0.65 1.19
-8.19 0.69 1.16
-8.02 0.70 1.18
-8.47 0.76 1.13
-9.48 1.01 1.00
-8.44 1.03 1.13
-10.30 1.27 0.90
-4.78 0.66 1.57
-4.96 0.69 1.54
-4.91 0.71 1.55
-9.76 1.40 0.96
-9.49 1.44 0.99
-9.98 1.58 0.93
-8.89 1.46 1.06
-9.19 1.55 1.02
-9.34 1.63 1.00
-9.04 1.67 1.04
-9.26 -0.04 1.05
-7.43 0.11 1.21
-7.80 0.27 1.16
-7.39 0.28 1.22
-7.06 0.28 1.26
-7.51 0.32 1.20
-7.50 0.34 1.20
-7.42 0.39 1.21
-7.90 0.43 1.15
-7.39 0.42 1.21
-7.04 0.42 1.26
-7.10 0.44 1.25
-6.94 0.45 1.27
-7.24 0.49 1.23
-7.18 0.50 1.24
-7.24 0.54 1.23
-7.34 0.57 1.22
-7.63 0.61 1.18
-7.96 0.65 1.14
-7.83 0.66 1.15
-7.23 0.67 1.23
-7.76 0.73 1.16
-6.94 0.69 1.26
-6.85 0.70 1.27
-9.07 0.94 0.99
-7.73 0.82 1.16
-7.87 0.86 1.14
-7.90 0.90 1.14
-7.68 0.90 1.17
-7.63 0.91 1.17
-7.69 0.94 1.16
-6.24 0.78 1.35
-7.78 0.99 1.15
-7.65 1.01 1.17
-7.91 1.06 1.13
-5.85 0.81 1.40
-8.05 1.12 1.11
-5.07 0.73 1.50
-5.21 0.76 1.48
-5.22 0.78 1.48
-5.15 0.80 1.48
-5.24 0.82 1.47
-5.35 0.85 1.46
-5.33 0.87 1.46
-5.18 0.86 1.48
-8.75 1.43 1.02
-8.98 1.49 0.99
-9.07 1.55 0.97
-9.18 1.59 0.96
-9.05 1.59 0.98
-9.09 1.63 0.97
-8.88 1.61 1.00
-9.03 1.66 0.98
-3.96 0.90 1.63
-1.71 -1.26 1.66
-1.74 -1.25 1.66
-11.90 0.09 0.56
-5.63 0.09 1.40
-4.94 0.09 1.49
-7.28 0.18 1.18
-6.71 0.20 1.25
-6.91 0.24 1.22
-7.52 0.28 1.14
-7.46 0.30 1.15
-7.57 0.32 1.13
-7.52 0.34 1.14
-7.63 0.36 1.13
-7.79 0.39 1.10
-7.67 0.40 1.12
-7.73 0.42 1.11
-7.23 0.41 1.18
-7.35 0.44 1.16
-7.08 0.44 1.20
-7.04 0.46 1.20
-7.03 0.47 1.20
-7.07 0.49 1.20
-7.30 0.53 1.17
-7.28 0.54 1.17
-7.31 0.56 1.16
-7.25 0.58 1.17
-7.75 0.63 1.10
-7.96 0.67 1.08
-7.38 0.64 1.15
-7.55 0.67 1.13
-7.74 0.71 1.10
-7.44 0.70 1.14
-7.00 0.68 1.20
-7.33 0.73 1.16
-7.39 0.75 1.15
-7.82 0.81 1.09
-8.60 0.91 0.98
-7.79 0.85 1.09
-7.84 0.88 1.09
-7.88 0.90 1.08
-7.78 0.91 1.09
-8.02 0.96 1.06
-8.10 0.98 1.05
-9.77 1.20 0.82
-6.05 0.77 1.33
-6.08 0.79 1.32
-7.80 1.03 1.09
-7.63 1.03 1.11
-7.87 1.08 1.08
-7.95 1.11 1.07
-8.56 1.21 0.98
-8.58 1.23 0.98
-6.11 0.91 1.31
-6.07 0.92 1.32
-6.30 0.97 1.29
-6.05 0.94 1.32
-5.95 0.95 1.33
-5.68 0.92 1.37
-5.66 0.93 1.37
-8.31 1.36 1.01
-5.73 0.97 1.36
-5.52 0.95 1.39
-5.73 1.00 1.36
-5.54 0.98 1.39
-5.17 0.94 1.44
-9.10 1.63 0.90
-5.41 1.00 1.40
-9.11 1.68 0.89
-5.55 1.06 1.38
-2.01 -1.40 1.59
-2.54 -1.13 1.52
-5.83 -1.03 1.08
-5.84 -1.01 1.08
-5.23 -0.88 1.16
-3.80 -0.33 1.35
-4.11 -0.26 1.31
-4.04 -0.23 1.32
-3.71 -0.20 1.37
-4.17 -0.17 1.30
-4.12 -0.14 1.31
-7.22 0.00 0.82
-6.97 0.03 0.86
-7.16 0.05 0.83
-7.04 0.07 0.85
-7.30 0.10 0.81
-7.06 0.12 0.85
-6.99 0.14 0.85
-3.65 0.10 1.33
-5.98 0.16 1.00
-6.27 0.19 0.96
-6.10 0.21 0.98
-7.74 0.25 1.06
-7.04 0.26 1.15
-7.82 0.33 1.04
-7.04 0.33 1.15
-7.13 0.37 1.14
-7.06 0.39 1.15
-7.03 0.40 1.15
-6.93 0.41 1.17
-6.84 0.43 1.18
-7.06 0.47 1.15
-7.12 0.51 1.14
-7.31 0.54 1.11
-7.04 0.54 1.15
-7.06 0.56 1.15
-7.40 0.61 1.10
-7.12 0.62 1.14
-7.20 0.66 1.12
-6.86 0.65 1.17
-6.88 0.67 1.17
-7.01 0.70 1.15
-7.23 0.74 1.12
-7.60 0.81 1.06
-7.63 0.85 1.06
-8.48 0.96 0.94
-7.74 0.90 1.04
-7.67 0.91 1.05
-7.74 0.94 1.04
-7.53 0.95 1.07
-6.30 0.84 1.24
-6.04 0.82 1.28
-8.03 1.09 1.00
-8.06 1.12 0.99
-8.11 1.15 0.98
-5.86 0.87 1.30
-5.87 0.90 1.30
-6.04 0.94 1.28
-5.81 0.92 1.31
-7.95 1.27 1.00
-8.18 1.32 0.97
-5.80 0.98 1.31
-8.26 1.42 0.95
-8.75 1.52 0.88
-8.93 1.57 0.86
-8.86 1.58 0.86
-8.74 1.59 0.88
-9.05 1.68 0.84
-5.77 -1.42 1.03
-5.89 -1.42 1.02
-6.31 -1.43 0.96
-5.39 -0.98 1.09
-5.39 -0.96 1.09
-5.47 -0.89 1.08
-5.56 -0.88 1.07
-5.61 -0.70 1.06
-5.90 -0.69 1.02
-6.20 -0.47 0.97
-6.18 -0.44 0.98
-7.10 -0.36 0.84
-6.40 -0.16 0.94
-7.03 -0.04 0.85
-4.70 0.00 1.45
-8.45 0.02 0.89
-8.54 0.05 0.88
-8.73 0.07 0.85
-5.03 0.05 1.40
-5.02 0.07 1.40
-5.10 0.08 1.39
-5.11 0.09 1.38
-5.22 0.11 1.37
-5.06 0.12 1.39
-7.53 0.19 1.02
-7.41 0.20 1.04
-7.64 0.23 1.01
-5.06 0.17 1.39
-7.21 0.25 1.07
-7.06 0.26 1.09
-7.70 0.31 1.00
-7.46 0.32 1.03
-7.01 0.31 1.10
-7.17 0.34 1.08
-7.42 0.37 1.04
-6.95 0.36 1.11
-7.16 0.39 1.08
-6.81 0.39 1.13
-6.99 0.42 1.10
-6.93 0.43 1.11
-6.83 0.44 1.12
-6.83 0.46 1.12
-6.82 0.48 1.12
-6.88 0.50 1.11
-6.70 0.50 1.14
-6.75 0.52 1.13
-6.67 0.53 1.15
-6.99 0.57 1.10
-6.75 0.57 1.13
-6.83 0.60 1.12
-6.97 0.62 1.10
-6.92 0.64 1.11
-6.86 0.65 1.11
-7.37 0.71 1.04
-6.74 0.67 1.13
-6.94 0.71 1.10
-6.79 0.71 1.12
-7.05 0.76 1.08
-7.12 0.78 1.07
-6.67 0.75 1.14
-7.30 0.84 1.04
-7.26 0.85 1.05
-7.43 0.89 1.02
-6.45 0.79 1.17
-6.05 0.76 1.23
-6.15 0.79 1.21
-6.11 0.80 1.22
-7.85 1.03 0.96
-7.75 1.04 0.97
-7.64 1.05 0.99
-6.28 0.88 1.19
-6.06 0.87 1.22
-5.99 0.87 1.24
-5.98 0.89 1.24
-6.06 0.92 1.22
-6.00 0.92 1.23
-6.15 0.96 1.21
-6.13 0.97 1.21
-5.91 0.95 1.24
-6.06 0.99 1.22
-6.01 1.00 1.23
-5.91 1.00 1.24
-5.23 0.90 1.34
-5.53 0.97 1.30
-5.40 0.96 1.32
-5.16 0.93 1.35
-8.61 1.54 0.83
-8.95 1.63 0.78
-5.36 1.01 1.32
-9.05 1.69 0.76
-8.91 1.69 0.78
-5.25 1.07 1.33
-5.29 1.09 1.33
-5.51 1.15 1.29
-1.78 -1.60 1.55
-2.15 -1.38 1.50
-2.03 -1.29 1.52
-2.33 -1.36 1.47
-2.23 -1.28 1.49
-5.69 -1.09 0.98
-5.59 -1.02 1.00
-5.31 -0.93 1.04
-5.56 -0.94 1.00
-5.48 -0.82 1.01
-5.56 -0.81 1.00
-5.90 -0.82 0.95
-5.75 -0.79 0.97
-5.84 -0.76 0.96
-5.80 -0.72 0.97
-5.86 -0.70 0.96
-5.55 -0.66 1.00
-5.63 -0.65 0.99
-5.66 -0.63 0.99
-5.68 -0.61 0.98
-5.73 -0.60 0.97
-5.39 -0.55 1.02
-4.99 -0.17 1.41
-8.19 -0.26 0.93
-5.06 -0.12 1.40
-8.10 -0.17 0.94
-8.15 -0.16 0.94
-4.92 -0.07 1.42
-4.78 -0.06 1.44
-8.22 -0.08 0.93
-4.65 -0.03 1.45
-4.65 -0.02 1.45
-4.65 -0.01 1.45
-7.33 0.00 0.66
-7.72 0.05 0.60
-4.45 0.25 1.11
-9.60 0.46 0.30
-9.46 0.51 0.32
-7.09 0.46 1.04
-7.39 0.49 0.99
-6.85 0.48 1.07
-6.63 0.48 1.11
-6.59 0.49 1.11
-6.74 0.52 1.09
-6.72 0.53 1.09
-6.52 0.53 1.12
-6.52 0.55 1.12
-6.67 0.60 1.10
-6.67 0.61 1.10
-6.84 0.64 1.07
-6.72 0.65 1.09
-6.89 0.68 1.06
-6.69 0.68 1.09
-7.05 0.73 1.03
-7.13 0.76 1.02
-7.13 0.78 1.02
-4.21 0.57 1.48
-7.93 1.06 0.89
-6.08 0.84 1.18
-5.94 0.83 1.20
-5.85 0.84 1.21
-5.83 0.85 1.22
-5.87 0.87 1.21
-8.16 1.21 0.85
-8.06 1.22 0.86
-8.04 1.24 0.87
-8.23 1.33 0.83
-8.58 1.51 0.77
-8.81 1.57 0.74
-9.09 1.65 0.69
-3.27 0.92 1.60
-3.31 0.99 1.59
-2.91 1.55 1.61
-0.52 -1.36 1.72
-1.27 -1.54 1.60
-1.38 -1.49 1.58
-1.18 -1.33 1.62
-5.51 -0.71 0.95
-5.54 -0.62 0.95
-7.46 -0.14 0.65
-7.57 -0.09 0.63
-7.50 -0.07 0.64
-7.55 -0.04 0.63
-7.34 -0.02 0.66
-8.83 0.00 0.69
-8.91 0.03 0.68
-8.82 0.07 0.70
-8.47 0.09 0.75
-8.85 0.11 0.69
-8.18 0.12 0.80
-5.35 0.11 1.26
-8.58 0.21 0.73
-8.04 0.22 0.82
-5.72 0.17 1.20
-8.06 0.26 0.82
-7.66 0.27 0.88
-7.24 0.29 0.95
-7.19 0.32 0.96
-7.34 0.35 0.93
-4.46 0.23 1.41
-7.40 0.39 0.92
-7.48 0.41 0.91
-7.03 0.42 0.98
-7.09 0.46 0.97
-6.66 0.47 1.04
-6.63 0.48 1.05
-6.64 0.50 1.04
-6.54 0.52 1.06
-6.62 0.56 1.05
-6.63 0.58 1.04
-6.39 0.58 1.08
-6.61 0.61 1.05
-6.86 0.65 1.00
-7.00 0.70 0.98
-3.99 0.43 1.48
-6.97 0.75 0.98
-7.01 0.77 0.98
-7.19 0.81 0.95
-7.31 0.84 0.92
-7.40 0.88 0.91
-7.36 0.92 0.91
-7.41 0.94 0.90
-7.40 0.96 0.91
-7.70 1.02 0.86
-6.12 0.83 1.12
-5.91 0.83 1.15
-5.76 0.84 1.17
-5.68 0.85 1.19
-5.72 0.87 1.18
-5.55 0.86 1.21
-5.76 0.90 1.17
-5.65 0.92 1.19
-5.60 0.94 1.20
-8.65 1.44 0.69
-8.86 1.50 0.65
-8.67 1.49 0.68
-8.93 1.55 0.64
-9.23 1.65 0.59
-9.00 1.66 0.62
-8.91 1.66 0.64
-8.73 1.65 0.67
-1.82 -1.27 1.48
-6.16 -1.28 0.78
-6.18 -1.27 0.77
-5.93 -1.19 0.81
-5.96 -1.17 0.81
-5.58 -1.02 0.87
-5.55 -0.96 0.88
-5.58 -0.95 0.87
-5.30 -0.88 0.92
-5.59 -0.83 0.87
-5.54 -0.81 0.88
-5.53 -0.77 0.88
-5.76 -0.77 0.84
-5.66 -0.75 0.86
-5.68 -0.73 0.86
-5.66 -0.71 0.86
-5.48 -0.67 0.89
-5.66 -0.67 0.86
-5.48 -0.63 0.89
-5.31 -0.60 0.92
-5.28 -0.58 0.92
-5.25 -0.56 0.93
-5.27 -0.54 0.92
-7.69 -0.35 0.88
-8.65 -0.33 0.73
-7.98 -0.27 0.84
-7.85 -0.25 0.86
-8.25 -0.24 0.79
-8.26 -0.22 0.79
-8.09 -0.19 0.82
-8.35 -0.16 0.78
-8.30 -0.12 0.78
-8.01 -0.09 0.83
-8.14 -0.08 0.81
-8.10 -0.06 0.81
-8.04 -0.04 0.82
-5.82 0.00 0.77
-4.54 0.04 1.36
-7.73 0.08 0.81
-5.87 0.07 1.13
-6.00 0.09 1.11
-6.08 0.11 1.09
-5.33 0.11 1.22
-4.84 0.11 1.31
-4.89 0.14 1.30
-4.30 0.13 1.40
-4.54 0.15 1.36
-4.58 0.16 1.35
-4.48 0.17 1.37
-4.71 0.19 1.33
-10.11 0.42 0.40
-10.13 0.45 0.39
-7.09 0.33 0.92
-7.24 0.36 0.89
-7.24 0.38 0.89
-6.86 0.37 0.96
-7.00 0.40 0.93
-6.99 0.42 0.93
-6.74 0.42 0.98
-4.57 0.30 1.35
-6.84 0.46 0.96
-7.02 0.49 0.93
-6.63 0.48 0.99
-6.49 0.48 1.02
-6.47 0.50 1.02
-6.29 0.50 1.05
-6.45 0.53 1.02
-6.42 0.54 1.03
-6.36 0.55 1.04
-6.37 0.57 1.03
-6.64 0.61 0.99
-6.57 0.62 1.00
-3.89 0.39 1.46
-6.48 0.65 1.01
-6.07 0.62 1.08
-6.39 0.67 1.03
-6.48 0.69 1.01
-6.33 0.69 1.04
-6.33 0.71 1.04
-6.32 0.73 1.04
-6.59 0.77 0.99
-6.77 0.81 0.96
-6.72 0.82 0.97
-6.81 0.85 0.95
-6.32 0.81 1.03
-7.46 0.96 0.84
-6.40 0.85 1.02
-6.37 0.86 1.02
-6.18 0.85 1.06
-5.80 0.82 1.12
-5.30 0.76 1.21
-5.61 0.82 1.15
-5.39 0.80 1.19
-5.41 0.82 1.19
-5.51 0.85 1.17
-5.43 0.85 1.18
-5.36 0.85 1.20
-5.35 0.87 1.20
-5.28 0.87 1.21
-5.29 0.88 1.21
-5.68 0.96 1.14
-8.67 1.46 0.61
-5.65 0.99 1.14
-8.96 1.55 0.56
-8.66 1.53 0.61
-9.35 1.67 0.49
-8.82 1.60 0.58
-9.10 1.69 0.53
-4.89 0.96 1.27
-3.57 0.98 1.49
-2.97 0.97 1.58
-3.24 1.10 1.53
-3.36 1.18 1.51
-3.17 1.20 1.54
-3.52 1.37 1.47
-1.40 -1.61 1.51
-1.52 -1.49 1.49
-1.46 -1.40 1.51
-1.75 -1.24 1.46
-1.61 -1.14 1.49
-1.76 -1.17 1.46
-1.59 -1.11 1.49
-1.64 -1.11 1.49
-1.87 -1.17 1.44
-1.73 -1.12 1.47
-1.60 -1.07 1.49
-1.90 -1.04 1.44
-6.18 -1.47 0.70
-5.54 -1.34 0.82
-6.05 -1.35 0.73
-5.88 -1.28 0.76
-6.25 -1.27 0.70
-6.21 -1.25 0.70
-6.15 -1.22 0.71
-6.00 -1.18 0.74
-5.93 -1.15 0.75
-6.08 -1.15 0.73
-5.99 -1.11 0.74
-5.91 -1.08 0.75
-5.47 -1.01 0.83
-5.54 -1.00 0.82
-5.20 -0.94 0.88
-5.17 -0.92 0.88
-5.32 -0.91 0.86
-5.37 -0.90 0.85
-5.22 -0.87 0.88
-5.23 -0.85 0.87
-5.20 -0.83 0.88
-5.54 -0.85 0.82
-5.60 -0.83 0.81
-5.66 -0.82 0.80
-5.35 -0.75 0.85
-5.41 -0.74 0.84
-5.44 -0.72 0.84
-5.40 -0.70 0.84
-5.33 -0.68 0.86
-5.64 -0.68 0.80
-5.61 -0.66 0.81
-5.51 -0.64 0.82
-5.50 -0.62 0.83
-5.57 -0.60 0.82
-5.52 -0.58 0.82
-5.71 -0.58 0.79
-5.71 -0.56 0.79
-6.25 -0.57 0.70
-4.98 -0.44 0.91
-4.86 -0.38 0.94
-8.09 -0.40 0.38
-8.42 -0.38 0.32
-8.24 -0.35 0.35
-8.45 -0.28 0.32
-8.00 -0.25 0.39
-8.19 -0.23 0.36
-8.06 -0.20 0.38
-7.65 -0.17 0.45
-7.48 -0.14 0.48
-7.45 -0.12 0.49
-7.34 -0.09 0.51
-7.54 -0.07 0.47
-5.32 -0.04 0.85
-6.03 -0.02 0.73
-7.78 0.00 0.74
-7.80 0.02 0.73
-7.91 0.04 0.72
-7.66 0.06 0.76
-7.60 0.08 0.77
-7.57 0.10 0.78
-7.67 0.12 0.76
-7.92 0.14 0.71
-8.08 0.16 0.68
-6.20 0.14 1.02
-8.36 0.21 0.63
-8.20 0.22 0.66
-6.71 0.20 0.93
-7.87 0.25 0.72
-6.37 0.22 0.99
-7.67 0.28 0.75
-7.78 0.31 0.73
-7.65 0.32 0.76
-7.52 0.33 0.78
-7.91 0.37 0.71
-7.14 0.35 0.85
-6.57 0.34 0.95
-6.70 0.37 0.93
-6.86 0.39 0.90
-6.68 0.40 0.93
-6.62 0.41 0.94
-6.59 0.43 0.94
-6.61 0.44 0.94
-6.39 0.45 0.98
-6.47 0.47 0.96
-6.21 0.46 1.01
-6.32 0.49 0.99
-6.35 0.51 0.99
-6.36 0.52 0.98
-6.30 0.53 0.99
-6.33 0.55 0.99
-6.25 0.56 1.00
-6.31 0.58 0.99
-6.28 0.60 0.99
-6.28 0.61 0.99
-6.43 0.64 0.97
-6.54 0.67 0.95
-6.19 0.65 1.01
-6.40 0.69 0.97
-6.46 0.71 0.96
-6.36 0.71 0.98
-6.54 0.75 0.94
-6.45 0.76 0.96
-6.41 0.77 0.97
-6.60 0.81 0.93
-6.56 0.82 0.94
-6.66 0.85 0.92
-6.88 0.89 0.88
-6.98 0.92 0.86
-6.44 0.87 0.96
-7.57 1.03 0.75
-7.50 1.04 0.76
-7.57 1.07 0.75
-7.75 1.12 0.71
-6.08 0.90 1.02
-7.92 1.18 0.68
-5.76 0.88 1.08
-5.74 0.90 1.08
-5.79 0.92 1.07
-5.73 0.93 1.08
-5.67 0.93 1.09
-5.60 0.93 1.10
-5.82 0.98 1.06
-5.71 0.98 1.08
-5.84 1.02 1.06
-5.84 1.03 1.06
-5.82 1.04 1.06
-5.70 1.04 1.08
-5.80 1.07 1.06
-5.80 1.09 1.06
-5.92 1.12 1.04
-5.76 1.11 1.07
-5.46 1.07 1.12
-5.39 1.07 1.13
-5.44 1.09 1.12
-5.39 1.10 1.13
-5.49 1.13 1.11
-5.55 1.25 1.10
-5.62 1.28 1.08
-3.95 1.32 1.37
-4.12 1.38 1.33
-3.72 1.51 1.39
-2.06 -1.31 1.37
-1.69 -1.18 1.44
-2.03 -1.12 1.38
-4.40 -1.59 0.95
-4.61 -1.61 0.91
-5.06 -1.68 0.83
-4.83 -1.61 0.87
-4.81 -1.57 0.88
-4.96 -1.58 0.85
-4.99 -1.57 0.84
-4.68 -1.49 0.90
-5.26 -1.59 0.80
-4.83 -1.48 0.87
-5.12 -1.52 0.82
-5.23 -1.53 0.80
-5.01 -1.47 0.84
-5.42 -1.53 0.77
-5.09 -1.45 0.83
-5.21 -1.45 0.81
-5.43 -1.47 0.77
-4.83 -1.34 0.88
-4.85 -1.33 0.87
-5.86 -1.50 0.69
-5.77 -1.46 0.71
-5.71 -1.43 0.72
-6.12 -1.48 0.64
-6.03 -1.45 0.66
-5.69 -1.37 0.72
-5.66 -1.34 0.73
-6.19 -1.41 0.63
-6.26 -1.40 0.62
-6.25 -1.38 0.62
-5.79 -1.29 0.71
-6.27 -1.34 0.62
-6.00 -1.28 0.67
-6.00 -1.26 0.67
-6.15 -1.26 0.64
-6.00 -1.22 0.67
-5.91 -1.19 0.69
-5.78 -1.15 0.71
-5.52 -1.09 0.76
-5.46 -1.06 0.77
-5.90 -1.10 0.69
-5.60 -1.05 0.74
-5.52 -1.02 0.76
-5.61 -1.01 0.74
-5.46 -0.97 0.77
-5.49 -0.96 0.76
-5.32 -0.92 0.79
-5.32 -0.90 0.79
-5.28 -0.87 0.80
-5.37 -0.87 0.78
-5.12 -0.82 0.83
-5.20 -0.81 0.81
-5.22 -0.79 0.81
-5.23 -0.78 0.81
-5.30 -0.77 0.80
-5.51 -0.77 0.76
-5.30 -0.73 0.80
-5.37 -0.72 0.78
-5.37 -0.70 0.78
-5.38 -0.68 0.78
-5.34 -0.66 0.79
-5.49 -0.66 0.76
-5.50 -0.64 0.76
-5.56 -0.62 0.75
-5.53 -0.60 0.76
-5.51 -0.58 0.76
-5.72 -0.58 0.72
-6.03 -0.58 0.67
-6.03 -0.56 0.67
-6.09 -0.54 0.65
-5.56 -0.49 0.75
-6.16 -0.51 0.64
-5.99 -0.48 0.67
-5.89 -0.45 0.69
-6.04 -0.44 0.66
-6.33 -0.43 0.61
-6.02 -0.40 0.67
-5.89 -0.37 0.69
-6.20 -0.37 0.63
-4.73 -0.29 0.90
-5.88 -0.31 0.69
-4.94 -0.26 0.86
-4.96 -0.24 0.86
-4.71 -0.22 0.90
-4.56 -0.20 0.93
-4.97 -0.19 0.85
-5.05 -0.18 0.84
-4.73 -0.15 0.90
-4.72 -0.13 0.90
-5.04 -0.12 0.84
-7.83 -0.11 0.73
-8.21 -0.10 0.66
-7.90 -0.07 0.72
-7.97 -0.06 0.71
-7.88 -0.04 0.72
-7.90 -0.02 0.72
-6.55 0.00 0.49
-6.06 0.02 0.58
-2.56 0.02 1.24
-3.95 0.06 0.98
-3.68 0.13 1.03
-5.86 0.16 1.03
-5.58 0.17 1.08
-5.80 0.19 1.04
-5.87 0.23 1.03
-5.89 0.25 1.02
-5.79 0.26 1.04
-6.34 0.30 0.94
-6.05 0.30 0.99
-6.19 0.32 0.96
-6.27 0.36 0.95
-6.29 0.37 0.94
-6.42 0.40 0.92
-6.10 0.39 0.98
-6.22 0.42 0.96
-6.16 0.43 0.97
-6.02 0.45 0.99
-6.04 0.47 0.99
-6.04 0.48 0.99
-6.07 0.50 0.98
-6.26 0.53 0.95
-6.26 0.54 0.95
-6.44 0.58 0.91
-6.48 0.60 0.90
-6.62 0.64 0.88
-6.18 0.62 0.96
-6.12 0.62 0.97
-6.22 0.65 0.95
-6.08 0.65 0.97
-5.99 0.66 0.99
-5.91 0.68 1.01
-6.04 0.71 0.98
-6.03 0.72 0.98
-6.26 0.76 0.94
-6.45 0.80 0.90
-6.46 0.82 0.90
-7.13 0.92 0.77
-6.20 0.82 0.95
-6.29 0.86 0.93
-5.74 0.81 1.03
-6.01 0.86 0.98
-5.93 0.86 0.99
-7.63 1.12 0.67
-5.69 0.86 1.04
-5.76 0.88 1.02
-5.70 0.90 1.04
-5.70 0.92 1.04
-5.67 0.93 1.04
-5.71 0.95 1.03
-5.44 0.92 1.08
-5.42 0.93 1.09
-5.28 0.92 1.11
-5.43 0.97 1.08
-8.90 1.59 0.41
-8.81 1.59 0.43
-8.61 1.58 0.47
-8.79 1.64 0.43
-4.05 1.11 1.33
-3.51 1.17 1.42
-3.45 1.21 1.42
-3.40 1.41 1.42
-2.87 1.26 1.52
-0.70 -1.38 1.58
-1.22 -1.56 1.48
-1.58 -1.17 1.43
-1.85 -1.14 1.38
-1.77 -1.10 1.39
-1.67 -1.06 1.41
-1.78 -1.08 1.39
-1.78 -1.02 1.39
-1.69 -0.99 1.41
-5.29 -1.69 0.72
-4.94 -1.58 0.79
-5.18 -1.61 0.75
-1.97 -0.90 1.36
-5.00 -1.52 0.78
-5.03 -1.50 0.78
-5.22 -1.52 0.74
-5.09 -1.45 0.76
-5.26 -1.42 0.73
-5.06 -1.35 0.77
-5.57 -1.42 0.67
-5.24 -1.34 0.74
-5.63 -1.39 0.66
-5.63 -1.38 0.66
-5.45 -1.33 0.70
-5.61 -1.33 0.67
-6.03 -1.38 0.59
-6.25 -1.40 0.55
-6.18 -1.37 0.56
-6.33 -1.37 0.53
-6.20 -1.33 0.56
-6.25 -1.32 0.55
-5.99 -1.26 0.60
-5.91 -1.22 0.62
-5.84 -1.19 0.63
-5.61 -1.14 0.67
-5.45 -1.10 0.70
-5.33 -1.06 0.73
-5.28 -1.04 0.73
-5.63 -1.07 0.67
-5.67 -1.05 0.66
-5.42 -1.00 0.71
-5.29 -0.97 0.73
-5.37 -0.96 0.72
-5.35 -0.94 0.72
-5.44 -0.93 0.71
-5.41 -0.91 0.71
-5.14 -0.86 0.76
-5.12 -0.84 0.77
-5.34 -0.84 0.73
-5.44 -0.84 0.71
-5.27 -0.80 0.74
-5.45 -0.80 0.70
-5.52 -0.79 0.69
-5.45 -0.76 0.70
-5.66 -0.76 0.66
-5.73 -0.75 0.65
-5.37 -0.70 0.72
-5.08 -0.66 0.77
-5.43 -0.67 0.71
-5.65 -0.67 0.67
-5.54 -0.64 0.69
-5.55 -0.62 0.69
-5.58 -0.60 0.68
-5.55 -0.58 0.68
-5.42 -0.56 0.71
-5.44 -0.54 0.71
-5.25 -0.51 0.74
-5.48 -0.50 0.70
-5.49 -0.49 0.70
-5.37 -0.46 0.72
-5.51 -0.45 0.69
-5.60 -0.44 0.67
-6.07 -0.44 0.59
-5.13 -0.25 0.76
-7.22 -0.30 0.37
-7.36 -0.25 0.34
-7.35 -0.23 0.34
-7.36 -0.21 0.34
-7.46 -0.19 0.32
-6.84 -0.15 0.44
-6.91 -0.13 0.42
-7.13 -0.11 0.38
-5.45 -0.07 0.70
-6.35 -0.06 0.53
-4.95 -0.03 0.79
-4.80 -0.02 0.82
-7.02 0.00 0.75
-6.18 0.03 0.91
-6.22 0.06 0.90
-6.09 0.09 0.93
-6.01 0.12 0.95
-5.99 0.14 0.95
-6.00 0.15 0.94
-5.90 0.18 0.97
-5.84 0.20 0.98
-5.78 0.23 0.99
-6.00 0.27 0.94
-5.74 0.29 0.99
-5.84 0.32 0.97
-5.79 0.35 0.98
-5.85 0.37 0.97
-5.70 0.37 1.00
-5.76 0.40 0.99
-5.87 0.44 0.96
-6.00 0.48 0.94
-6.16 0.52 0.90
-6.42 0.58 0.85
-6.51 0.62 0.83
-6.45 0.64 0.84
-6.44 0.66 0.84
-6.32 0.66 0.87
-6.21 0.68 0.89
-6.23 0.72 0.88
-6.19 0.74 0.89
-6.16 0.77 0.90
-6.25 0.81 0.88
-6.47 0.87 0.83
-6.54 0.92 0.82
-6.37 0.91 0.85
-6.56 0.95 0.81
-6.28 0.95 0.86
-5.79 0.90 0.96
-5.75 0.93 0.97
-5.72 0.94 0.97
-5.60 0.93 1.00
-5.36 0.92 1.04
-5.44 0.97 1.03
-5.71 1.04 0.97
-5.75 1.08 0.96
-5.72 1.10 0.97
-5.50 1.09 1.01
-5.17 1.06 1.07
-5.03 1.06 1.10
-4.70 1.04 1.16
-5.51 1.24 1.00
-5.30 1.44 1.02
-1.85 -1.21 1.33
-4.84 -1.66 0.74
-5.07 -1.68 0.69
-5.29 -1.69 0.65
-5.15 -1.64 0.68
-5.03 -1.60 0.70
-5.28 -1.63 0.65
-5.31 -1.62 0.65
-5.38 -1.62 0.63
-5.00 -1.52 0.71
-4.71 -1.44 0.77
-5.01 -1.49 0.71
-5.08 -1.48 0.70
-5.27 -1.50 0.66
-5.34 -1.50 0.65
-5.19 -1.45 0.68
-5.23 -1.44 0.67
-5.48 -1.47 0.62
-4.99 -1.36 0.72
-5.27 -1.39 0.66
-5.27 -1.37 0.66
-5.26 -1.35 0.66
-4.98 -1.29 0.72
-5.65 -1.38 0.59
-5.46 -1.33 0.62
-5.97 -1.40 0.52
-5.99 -1.38 0.52
-5.81 -1.33 0.56
-5.46 -1.25 0.63
-5.18 -1.19 0.68
-5.24 -1.18 0.67
-5.60 -1.22 0.60
-5.87 -1.24 0.55
-5.51 -1.17 0.62
-5.43 -1.14 0.63
-5.31 -1.10 0.66
-5.65 -1.13 0.59
-5.44 -1.08 0.63
-5.52 -1.07 0.62
-5.39 -1.04 0.64
-5.62 -1.05 0.60
-5.45 -1.01 0.63
-5.37 -0.98 0.65
-4.94 -0.91 0.73
-4.83 -0.88 0.75
-4.88 -0.87 0.74
-4.91 -0.85 0.74
-5.11 -0.86 0.70
-5.17 -0.85 0.69
-5.11 -0.82 0.70
-5.08 -0.80 0.71
-5.11 -0.79 0.70
-5.22 -0.78 0.68
-5.09 -0.75 0.70
-5.08 -0.73 0.70
-5.45 -0.75 0.63
-5.21 -0.71 0.68
-5.49 -0.71 0.62
-5.33 -0.68 0.66
-5.36 -0.66 0.65
-5.18 -0.63 0.68
-5.45 -0.63 0.63
-5.06 -0.58 0.71
-5.13 -0.57 0.69
-5.06 -0.55 0.71
-5.30 -0.55 0.66
-5.11 -0.52 0.70
-5.00 -0.49 0.72
-4.97 -0.47 0.73
-5.03 -0.46 0.72
-5.05 -0.44 0.71
-5.36 -0.44 0.65
-5.22 -0.42 0.68
-5.28 -0.40 0.66
-4.88 -0.36 0.74
-6.14 -0.41 0.49
-6.04 -0.38 0.51
-4.50 -0.29 0.82
-6.20 -0.35 0.48
-8.03 -0.27 0.55
-7.96 -0.23 0.57
-7.81 -0.19 0.59
-7.48 -0.15 0.66
-7.39 -0.13 0.68
-7.19 -0.10 0.71
-7.40 -0.07 0.67
-7.19 -0.03 0.71
-5.50 -0.00 0.56
-4.92 0.02 0.67
-4.85 0.03 0.69
-6.28 0.06 0.39
-5.06 0.07 0.64
-6.35 0.10 0.38
-5.12 0.12 0.63
-5.08 0.14 0.64
-5.12 0.16 0.63
-4.91 0.17 0.67
-5.12 0.25 0.63
-3.96 0.23 0.87
-4.02 0.24 0.85
-3.86 0.25 0.89
-3.56 0.26 0.95
-5.60 0.28 0.98
-5.57 0.29 0.98
-5.68 0.31 0.96
-5.52 0.32 0.99
-5.59 0.33 0.98
-5.58 0.35 0.98
-5.52 0.36 0.99
-5.60 0.38 0.97
-5.76 0.40 0.94
-5.78 0.42 0.94
-5.77 0.43 0.94
-5.89 0.45 0.91
-5.83 0.46 0.93
-6.00 0.49 0.89
-5.94 0.50 0.90
-5.84 0.51 0.92
-6.13 0.55 0.86
-6.23 0.57 0.84
-6.32 0.60 0.82
-6.09 0.59 0.87
-6.23 0.62 0.84
-6.24 0.64 0.84
-6.39 0.67 0.80
-6.41 0.68 0.80
-6.43 0.70 0.79
-6.28 0.70 0.83
-6.35 0.73 0.81
-6.24 0.73 0.83
-6.21 0.74 0.84
-5.96 0.73 0.89
-5.92 0.74 0.90
-6.03 0.77 0.87
-5.97 0.78 0.88
-6.03 0.80 0.87
-5.99 0.81 0.88
-6.04 0.83 0.87
-6.20 0.87 0.83
-6.34 0.90 0.80
-6.70 0.97 0.73
-7.62 1.11 0.54
-7.77 1.15 0.50
-7.88 1.19 0.48
-5.94 0.92 0.88
-6.06 0.96 0.86
-7.92 1.26 0.47
-8.20 1.32 0.41
-5.45 0.91 0.98
-5.38 0.91 1.00
-5.26 0.90 1.02
-5.06 0.88 1.06
-5.31 0.94 1.01
-5.13 0.92 1.05
-5.09 0.96 1.05
-5.12 0.97 1.05
-4.90 0.95 1.09
-4.62 0.91 1.15
-8.63 1.67 0.30
-3.34 0.94 1.40
-3.22 1.07 1.41
-3.50 1.17 1.35
-5.23 -1.69 0.60
-4.93 -1.55 0.67
-5.57 -1.65 0.54
-4.89 -1.49 0.68
-4.56 -1.41 0.75
-4.41 -1.36 0.78
-4.99 -1.46 0.66
-5.46 -1.53 0.56
-4.59 -1.35 0.74
-4.83 -1.38 0.69
-5.44 -1.48 0.56
-4.96 -1.36 0.67
-4.94 -1.34 0.67
-5.03 -1.34 0.65
-5.06 -1.33 0.65
-4.60 -1.23 0.74
-4.74 -1.24 0.71
-4.73 -1.22 0.72
-4.98 -1.25 0.66
-4.88 -1.21 0.68
-5.27 -1.26 0.60
-5.53 -1.28 0.55
-5.27 -1.22 0.60
-5.36 -1.22 0.59
-5.22 -1.18 0.62
-5.13 -1.14 0.63
-4.99 -1.11 0.66
-5.11 -1.10 0.64
-5.26 -1.11 0.61
-5.78 -1.17 0.50
-5.26 -1.07 0.61
-4.87 -1.00 0.69
-5.00 -1.00 0.66
-4.84 -0.96 0.70
-5.23 -1.00 0.62
-5.84 -1.06 0.49
-5.39 -0.98 0.58
-5.00 -0.91 0.66
-4.72 -0.86 0.72
-4.66 -0.84 0.73
-4.80 -0.84 0.71
-5.37 -0.88 0.59
-4.95 -0.82 0.68
-4.09 -0.71 0.85
-5.01 -0.79 0.66
-5.07 -0.78 0.65
-4.96 -0.75 0.67
-5.03 -0.74 0.66
-5.15 -0.73 0.63
-5.03 -0.70 0.66
-5.37 -0.72 0.59
-5.49 -0.71 0.56
-5.53 -0.70 0.56
-5.49 -0.67 0.56
-5.41 -0.65 0.58
-5.58 -0.64 0.54
-5.51 -0.62 0.56
-5.21 -0.56 0.62
-5.35 -0.55 0.59
-5.28 -0.53 0.61
-5.42 -0.52 0.58
-5.06 -0.48 0.65
-5.20 -0.47 0.62
-5.16 -0.45 0.63
-5.08 -0.43 0.65
-5.91 -0.41 0.48
-5.62 -0.38 0.54
-4.17 -0.26 0.83
-4.37 -0.26 0.79
-5.65 -0.23 0.53
-4.40 -0.16 0.78
-6.43 -0.15 0.37
-4.41 -0.10 0.78
-4.63 -0.08 0.74
-4.42 -0.06 0.78
-4.10 -0.05 0.85
-7.79 0.00 0.45
-7.87 0.02 0.43
-7.67 0.04 0.48
-7.53 0.06 0.51
-7.36 0.07 0.54
-5.97 0.07 0.84
-6.22 0.09 0.79
-6.32 0.11 0.77
-6.09 0.12 0.81
-5.80 0.13 0.88
-5.87 0.15 0.86
-6.10 0.17 0.81
-6.04 0.18 0.82
-5.86 0.19 0.86
-5.83 0.20 0.87
-5.96 0.22 0.84
-5.86 0.23 0.86
-5.85 0.25 0.86
-5.64 0.25 0.91
-5.72 0.27 0.89
-5.85 0.29 0.86
-5.68 0.30 0.90
-5.79 0.32 0.87
-5.80 0.33 0.87
-5.77 0.35 0.88
-5.73 0.36 0.89
-5.57 0.36 0.92
-5.69 0.38 0.89
-5.93 0.41 0.84
-5.93 0.43 0.84
-5.95 0.45 0.84
-5.87 0.45 0.85
-5.93 0.47 0.84
-5.94 0.49 0.84
-6.01 0.51 0.82
-5.95 0.52 0.83
-5.95 0.53 0.83
-6.33 0.58 0.75
-5.86 0.56 0.85
-5.85 0.57 0.85
-5.93 0.59 0.83
-5.92 0.61 0.84
-5.72 0.60 0.88
-5.75 0.62 0.87
-5.66 0.63 0.89
-5.84 0.66 0.85
-5.98 0.69 0.82
-5.96 0.70 0.82
-6.20 0.74 0.77
-6.03 0.74 0.81
-5.99 0.75 0.82
-6.02 0.77 0.81
-5.86 0.77 0.84
-5.92 0.79 0.83
-5.88 0.80 0.84
-5.95 0.82 0.82
-6.02 0.85 0.80
-5.87 0.84 0.84
-6.06 0.88 0.79
-6.06 0.90 0.79
-6.02 0.91 0.80
-6.21 0.95 0.76
-6.12 0.95 0.78
-5.53 0.88 0.91
-5.54 0.90 0.90
-5.37 0.88 0.94
-5.50 0.92 0.91
-5.34 0.91 0.94
-5.13 0.89 0.99
-5.16 0.91 0.98
-5.15 0.92 0.98
-5.11 0.93 0.99
-5.17 0.95 0.98
-5.07 0.94 1.00
-5.18 0.98 0.98
-5.20 1.00 0.97
-5.19 1.01 0.97
-5.13 1.01 0.98
-5.14 1.02 0.98
-5.34 1.08 0.94
-5.19 1.06 0.97
-5.09 1.05 0.99
-5.20 1.09 0.96
-4.82 1.03 1.05
-4.99 1.08 1.01
-4.87 1.06 1.03
-5.10 1.12 0.98
-4.64 1.04 1.08
-4.45 1.01 1.13
-4.68 1.08 1.07
-4.58 1.07 1.09
-4.63 1.09 1.08
-4.54 1.08 1.10
-4.70 1.13 1.06
-4.56 1.11 1.10
-4.69 1.16 1.07
-4.67 1.16 1.07
-4.76 1.20 1.05
-4.35 1.11 1.14
-4.34 1.12 1.14
-4.63 1.20 1.07
-6.11 1.58 0.74
-5.91 1.55 0.79
-4.70 1.27 1.06
-5.08 -1.69 0.56
-4.86 -1.62 0.60
-4.82 -1.59 0.61
-4.84 -1.58 0.61
-4.79 -1.55 0.62
-4.88 -1.55 0.60
-4.89 -1.54 0.60
-4.80 -1.50 0.62
-4.64 -1.45 0.66
-4.83 -1.47 0.61
-4.61 -1.41 0.66
-4.59 -1.39 0.67
-4.77 -1.41 0.63
-5.06 -1.45 0.57
-4.86 -1.39 0.61
-4.98 -1.39 0.58
-4.95 -1.37 0.59
-4.70 -1.31 0.65
-4.83 -1.31 0.62
-4.64 -1.26 0.66
-4.53 -1.22 0.68
-4.72 -1.24 0.64
-4.82 -1.24 0.62
-4.93 -1.24 0.60
-5.04 -1.24 0.57
-4.81 -1.19 0.62
-4.83 -1.17 0.62
-4.75 -1.14 0.64
-4.81 -1.14 0.63
-4.81 -1.12 0.63
-4.76 -1.09 0.64
-4.72 -1.07 0.65
-4.67 -1.05 0.66
-4.81 -1.05 0.63
-4.81 -1.03 0.63
-5.13 -1.06 0.56
-4.53 -0.96 0.69
-4.40 -0.92 0.71
-4.34 -0.90 0.73
-4.41 -0.89 0.71
-4.45 -0.88 0.71
-4.48 -0.87 0.70
-4.56 -0.86 0.68
-4.56 -0.85 0.68
-4.67 -0.84 0.66
-5.32 -0.90 0.52
-5.15 -0.86 0.56
-4.56 -0.78 0.68
-5.06 -0.82 0.57
-4.63 -0.75 0.67
-4.66 -0.74 0.66
-5.23 -0.78 0.54
-1.43 -0.38 1.36
-5.56 -0.78 0.47
-5.32 -0.74 0.52
-5.86 -0.77 0.40
-5.81 -0.74 0.41
-5.70 -0.71 0.44
-5.73 -0.70 0.43
-5.54 -0.66 0.47
-5.25 -0.62 0.53
-5.23 -0.60 0.54
-5.38 -0.59 0.50
-5.05 -0.55 0.58
-4.55 -0.50 0.68
-4.47 -0.47 0.70
-4.78 -0.48 0.63
-4.80 -0.46 0.63
-4.55 -0.43 0.68
-4.65 -0.42 0.66
-4.58 -0.40 0.68
-6.46 -0.37 0.74
-6.46 -0.35 0.74
-6.37 -0.33 0.76
-6.27 -0.31 0.78
-6.42 -0.30 0.75
-6.53 -0.29 0.73
-8.12 -0.34 0.38
-8.00 -0.31 0.41
-8.10 -0.30 0.39
-7.71 -0.26 0.47
-7.85 -0.25 0.44
-7.78 -0.23 0.46
-7.89 -0.21 0.43
-7.81 -0.19 0.45
-7.66 -0.17 0.48
-7.71 -0.15 0.47
-7.65 -0.13 0.48
-7.61 -0.11 0.49
-7.60 -0.09 0.49
-7.45 -0.07 0.53
-7.57 -0.05 0.50
-7.52 -0.04 0.51
-7.48 -0.02 0.52
-3.75 -0.00 0.79
-3.83 0.01 0.78
-3.83 0.03 0.78
-7.71 0.06 0.39
-5.87 0.10 0.81
-6.11 0.12 0.75
-5.85 0.13 0.81
-3.95 0.11 1.24
-5.57 0.17 0.87
-5.62 0.18 0.86
-5.61 0.20 0.86
-5.59 0.21 0.87
-5.49 0.22 0.89
-5.63 0.24 0.86
-5.53 0.25 0.88
-5.54 0.26 0.88
-5.48 0.27 0.89
-5.30 0.28 0.93
-5.38 0.30 0.91
-5.22 0.30 0.95
-5.27 0.32 0.94
-5.12 0.32 0.97
-5.27 0.34 0.93
-5.27 0.35 0.93
-5.57 0.39 0.87
-5.62 0.41 0.85
-5.33 0.40 0.92
-5.42 0.42 0.90
-5.34 0.43 0.91
-6.04 0.50 0.76
-6.18 0.52 0.72
-5.69 0.50 0.84
-5.55 0.50 0.86
-5.66 0.52 0.84
-5.58 0.53 0.86
-5.52 0.54 0.87
-5.55 0.55 0.86
-5.47 0.56 0.88
-5.35 0.56 0.91
-5.49 0.59 0.87
-5.46 0.60 0.88
-5.49 0.62 0.87
-5.59 0.64 0.85
-5.68 0.67 0.83
-5.72 0.69 0.82
-5.88 0.72 0.78
-5.80 0.73 0.80
-6.07 0.77 0.74
-5.97 0.78 0.76
-6.06 0.80 0.74
-6.29 0.85 0.69
-5.51 0.76 0.86
-5.78 0.81 0.80
-5.17 0.74 0.94
-5.17 0.76 0.94
-5.05 0.75 0.97
-5.23 0.79 0.92
-5.36 0.82 0.89
-5.11 0.80 0.95
-5.02 0.80 0.97
-4.95 0.80 0.99
-4.98 0.82 0.98
-5.01 0.84 0.97
-4.93 0.84 0.99
-4.96 0.86 0.98
-5.18 0.90 0.93
-5.16 0.92 0.93
-5.17 0.93 0.93
-5.05 0.92 0.96
-5.11 0.95 0.94
-4.91 0.93 0.99
-4.99 0.95 0.97
-5.02 0.97 0.96
-5.06 0.99 0.95
-5.16 1.02 0.92
-5.08 1.02 0.94
-4.80 0.98 1.01
-4.72 0.98 1.02
-4.31 0.91 1.12
-4.28 0.92 1.12
-2.01 1.37 1.55
-4.63 -1.50 0.59
-4.57 -1.46 0.60
-4.49 -1.43 0.62
-4.52 -1.42 0.62
-4.63 -1.43 0.59
-4.69 -1.42 0.58
-4.42 -1.35 0.64
-4.88 -1.42 0.54
-4.79 -1.39 0.56
-5.07 -1.43 0.49
-4.97 -1.39 0.52
-4.86 -1.35 0.54
-4.96 -1.35 0.52
-4.78 -1.30 0.56
-4.86 -1.30 0.54
-5.03 -1.31 0.50
-4.96 -1.28 0.52
-5.06 -1.28 0.50
-4.82 -1.22 0.55
-5.03 -1.24 0.51
-5.02 -1.22 0.51
-4.78 -1.16 0.56
-4.78 -1.15 0.56
-5.02 -1.17 0.51
-4.95 -1.14 0.53
-4.86 -1.11 0.55
-4.90 -1.09 0.54
-4.90 -1.08 0.54
-4.85 -1.05 0.55
-4.67 -1.01 0.59
-0.52 -0.40 1.53
-4.52 -0.95 0.62
-4.43 -0.93 0.65
-4.32 -0.89 0.67
-4.25 -0.87 0.69
-4.27 -0.86 0.68
-4.47 -0.87 0.64
-4.28 -0.82 0.68
-4.28 -0.81 0.68
-4.77 -0.85 0.57
-4.29 -0.78 0.68
-4.49 -0.79 0.63
-4.41 -0.76 0.65
-5.21 -0.83 0.47
-5.21 -0.81 0.47
-5.33 -0.81 0.44
-5.18 -0.76 0.48
-4.73 -0.70 0.58
-5.00 -0.63 0.52
-4.93 -0.59 0.54
-4.10 -0.51 0.72
-4.76 -0.55 0.57
-4.70 -0.52 0.59
-3.85 -0.45 0.78
-3.81 -0.43 0.79
-4.30 -0.45 0.68
-4.40 -0.44 0.65
-4.45 -0.42 0.64
-3.88 -0.37 0.77
-4.16 -0.37 0.71
-4.18 -0.36 0.70
-3.61 -0.31 0.83
-3.76 -0.31 0.80
-3.61 -0.29 0.83
-3.75 -0.28 0.80
-3.57 -0.26 0.84
-3.50 -0.24 0.85
-1.37 -0.14 1.34
-3.66 -0.22 0.82
-3.81 -0.21 0.79
-4.19 -0.20 0.70
-3.95 -0.18 0.75
-3.59 -0.16 0.83
-4.05 -0.15 0.73
-3.82 -0.13 0.78
-3.76 -0.12 0.80
-3.87 -0.11 0.77
-3.89 -0.09 0.76
-4.42 -0.08 0.64
-4.44 -0.07 0.64
-4.51 -0.05 0.62
-3.75 -0.03 0.79
-3.73 -0.02 0.80
-6.13 0.15 0.68
-6.05 0.18 0.70
-6.04 0.19 0.70
-5.92 0.22 0.73
-6.34 0.25 0.63
-5.93 0.25 0.73
-6.69 0.30 0.55
-5.27 0.28 0.88
-5.30 0.30 0.88
-5.43 0.32 0.84
-5.41 0.34 0.85
-5.42 0.35 0.84
-5.43 0.38 0.84
-5.57 0.40 0.81
-5.77 0.45 0.76
-6.76 0.53 0.53
-6.98 0.57 0.47
-6.84 0.57 0.51
-6.40 0.57 0.61
-6.23 0.57 0.65
-6.04 0.59 0.69
-5.78 0.58 0.75
-5.58 0.57 0.80
-5.87 0.61 0.73
-5.65 0.62 0.78
-5.88 0.66 0.73
-5.77 0.68 0.75
-5.86 0.70 0.73
-5.87 0.72 0.72
-5.98 0.75 0.70
-6.14 0.80 0.66
-5.90 0.78 0.72
-6.08 0.84 0.67
-6.20 0.87 0.64
-6.12 0.87 0.66
-6.01 0.87 0.69
-5.58 0.84 0.79
-6.09 0.93 0.66
-5.68 0.90 0.76
-5.53 0.89 0.80
-6.02 1.00 0.68
-6.14 1.05 0.65
-5.54 0.97 0.79
-5.67 1.02 0.76
-5.46 0.99 0.81
-5.22 0.97 0.86
-5.35 1.00 0.83
-5.39 1.04 0.82
-5.09 1.00 0.89
-4.80 -1.39 0.49
-4.89 -1.39 0.46
-5.00 -1.40 0.44
-4.96 -1.37 0.45
-5.00 -1.36 0.44
-4.89 -1.32 0.47
-5.01 -1.33 0.44
-5.12 -1.33 0.41
-4.87 -1.27 0.47
-4.98 -1.27 0.45
-5.00 -1.24 0.44
-4.73 -1.17 0.51
-4.80 -1.17 0.49
-4.98 -1.18 0.45
-4.73 -1.10 0.51
-5.25 -1.17 0.38
-4.33 -1.01 0.60
-4.91 -1.08 0.47
-4.86 -1.05 0.48
-4.96 -1.05 0.45
-4.80 -1.01 0.49
-5.15 -1.03 0.41
-4.92 -0.98 0.47
-5.01 -0.97 0.44
-4.81 -0.93 0.49
-4.69 -0.90 0.52
-4.71 -0.88 0.52
-4.95 -0.89 0.46
-4.69 -0.84 0.52
-4.66 -0.82 0.53
-4.54 -0.79 0.56
-4.39 -0.76 0.59
-4.56 -0.76 0.55
-4.57 -0.75 0.55
-3.81 -0.50 0.73
-5.17 -0.45 0.41
-4.02 -0.32 0.68
-3.84 -0.25 0.72
-3.86 -0.14 0.71
-0.74 -1.05 0.48
-0.81 -0.87 0.30
-0.97 -0.68 0.22
