# .PCD v0.7 - Point Cloud Data file format
VERSION 0.7
FIELDS x y z
SIZE 4 4 4
TYPE F F F
COUNT 1 1 1
WIDTH 2465
HEIGHT 1
VIEWPOINT 0 0 0 1 0 0 0
POINTS 2465
DATA ASCII
-3.96 -1.44 2.35
-4.39 -1.06 2.11
-4.39 -0.85 2.11
-4.19 -0.70 2.11
-4.53 -0.15 2.12
-11.87 0.41 1.88
-9.02 0.38 1.89
-9.24 0.55 1.88
-3.87 -1.48 2.01
-4.43 -1.15 1.99
-4.60 -1.14 1.99
-13.82 0.48 1.65
-14.38 0.67 1.62
-7.68 -0.51 1.83
-7.89 -0.18 1.82
-7.71 0.04 1.79
-7.85 0.11 1.78
-7.51 -0.13 1.80
-7.74 -0.11 1.79
-7.55 -0.08 1.79
-7.56 -0.01 1.79
-8.75 0.01 1.77
-8.38 0.07 1.79
-11.33 0.12 1.66
-8.66 0.20 1.78
-9.44 0.56 1.74
-7.51 -0.55 1.76
-7.15 -0.51 1.77
-7.21 -0.49 1.77
-7.45 -0.43 1.76
-7.97 0.21 1.69
-7.29 -0.42 1.73
-7.47 -0.15 1.72
-8.41 0.01 1.72
-8.24 0.03 1.73
-8.34 0.05 1.72
-8.45 0.07 1.71
-8.55 0.15 1.71
-8.46 0.19 1.71
-8.54 0.21 1.71
-8.85 0.24 1.69
-8.66 0.26 1.70
-8.72 0.28 1.70
-9.02 0.31 1.68
-9.01 0.38 1.68
-9.13 0.41 1.67
-9.28 0.46 1.66
-9.41 0.49 1.66
-6.97 0.49 1.79
-9.94 0.78 1.63
-10.24 0.91 1.61
-10.11 0.92 1.61
-4.05 -1.68 1.85
-3.91 -1.63 1.86
-4.11 -1.67 1.85
-4.30 -1.68 1.84
-4.22 -1.63 1.85
-4.02 -1.57 1.86
-4.43 -1.63 1.83
-4.31 -1.57 1.84
-4.31 -1.47 1.84
-4.25 -1.44 1.84
-4.28 -1.43 1.84
-4.63 -1.34 1.82
-4.66 -1.31 1.82
-4.62 -1.20 1.83
-4.28 -1.00 1.84
-4.50 -1.01 1.83
-4.45 -0.97 1.83
-4.52 -0.96 1.83
-4.35 -0.88 1.84
-4.46 -0.87 1.83
-4.41 -0.83 1.84
-7.09 -0.78 1.70
-8.37 -0.24 1.72
-8.29 -0.20 1.72
-8.38 -0.18 1.72
-8.33 -0.16 1.72
-6.33 -0.03 1.83
-8.36 -0.02 1.72
-8.75 0.28 1.66
-9.41 0.44 1.62
-7.61 -0.20 1.63
-7.60 -0.06 1.63
-8.40 0.03 1.64
-8.49 0.05 1.64
-8.51 0.07 1.63
-8.36 0.09 1.64
-8.40 0.11 1.64
-8.63 0.15 1.63
-8.77 0.18 1.62
-8.70 0.20 1.62
-8.83 0.24 1.61
-8.88 0.26 1.61
-8.83 0.28 1.61
-8.89 0.31 1.61
-9.00 0.33 1.60
-9.48 0.40 1.57
-9.20 0.43 1.59
-9.51 0.47 1.57
-9.15 0.47 1.59
-9.69 0.64 1.55
-9.94 0.68 1.54
-9.81 0.70 1.55
-9.91 0.73 1.54
-9.83 0.75 1.54
-9.99 0.81 1.53
-10.05 0.91 1.53
-10.05 0.96 1.53
-10.02 1.01 1.53
-10.18 1.08 1.52
-4.15 -1.68 1.79
-4.03 -1.36 1.80
-5.02 -1.34 1.74
-6.75 -0.79 1.64
-6.98 -0.79 1.62
-6.99 -0.77 1.62
-7.03 -0.75 1.62
-6.84 -0.71 1.63
-6.78 -0.64 1.63
-7.42 -0.45 1.59
-7.18 -0.31 1.61
-7.71 -0.23 1.58
-7.57 -0.20 1.58
-8.35 -0.10 1.65
-8.32 -0.08 1.65
-8.29 -0.06 1.65
-8.30 -0.04 1.65
-8.39 -0.02 1.64
-7.72 0.01 1.52
-7.57 0.04 1.53
-7.76 0.06 1.52
-7.90 0.09 1.51
-7.84 0.11 1.51
-7.87 0.13 1.51
-7.82 0.16 1.51
-8.16 0.19 1.49
-8.11 0.21 1.49
-8.03 0.24 1.50
-8.93 0.24 1.56
-9.01 0.27 1.55
-9.15 0.36 1.54
-9.27 0.39 1.53
-9.27 0.41 1.53
-9.68 0.50 1.50
-9.84 0.68 1.49
-9.94 0.83 1.48
-9.99 0.86 1.48
-10.03 0.89 1.48
-10.22 1.00 1.46
-10.27 1.03 1.46
-10.16 1.07 1.46
-9.97 1.08 1.48
-12.36 1.48 1.31
-4.55 -0.95 1.73
-6.69 -0.90 1.59
-6.92 -0.87 1.58
-6.78 -0.84 1.59
-6.68 -0.81 1.59
-6.94 -0.81 1.58
-6.81 -0.78 1.58
-6.98 -0.77 1.57
-7.13 -0.76 1.56
-6.81 -0.69 1.58
-7.43 -0.46 1.54
-7.19 -0.26 1.56
-7.68 -0.25 1.52
-7.30 -0.22 1.55
-7.39 -0.20 1.54
-7.37 -0.17 1.54
-7.50 -0.15 1.53
-7.26 -0.13 1.55
-7.44 -0.11 1.54
-7.41 -0.08 1.54
-7.63 -0.06 1.53
-7.71 -0.01 1.52
-8.29 0.00 1.56
-8.46 0.02 1.55
-8.43 0.05 1.55
-8.53 0.07 1.54
-8.37 0.09 1.55
-8.37 0.11 1.55
-8.38 0.13 1.55
-8.48 0.15 1.54
-8.66 0.17 1.53
-8.72 0.20 1.53
-8.84 0.22 1.52
-8.96 0.24 1.51
-8.74 0.26 1.53
-8.96 0.29 1.51
-8.96 0.31 1.51
-8.83 0.33 1.52
-8.81 0.35 1.52
-9.04 0.38 1.50
-9.19 0.41 1.49
-9.09 0.43 1.50
-9.29 0.46 1.48
-9.01 0.47 1.50
-13.85 0.74 1.15
-9.24 0.52 1.48
-10.07 0.67 1.42
-9.86 0.68 1.44
-9.74 0.69 1.45
-9.72 0.72 1.45
-9.63 0.73 1.45
-9.50 0.75 1.46
-10.09 0.82 1.42
-9.69 0.81 1.45
-10.01 0.93 1.42
-10.12 0.97 1.41
-7.83 0.78 1.58
-12.57 1.51 1.23
-12.26 1.50 1.25
-12.51 1.56 1.23
-12.42 1.58 1.24
-12.56 1.63 1.23
-12.40 1.64 1.24
-6.16 0.90 1.70
-3.73 -1.64 1.75
-3.97 -1.66 1.73
-3.98 -1.65 1.73
-4.04 -1.57 1.73
-4.58 -1.68 1.69
-4.24 -1.54 1.72
-4.34 -1.54 1.71
-4.07 -1.47 1.73
-4.53 -1.50 1.70
-4.32 -1.36 1.71
-4.66 -1.34 1.69
-4.54 -1.27 1.70
-4.57 -1.26 1.69
-4.34 -1.12 1.71
-4.27 -1.07 1.72
-4.45 -1.09 1.70
-4.58 -1.09 1.69
-4.49 -1.04 1.70
-4.61 -1.04 1.69
-4.44 -1.00 1.70
-4.49 -0.98 1.70
-4.66 -0.97 1.69
-2.62 -0.68 1.83
-4.53 -0.88 1.70
-4.57 -0.85 1.69
-6.77 -0.91 1.54
-6.71 -0.88 1.54
-6.74 -0.86 1.54
-6.62 -0.83 1.55
-6.60 -0.80 1.55
-6.66 -0.79 1.55
-6.73 -0.77 1.54
-6.73 -0.75 1.54
-6.75 -0.73 1.54
-6.74 -0.71 1.54
-6.67 -0.68 1.55
-6.84 -0.67 1.53
-6.84 -0.65 1.53
-7.11 -0.58 1.51
-6.79 -0.54 1.54
-7.02 -0.50 1.52
-7.09 -0.49 1.52
-6.50 -0.43 1.56
-6.99 -0.44 1.52
-6.56 -0.39 1.55
-6.70 -0.38 1.54
-6.81 -0.36 1.53
-6.87 -0.34 1.53
-8.20 -0.24 1.57
-8.23 -0.22 1.57
-8.27 -0.20 1.56
-8.29 -0.18 1.56
-8.28 -0.16 1.56
-8.14 -0.14 1.57
-8.26 -0.12 1.56
-8.11 -0.09 1.57
-8.23 -0.08 1.57
-8.31 -0.06 1.56
-8.40 -0.04 1.55
-8.33 -0.02 1.56
-7.70 0.01 1.42
-6.19 0.03 1.53
-6.14 0.05 1.54
-6.06 0.07 1.54
-7.76 0.11 1.41
-7.76 0.13 1.41
-7.66 0.15 1.42
-7.69 0.18 1.42
-7.76 0.20 1.41
-7.73 0.23 1.41
-7.61 0.25 1.42
-7.96 0.28 1.40
-7.99 0.31 1.39
-8.09 0.34 1.39
-8.29 0.39 1.37
-6.05 0.33 1.54
-9.68 0.66 1.40
-9.72 0.76 1.40
-9.92 0.80 1.38
-12.50 1.59 1.17
-4.33 -1.05 1.68
-6.57 -0.93 1.51
-6.80 -0.93 1.49
-6.71 -0.90 1.50
-6.78 -0.88 1.49
-6.60 -0.84 1.51
-6.71 -0.83 1.50
-6.65 -0.81 1.50
-6.68 -0.79 1.50
-6.76 -0.77 1.49
-6.85 -0.76 1.49
-6.77 -0.73 1.49
-6.80 -0.71 1.49
-6.72 -0.68 1.50
-6.52 -0.65 1.51
-6.94 -0.46 1.48
-7.12 -0.42 1.47
-6.78 -0.38 1.49
-6.84 -0.36 1.49
-7.05 -0.35 1.47
-7.01 -0.32 1.47
-6.93 -0.30 1.48
-7.05 -0.28 1.47
-7.32 -0.27 1.45
-7.51 -0.20 1.43
-7.13 -0.17 1.46
-7.03 -0.12 1.47
-7.37 -0.06 1.44
-5.75 -0.03 1.57
-7.90 -0.01 1.40
-8.53 0.00 1.45
-8.37 0.02 1.46
-8.51 0.05 1.45
-8.31 0.06 1.47
-8.33 0.08 1.46
-6.78 0.09 1.59
-8.39 0.13 1.46
-8.43 0.15 1.46
-8.48 0.17 1.45
-8.71 0.20 1.43
-6.83 0.17 1.59
-9.00 0.25 1.41
-8.98 0.27 1.41
-8.97 0.29 1.41
-9.07 0.31 1.40
-8.89 0.33 1.41
-8.88 0.35 1.41
-9.30 0.39 1.38
-9.45 0.42 1.37
-9.41 0.44 1.37
-9.43 0.46 1.37
-7.00 0.37 1.57
-9.68 0.52 1.35
-9.65 0.55 1.35
-9.79 0.58 1.34
-9.86 0.61 1.33
-9.88 0.63 1.33
-10.04 0.67 1.31
-9.89 0.68 1.33
-9.80 0.70 1.33
-7.27 0.56 1.55
-10.75 0.84 1.25
-10.03 0.84 1.31
-12.11 1.04 1.13
-10.09 0.89 1.31
-7.77 0.77 1.50
-12.71 1.55 1.08
-12.25 1.53 1.11
-12.57 1.60 1.09
-7.91 1.04 1.48
-12.46 1.65 1.10
-6.69 0.92 1.59
-7.46 1.04 1.52
-6.25 0.91 1.62
-6.56 0.97 1.60
-6.34 0.97 1.62
-6.33 0.99 1.62
-6.52 1.03 1.60
-3.83 -1.57 1.68
-4.23 -1.65 1.64
-4.25 -1.64 1.64
-4.48 -1.66 1.62
-4.67 -1.69 1.61
-4.31 -1.59 1.64
-4.55 -1.63 1.62
-4.44 -1.59 1.63
-3.96 -1.43 1.67
-4.30 -1.49 1.64
-4.06 -1.42 1.66
-4.19 -1.43 1.65
-4.28 -1.42 1.64
-4.34 -1.41 1.64
-4.24 -1.38 1.64
-4.57 -1.41 1.62
-4.59 -1.40 1.62
-4.59 -1.38 1.62
-4.52 -1.35 1.62
-4.68 -1.33 1.61
-4.59 -1.24 1.62
-4.61 -1.22 1.61
-4.11 -1.11 1.66
-4.46 -1.16 1.63
-4.52 -1.15 1.62
-4.53 -1.12 1.62
-4.57 -1.07 1.62
-4.68 -1.07 1.61
-4.68 -1.04 1.61
-4.70 -1.03 1.61
-4.75 -1.00 1.60
-4.66 -0.87 1.61
-6.44 -0.90 1.47
-6.59 -0.89 1.45
-6.67 -0.88 1.45
-6.66 -0.85 1.45
-6.69 -0.83 1.45
-6.70 -0.81 1.45
-6.79 -0.80 1.44
-6.78 -0.78 1.44
-6.75 -0.75 1.44
-6.71 -0.73 1.44
-6.73 -0.71 1.44
-6.81 -0.69 1.44
-6.82 -0.67 1.44
-6.70 -0.64 1.45
-6.79 -0.62 1.44
-6.60 -0.59 1.45
-6.74 -0.58 1.44
-6.76 -0.56 1.44
-6.72 -0.53 1.44
-10.66 -0.73 1.12
-7.66 -0.43 1.52
-7.58 -0.40 1.53
-7.72 -0.39 1.52
-7.89 -0.38 1.50
-7.63 -0.35 1.53
-8.16 -0.36 1.48
-7.94 -0.33 1.50
-8.05 -0.31 1.49
-8.08 -0.29 1.49
-8.04 -0.27 1.49
-8.18 -0.26 1.48
-8.34 -0.24 1.47
-8.35 -0.22 1.47
-8.12 -0.19 1.48
-8.26 -0.18 1.47
-8.07 -0.15 1.49
-8.19 -0.14 1.48
-8.02 -0.11 1.49
-8.26 -0.10 1.47
-8.25 -0.08 1.47
-8.31 -0.06 1.47
-8.38 -0.04 1.46
-8.43 -0.02 1.46
-7.71 0.01 1.30
-8.29 0.08 1.42
-8.79 0.26 1.38
-8.85 0.28 1.37
-8.99 0.31 1.36
-9.13 0.34 1.34
-9.02 0.35 1.35
-9.55 0.40 1.31
-9.02 0.40 1.35
-9.45 0.44 1.31
-9.09 0.45 1.35
-9.64 0.50 1.30
-9.55 0.52 1.30
-9.65 0.54 1.30
-13.53 0.79 0.95
-9.96 0.76 1.26
-12.15 0.98 1.07
-12.44 1.67 1.03
-4.12 -1.54 1.62
-6.69 -0.92 1.40
-6.59 -0.89 1.41
-6.62 -0.87 1.40
-6.57 -0.84 1.41
-6.65 -0.83 1.40
-6.68 -0.70 1.40
-6.70 -0.68 1.40
-6.56 -0.65 1.41
-6.36 -0.62 1.43
-6.40 -0.60 1.42
-6.56 -0.59 1.41
-6.52 -0.56 1.41
-6.67 -0.55 1.40
-6.64 -0.53 1.40
-6.61 -0.50 1.40
-6.69 -0.49 1.40
-6.88 -0.45 1.38
-6.92 -0.43 1.38
-6.92 -0.41 1.38
-6.98 -0.39 1.37
-6.71 -0.36 1.39
-6.82 -0.34 1.38
-6.96 -0.32 1.37
-7.11 -0.28 1.36
-7.00 -0.24 1.37
-6.88 -0.15 1.38
-7.40 -0.08 1.33
-7.69 -0.06 1.31
-8.34 0.00 1.37
-8.28 0.02 1.37
-8.38 0.04 1.36
-8.50 0.07 1.35
-8.30 0.08 1.37
-8.51 0.11 1.35
-8.61 0.13 1.34
-8.38 0.15 1.36
-8.55 0.17 1.35
-8.71 0.19 1.33
-8.71 0.22 1.33
-8.67 0.24 1.33
-8.89 0.26 1.31
-9.15 0.29 1.29
-9.10 0.31 1.29
-9.22 0.34 1.28
-9.10 0.36 1.29
-9.22 0.39 1.28
-9.11 0.40 1.29
-9.16 0.43 1.28
-9.41 0.46 1.26
-9.56 0.49 1.25
-9.54 0.51 1.25
-9.40 0.53 1.26
-9.44 0.56 1.26
-9.47 0.60 1.25
-13.29 0.87 0.88
-7.43 0.59 1.44
-12.37 0.99 0.97
-12.41 1.03 0.97
-7.89 0.70 1.40
-7.76 0.75 1.41
-7.66 0.95 1.42
-12.62 1.60 0.94
-12.57 1.69 0.94
-6.91 0.96 1.49
-7.62 1.08 1.42
-6.35 0.94 1.54
-6.35 0.95 1.54
-6.31 0.96 1.54
-6.62 1.03 1.51
-6.32 1.00 1.54
-6.51 1.14 1.52
-4.10 -1.57 1.58
-4.08 -1.45 1.58
-4.36 -1.43 1.56
-4.08 -1.34 1.58
-4.62 -1.40 1.53
-4.75 -1.39 1.52
-4.37 -1.30 1.56
-4.54 -1.30 1.54
-4.60 -1.26 1.54
-4.20 -1.17 1.57
-4.41 -1.15 1.55
-4.62 -1.00 1.53
-4.84 -0.92 1.51
-5.59 -0.94 1.44
-6.48 -0.92 1.36
-6.35 -0.89 1.38
-6.39 -0.87 1.37
-6.26 -0.84 1.38
-6.56 -0.84 1.35
-1.93 -0.36 1.78
-6.18 -0.66 1.39
-6.21 -0.65 1.39
-6.43 -0.64 1.37
-6.44 -0.62 1.37
-6.47 -0.60 1.36
-6.53 -0.59 1.36
-6.39 -0.56 1.37
-6.61 -0.55 1.35
-6.56 -0.52 1.35
-6.52 -0.50 1.36
-6.54 -0.48 1.36
-6.40 -0.45 1.37
-6.45 -0.43 1.36
-6.70 -0.42 1.34
-6.67 -0.40 1.34
-6.96 -0.39 1.32
-6.84 -0.36 1.33
-7.10 -0.35 1.30
-7.07 -0.31 1.31
-3.91 -0.19 1.60
-7.14 -0.26 1.30
-7.15 -0.24 1.30
-6.84 -0.19 1.33
-5.95 -0.15 1.41
-8.12 -0.11 1.39
-8.28 -0.10 1.37
-8.20 -0.08 1.38
-8.32 -0.06 1.37
-8.40 -0.04 1.36
-8.33 -0.02 1.37
-7.27 0.01 1.23
-7.37 0.03 1.22
-6.79 0.05 1.27
-7.62 0.08 1.19
-7.86 0.11 1.17
-7.24 0.12 1.23
-6.33 0.13 1.32
-6.18 0.15 1.33
-7.88 0.21 1.16
-7.82 0.23 1.17
-8.95 0.24 1.25
-8.97 0.26 1.25
-8.56 0.27 1.29
-9.01 0.31 1.24
-8.85 0.33 1.26
-9.21 0.36 1.22
-9.61 0.40 1.18
-9.26 0.41 1.22
-9.03 0.42 1.24
-9.33 0.46 1.21
-13.31 0.71 0.80
-9.61 0.54 1.18
-9.61 0.56 1.18
-10.05 0.64 1.13
-7.17 0.49 1.43
-7.22 0.52 1.42
-6.88 0.51 1.46
-7.82 0.60 1.36
-7.71 0.70 1.37
-7.86 0.83 1.35
-7.20 0.84 1.42
-12.51 1.52 0.87
-12.60 1.57 0.86
-7.61 1.00 1.37
-7.23 0.99 1.41
-6.72 0.94 1.46
-6.21 0.88 1.52
-6.41 0.93 1.49
-6.29 0.93 1.51
-6.19 0.93 1.52
-6.24 0.97 1.51
-6.38 1.00 1.50
-3.96 -1.62 1.55
-3.76 -1.56 1.57
-3.93 -1.55 1.56
-4.01 -1.56 1.55
-3.82 -1.39 1.57
-4.36 -1.46 1.52
-4.55 -1.49 1.50
-4.56 -1.47 1.50
-4.41 -1.39 1.51
-4.56 -1.39 1.50
-4.46 -1.35 1.51
-4.40 -1.29 1.51
-4.52 -1.30 1.50
-4.24 -1.23 1.53
-4.57 -1.26 1.50
-5.01 -1.32 1.45
-4.28 -1.17 1.53
-4.82 -0.97 1.47
-4.88 -0.96 1.47
-4.91 -0.95 1.46
-4.90 -0.93 1.47
-5.34 -0.97 1.42
-5.92 -1.02 1.37
-5.26 -0.92 1.43
-4.92 -0.86 1.46
-6.14 -0.90 1.34
-6.32 -0.90 1.33
-6.38 -0.89 1.32
-6.44 -0.87 1.31
-6.62 -0.87 1.30
-6.06 -0.76 1.35
-6.45 -0.77 1.31
-6.06 -0.69 1.35
-5.96 -0.65 1.36
-6.03 -0.63 1.35
-6.46 -0.64 1.31
-6.31 -0.61 1.33
-6.36 -0.59 1.32
-5.81 -0.54 1.38
-6.23 -0.55 1.33
-6.65 -0.55 1.29
-6.72 -0.53 1.29
-6.41 -0.49 1.32
-6.49 -0.48 1.31
-6.63 -0.46 1.29
-6.61 -0.44 1.30
-6.63 -0.42 1.29
-6.84 -0.41 1.27
-6.96 -0.39 1.26
-6.94 -0.37 1.26
-7.05 -0.35 1.25
-7.31 -0.34 1.23
-7.27 -0.31 1.23
-7.23 -0.29 1.23
-7.37 -0.27 1.22
-7.53 -0.25 1.20
-7.34 -0.22 1.22
-7.36 -0.20 1.22
-7.50 -0.18 1.21
-7.52 -0.16 1.20
-7.21 -0.13 1.23
-7.46 -0.11 1.21
-7.49 -0.08 1.21
-7.35 -0.06 1.22
-7.51 -0.04 1.20
-7.74 -0.01 1.18
-8.19 0.00 1.28
-8.30 0.02 1.26
-8.50 0.04 1.24
-8.31 0.06 1.26
-8.42 0.08 1.25
-8.55 0.11 1.24
-8.62 0.13 1.23
-8.68 0.17 1.22
-8.95 0.20 1.19
-8.60 0.21 1.23
-8.54 0.23 1.24
-8.53 0.25 1.24
-8.88 0.28 1.20
-9.03 0.31 1.18
-8.95 0.33 1.19
-8.91 0.35 1.19
-9.25 0.39 1.16
-9.30 0.41 1.15
-9.06 0.42 1.18
-9.54 0.47 1.12
-9.37 0.48 1.14
-13.55 0.72 0.69
-9.67 0.54 1.11
-7.93 0.47 1.30
-9.81 0.60 1.09
-9.91 0.63 1.08
-9.79 0.65 1.09
-10.01 0.69 1.07
-10.01 0.71 1.07
-8.94 0.66 1.19
-7.19 0.55 1.38
-6.29 0.52 1.47
-7.16 0.64 1.38
-6.63 0.68 1.43
-7.24 0.83 1.36
-7.38 0.86 1.35
-12.45 1.49 0.79
-7.37 0.93 1.35
-6.88 0.89 1.40
-6.68 0.88 1.42
-6.76 0.91 1.41
-6.27 0.88 1.47
-6.13 0.88 1.48
-6.13 0.89 1.48
-6.18 0.91 1.47
-6.17 0.93 1.47
-6.31 0.96 1.46
-6.09 0.95 1.48
-6.12 0.97 1.48
-6.37 1.02 1.45
-6.27 1.04 1.46
-6.48 1.09 1.44
-6.29 1.09 1.46
-4.00 -1.63 1.50
-3.95 -1.57 1.51
-4.25 -1.62 1.48
-3.87 -1.50 1.52
-4.02 -1.52 1.50
-3.88 -1.47 1.52
-3.97 -1.48 1.51
-4.05 -1.48 1.50
-3.94 -1.44 1.51
-3.97 -1.43 1.51
-3.91 -1.40 1.52
-4.61 -1.54 1.44
-4.37 -1.47 1.47
-4.46 -1.47 1.46
-4.52 -1.47 1.45
-4.61 -1.47 1.44
-4.36 -1.38 1.47
-4.21 -1.34 1.49
-4.33 -1.35 1.47
-4.33 -1.33 1.47
-4.59 -1.31 1.45
-4.41 -1.26 1.47
-4.60 -1.28 1.45
-4.65 -1.26 1.44
-4.80 -1.27 1.43
-4.67 -1.23 1.44
-4.47 -1.18 1.46
-4.24 -1.10 1.48
-4.44 -1.04 1.46
-4.46 -1.02 1.46
-5.00 -0.98 1.41
-4.96 -0.96 1.41
-5.78 -1.02 1.32
-6.34 -1.07 1.27
-5.95 -0.67 1.31
-5.72 -0.63 1.33
-5.96 -0.63 1.31
-3.81 -0.45 1.53
-2.81 -0.37 1.63
-6.46 -0.60 1.25
-6.11 -0.56 1.29
-6.83 -0.58 1.21
-6.70 -0.55 1.23
-6.76 -0.54 1.22
-6.76 -0.51 1.22
-6.59 -0.48 1.24
-6.77 -0.47 1.22
-6.68 -0.45 1.23
-6.75 -0.43 1.22
-6.69 -0.40 1.23
-6.69 -0.38 1.23
-6.76 -0.36 1.22
-2.23 -0.17 1.69
-7.85 -0.28 1.31
-7.84 -0.27 1.32
-7.87 -0.25 1.31
-7.83 -0.23 1.32
-7.87 -0.21 1.31
-7.80 -0.19 1.32
-7.78 -0.17 1.32
-7.81 -0.13 1.32
-7.57 -0.11 1.34
-7.83 -0.09 1.31
-8.24 -0.08 1.27
-7.94 -0.06 1.30
-8.26 -0.04 1.27
-8.28 -0.02 1.27
-6.94 0.01 1.14
-6.85 0.03 1.15
-7.33 0.05 1.09
-7.59 0.08 1.06
-7.63 0.10 1.06
-6.35 0.11 1.20
-6.92 0.14 1.14
-7.64 0.18 1.06
-7.29 0.19 1.10
-6.83 0.21 1.15
-6.61 0.22 1.17
-7.15 0.26 1.11
-6.80 0.27 1.15
-7.04 0.30 1.12
-6.95 0.32 1.13
-7.01 0.34 1.13
-6.84 0.36 1.14
-6.95 0.39 1.13
-9.63 0.49 1.05
-6.37 0.36 1.43
-12.43 1.64 0.71
-6.85 -0.50 1.15
-6.56 -0.46 1.18
-6.74 -0.45 1.16
-6.86 -0.43 1.15
-6.54 -0.40 1.19
-6.73 -0.38 1.16
-7.01 -0.37 1.13
-7.27 -0.29 1.10
-6.66 -0.23 1.17
-7.12 -0.20 1.12
-7.17 -0.17 1.11
-7.08 -0.15 1.12
-7.46 -0.13 1.08
-7.01 -0.08 1.13
-7.52 -0.06 1.07
-7.56 -0.04 1.07
-8.20 0.00 1.16
-8.34 0.02 1.14
-8.56 0.04 1.12
-8.58 0.09 1.11
-8.70 0.11 1.10
-8.71 0.24 1.10
-8.64 0.25 1.10
-8.43 0.27 1.13
-8.53 0.29 1.12
-13.35 0.49 0.53
-8.81 0.35 1.08
-8.34 0.37 1.14
-13.24 0.64 0.54
-9.69 0.50 0.97
-9.47 0.51 1.00
-9.98 0.63 0.94
-9.87 0.70 0.95
-10.18 0.77 0.91
-10.24 0.80 0.90
-10.38 -0.99 0.67
-6.71 -0.51 1.10
-11.13 -0.62 0.81
-11.30 -0.60 0.79
-7.40 -0.38 1.26
-7.54 -0.37 1.24
-10.86 -0.50 0.84
-7.85 -0.34 1.21
-7.52 -0.31 1.25
-7.98 -0.29 1.19
-7.69 -0.22 1.22
-7.69 -0.19 1.23
-6.78 -0.13 1.33
-7.12 -0.10 1.29
-7.72 -0.09 1.22
-7.83 -0.08 1.21
-8.08 -0.04 1.18
-8.46 -0.02 1.13
-7.52 0.01 0.94
-6.43 0.03 1.07
-7.99 0.06 1.13
-7.89 0.08 1.14
-8.10 0.10 1.12
-7.90 0.12 1.14
-8.26 0.14 1.10
-8.49 0.19 1.07
-8.30 0.20 1.09
-8.28 0.22 1.09
-8.35 0.25 1.08
-8.37 0.27 1.08
-8.22 0.28 1.10
-8.30 0.33 1.09
-8.50 0.35 1.06
-7.99 0.35 1.13
-8.26 0.38 1.09
-8.41 0.41 1.07
-9.15 0.47 0.98
-9.65 0.52 0.91
-9.54 0.54 0.93
-9.46 0.58 0.93
-6.91 0.46 1.26
-7.30 0.52 1.21
-6.89 0.51 1.26
-7.00 0.60 1.25
-6.68 0.61 1.29
-6.55 0.63 1.30
-6.37 0.65 1.33
-6.72 0.78 1.28
-6.60 0.84 1.29
-6.38 0.83 1.32
-7.02 0.92 1.24
-6.70 0.90 1.28
-6.04 0.83 1.36
-6.02 0.87 1.37
-5.95 0.88 1.37
-6.22 0.95 1.34
-6.35 1.05 1.32
-6.30 1.06 1.32
-3.84 -1.64 1.39
-3.85 -1.62 1.39
-4.27 -1.62 1.34
-3.80 -1.36 1.40
-1.86 -0.92 1.65
-4.16 -1.39 1.36
-4.12 -1.35 1.36
-5.38 -0.90 1.21
-5.18 -0.86 1.23
-5.28 -0.85 1.22
-5.13 -0.82 1.24
-5.41 -0.83 1.21
-5.26 -0.79 1.22
-5.22 -0.77 1.23
-5.44 -0.78 1.20
-5.54 -0.77 1.19
-5.79 -0.77 1.16
-5.69 -0.74 1.17
-5.85 -0.74 1.15
-5.87 -0.62 1.15
-6.42 -0.64 1.08
-6.25 -0.61 1.10
-6.33 -0.59 1.09
-6.41 -0.58 1.08
-6.41 -0.56 1.08
-6.35 -0.53 1.09
-6.33 -0.51 1.09
-5.97 -0.47 1.13
-6.62 -0.49 1.05
-6.44 -0.45 1.08
-6.52 -0.44 1.07
-6.62 -0.42 1.05
-6.65 -0.40 1.05
-6.65 -0.38 1.05
-6.86 -0.37 1.02
-6.99 -0.35 1.01
-6.88 -0.32 1.02
-4.03 -0.19 1.38
-6.60 -0.25 1.05
-6.70 -0.23 1.04
-6.63 -0.21 1.05
-7.39 -0.20 0.96
-7.05 -0.17 1.00
-6.88 -0.15 1.02
-7.01 -0.13 1.00
-6.73 -0.10 1.04
-6.79 -0.08 1.03
-6.41 -0.06 1.08
-7.03 -0.04 1.00
-6.35 -0.01 1.08
-7.96 0.00 1.08
-7.96 0.02 1.08
-8.03 0.04 1.07
-8.10 0.06 1.06
-8.02 0.08 1.07
-8.27 0.10 1.03
-8.28 0.12 1.03
-8.04 0.14 1.06
-8.21 0.16 1.04
-8.11 0.18 1.05
-8.03 0.20 1.06
-8.14 0.22 1.05
-8.27 0.24 1.03
-7.28 0.23 1.16
-7.33 0.25 1.16
-7.45 0.27 1.14
-7.69 0.30 1.11
-7.43 0.31 1.14
-7.40 0.33 1.15
-8.53 0.40 0.99
-7.93 0.39 1.07
-8.09 0.42 1.05
-7.06 0.38 1.19
-7.79 0.44 1.09
-9.52 0.56 0.86
-6.74 0.42 1.23
-6.77 0.44 1.23
-10.29 0.68 0.75
-7.52 0.52 1.13
-7.09 0.51 1.18
-10.52 0.79 0.72
-7.00 0.55 1.20
-7.04 0.59 1.19
-6.60 0.57 1.25
-6.50 0.58 1.26
-6.63 0.61 1.24
-6.83 0.64 1.22
-6.27 0.61 1.29
-6.51 0.65 1.26
-6.38 0.65 1.28
-6.70 0.70 1.23
-6.90 0.73 1.21
-6.52 0.71 1.26
-6.78 0.76 1.22
-6.54 0.75 1.25
-6.46 0.75 1.26
-6.31 0.75 1.28
-6.38 0.78 1.27
-6.79 0.84 1.22
-6.22 0.79 1.29
-6.35 0.82 1.28
-6.39 0.84 1.27
-6.25 0.84 1.29
-6.08 0.83 1.31
-6.08 0.85 1.31
-6.06 0.86 1.31
-6.30 0.91 1.28
-6.08 0.90 1.31
-6.14 0.92 1.30
-6.25 0.95 1.28
-6.31 0.98 1.28
-6.16 0.97 1.30
-6.20 0.99 1.29
-6.16 1.00 1.30
-6.23 1.03 1.29
-6.27 1.05 1.28
-6.18 1.05 1.29
-6.34 1.10 1.27
-6.44 1.13 1.25
-4.17 -1.65 1.30
-4.00 -1.50 1.33
-4.15 -1.52 1.31
-4.64 -1.61 1.24
-3.99 -1.37 1.33
-3.91 -1.34 1.34
-4.20 -1.27 1.31
-4.33 -1.20 1.29
-4.40 -1.10 1.28
-5.06 -0.97 1.19
-5.47 -0.89 1.14
-5.30 -0.86 1.16
-5.39 -0.85 1.15
-5.13 -0.80 1.19
-5.55 -0.83 1.13
-5.55 -0.79 1.13
-5.64 -0.78 1.12
-6.14 -0.81 1.05
-5.85 -0.76 1.09
-5.43 -0.70 1.15
-5.71 -0.71 1.11
-5.95 -0.71 1.08
-10.06 -1.00 0.53
-6.60 -0.68 0.99
-6.52 -0.65 1.00
-6.46 -0.63 1.01
-6.60 -0.61 0.99
-6.34 -0.58 1.03
-6.58 -0.55 0.99
-6.05 -0.50 1.06
-6.46 -0.50 1.01
-6.21 -0.46 1.04
-6.31 -0.45 1.03
-5.74 -0.40 1.10
-6.32 -0.41 1.03
-6.32 -0.37 1.03
-6.28 -0.34 1.03
-6.77 -0.34 0.97
-6.86 -0.32 0.95
-6.85 -0.30 0.96
-7.03 -0.28 0.93
-7.14 -0.27 0.92
-7.49 -0.23 0.87
-7.59 -0.21 0.86
-7.21 -0.18 0.91
-7.82 -0.11 1.10
-8.22 -0.10 1.04
-7.83 -0.08 1.09
-6.42 -0.05 1.29
-8.17 -0.04 1.05
-8.21 -0.02 1.04
-6.84 0.01 0.89
-6.82 0.03 0.89
-6.71 0.05 0.91
-6.33 0.07 0.96
-6.21 0.09 0.98
-6.28 0.11 0.97
-6.03 0.13 1.00
-6.04 0.15 1.00
-6.52 0.18 0.93
-6.53 0.20 0.93
-6.95 0.23 0.87
-8.12 0.22 0.99
-7.67 0.23 1.06
-7.57 0.26 1.07
-7.23 0.28 1.12
-7.02 0.29 1.15
-7.22 0.32 1.12
-7.39 0.34 1.09
-8.78 0.43 0.90
-9.28 0.50 0.82
-6.59 0.39 1.21
-7.30 0.45 1.11
-10.21 0.65 0.69
-6.73 0.45 1.19
-6.38 0.44 1.23
-6.32 0.47 1.24
-6.43 0.51 1.23
-6.12 0.50 1.27
-6.31 0.53 1.24
-6.21 0.54 1.26
-6.87 0.61 1.16
-6.53 0.61 1.21
-6.40 0.62 1.23
-6.15 0.61 1.26
-6.51 0.66 1.21
-6.37 0.66 1.23
-6.84 0.73 1.16
-6.44 0.70 1.22
-6.80 0.77 1.17
-6.11 0.73 1.27
-6.35 0.77 1.23
-6.30 0.78 1.24
-6.29 0.81 1.24
-6.33 0.85 1.23
-6.32 0.90 1.23
-7.03 1.01 1.13
-6.12 0.90 1.26
-6.21 0.93 1.24
-6.03 0.93 1.27
-6.11 0.98 1.26
-6.12 0.99 1.26
-6.06 1.00 1.26
-6.21 1.06 1.24
-1.92 -1.09 1.58
-5.49 -1.18 1.08
-6.04 -1.14 1.00
-4.94 -0.97 1.16
-5.75 -1.06 1.05
-6.06 -1.02 1.00
-5.44 -0.93 1.09
-5.33 -0.89 1.10
-5.80 -0.93 1.04
-6.43 -0.98 0.95
-6.44 -0.96 0.95
-6.72 -0.97 0.91
-6.72 -0.93 0.91
-6.80 -0.91 0.90
-6.75 -0.88 0.91
-6.47 -0.84 0.95
-6.54 -0.82 0.94
-6.17 -0.77 0.99
-5.60 -0.70 1.07
-6.10 -0.66 1.00
-6.35 -0.66 0.96
-6.59 -0.63 0.93
-6.52 -0.61 0.94
-6.34 -0.58 0.96
-6.30 -0.55 0.97
-6.20 -0.53 0.98
-6.09 -0.50 1.00
-6.42 -0.50 0.95
-6.47 -0.48 0.94
-6.24 -0.45 0.98
-6.37 -0.43 0.96
-6.51 -0.42 0.94
-6.59 -0.40 0.93
-6.44 -0.37 0.95
-6.31 -0.35 0.97
-6.15 -0.32 0.99
-6.69 -0.32 0.91
-6.59 -0.29 0.93
-5.78 -0.25 1.04
-5.59 -0.22 1.07
-7.90 -0.26 0.74
-7.78 -0.24 0.76
-7.69 -0.21 0.77
-7.74 -0.19 0.77
-7.65 -0.16 0.78
-7.66 -0.14 0.78
-7.04 -0.11 0.86
-7.44 -0.09 0.81
-6.96 -0.06 0.87
-6.01 -0.03 1.01
-6.31 -0.02 0.96
-7.12 -0.00 1.08
-7.67 0.02 1.00
-7.41 0.04 1.04
-7.50 0.05 1.02
-7.06 0.07 1.09
-8.66 0.11 0.85
-8.76 0.13 0.83
-7.28 0.12 1.05
-7.18 0.14 1.07
-7.40 0.16 1.03
-7.29 0.18 1.05
-7.07 0.19 1.08
-6.66 0.20 1.14
-7.20 0.23 1.06
-7.39 0.25 1.03
-7.42 0.27 1.03
-8.20 0.32 0.91
-7.75 0.32 0.98
-7.34 0.32 1.04
-7.19 0.34 1.06
-6.90 0.34 1.11
-6.74 0.35 1.13
-6.64 0.36 1.14
-6.65 0.38 1.14
-6.84 0.40 1.11
-6.51 0.40 1.16
-6.32 0.41 1.19
-6.31 0.42 1.19
-6.44 0.45 1.17
-6.37 0.46 1.18
-6.67 0.49 1.14
-6.18 0.48 1.21
-6.15 0.49 1.22
-6.09 0.50 1.22
-6.18 0.52 1.21
-6.12 0.53 1.22
-6.24 0.56 1.20
-6.04 0.56 1.23
-6.08 0.57 1.22
-6.09 0.59 1.22
-6.08 0.60 1.22
-6.14 0.63 1.21
-6.11 0.64 1.22
-6.12 0.66 1.21
-5.98 0.66 1.23
-6.40 0.75 1.17
-6.27 0.75 1.19
-6.32 0.77 1.18
-6.03 0.75 1.22
-6.12 0.78 1.21
-6.33 0.82 1.18
-6.17 0.82 1.20
-6.56 0.88 1.14
-6.93 0.95 1.09
-6.95 0.97 1.08
-6.40 0.93 1.16
-6.30 0.93 1.18
-6.93 1.03 1.08
-6.15 0.94 1.20
-6.30 0.98 1.18
-6.24 0.98 1.19
-6.25 1.00 1.18
-6.15 1.00 1.20
-6.14 1.02 1.20
-6.09 1.02 1.21
-6.06 1.03 1.21
-6.21 1.07 1.19
-6.13 1.08 1.20
-6.06 1.08 1.21
-4.03 -1.57 1.22
-4.39 -1.64 1.17
-4.26 -1.60 1.19
-4.28 -1.58 1.19
-4.31 -1.56 1.18
-4.76 -1.64 1.12
-4.50 -1.57 1.16
-5.04 -1.67 1.08
-3.97 -1.37 1.24
-4.15 -1.39 1.21
-4.20 -1.39 1.20
-4.31 -1.26 1.19
-6.63 -1.68 0.84
-3.85 -1.13 1.26
-6.01 -1.22 0.94
-5.94 -1.19 0.95
-5.69 -1.02 0.99
-5.60 -0.99 1.00
-5.11 -0.91 1.07
-5.23 -0.90 1.06
-10.32 -1.45 0.31
-6.54 -0.97 0.86
-6.74 -0.97 0.83
-5.55 -0.81 1.01
-6.53 -0.89 0.87
-5.81 -0.80 0.97
-5.21 -0.72 1.06
-6.00 -0.77 0.94
-6.21 -0.77 0.91
-6.35 -0.77 0.89
-6.02 -0.72 0.94
-6.12 -0.70 0.93
-4.93 -0.59 1.10
-4.81 -0.56 1.12
-6.33 -0.66 0.89
-4.24 -0.49 1.20
-6.47 -0.63 0.87
-6.35 -0.60 0.89
-6.42 -0.52 0.88
-6.40 -0.50 0.88
-6.65 -0.49 0.85
-6.56 -0.46 0.86
-6.56 -0.44 0.86
-6.63 -0.42 0.85
-6.52 -0.40 0.87
-6.34 -0.37 0.89
-5.68 -0.32 0.99
-5.66 -0.30 0.99
-7.48 -0.26 1.03
-7.22 -0.23 1.07
-7.65 -0.22 1.00
-7.78 -0.21 0.98
-7.25 -0.18 1.06
-6.72 -0.15 1.14
-7.89 -0.15 0.97
-6.57 -0.11 1.16
-8.56 -0.13 0.86
-6.86 -0.08 1.12
-8.37 -0.08 0.89
-7.88 -0.06 0.96
-7.07 -0.03 1.09
-8.29 -0.02 0.90
-5.97 0.00 0.89
-6.31 0.03 0.83
-6.60 0.05 0.79
-6.93 0.07 0.74
-7.31 0.10 0.68
-6.85 0.11 0.75
-6.97 0.14 0.73
-5.70 0.14 0.93
-6.46 0.17 0.81
-6.07 0.19 0.87
-6.34 0.21 0.83
-5.83 0.22 0.90
-6.01 0.24 0.88
-5.66 0.25 0.93
-5.44 0.27 0.96
-5.84 0.30 0.90
-5.58 0.31 0.94
-5.55 0.33 0.95
-5.41 0.34 0.97
-10.18 0.54 0.54
-9.69 0.56 0.62
-10.18 0.64 0.54
-9.61 0.65 0.63
-6.01 0.43 1.20
-10.16 0.74 0.54
-10.29 0.77 0.52
-10.29 0.80 0.52
-10.32 0.83 0.51
-10.43 0.86 0.49
-10.36 0.88 0.50
-10.36 0.91 0.50
-10.40 0.94 0.50
-10.51 0.97 0.48
-10.63 1.32 0.45
-3.83 0.58 1.53
-5.98 1.00 1.18
-6.87 -1.67 0.75
-1.66 -0.63 1.56
-6.94 -0.93 0.74
-6.91 -0.90 0.75
-6.85 -0.87 0.76
-6.72 -0.80 0.77
-6.37 -0.68 0.83
-6.76 -0.69 0.77
-3.61 -0.44 1.26
-6.56 -0.55 0.80
-9.49 -0.47 0.35
-9.54 -0.45 0.34
-6.68 -0.32 0.78
-6.70 -0.30 0.78
-6.94 -0.28 0.74
-6.28 -0.22 0.84
-6.47 -0.21 0.81
-5.97 -0.17 0.89
-5.97 -0.15 0.89
-5.62 -0.13 0.94
-5.97 -0.11 0.89
-6.37 -0.10 0.83
-7.08 -0.08 0.72
-5.98 -0.06 0.89
-6.42 -0.04 0.82
-6.58 -0.02 0.79
-4.64 -0.00 1.38
-7.45 0.02 0.91
-7.03 0.05 0.98
-6.93 0.07 1.00
-6.83 0.08 1.01
-7.16 0.12 0.96
-6.99 0.14 0.98
-7.38 0.16 0.92
-7.83 0.19 0.84
-4.68 0.13 1.37
-4.82 0.14 1.34
-7.48 0.26 0.90
-7.23 0.27 0.94
-7.48 0.29 0.90
-7.22 0.30 0.94
-7.35 0.32 0.92
-6.68 0.31 1.03
-6.32 0.33 1.09
-6.27 0.34 1.10
-6.30 0.36 1.09
-6.27 0.37 1.10
-6.07 0.38 1.13
-6.15 0.40 1.12
-6.07 0.41 1.13
-6.10 0.42 1.13
-6.06 0.44 1.13
-6.06 0.45 1.13
-6.00 0.46 1.14
-5.98 0.48 1.14
-6.13 0.50 1.12
-6.05 0.51 1.13
-5.84 0.51 1.17
-6.09 0.54 1.12
-6.02 0.55 1.13
-5.93 0.56 1.15
-5.88 0.57 1.16
-6.02 0.60 1.13
-6.14 0.63 1.11
-5.96 0.64 1.14
-6.18 0.68 1.11
-6.23 0.70 1.10
-5.96 0.70 1.14
-6.49 0.77 1.05
-10.67 1.28 0.35
-6.03 0.75 1.13
-5.67 0.72 1.19
-6.11 0.87 1.11
-6.40 0.93 1.06
-6.00 0.90 1.13
-6.10 0.95 1.11
-6.19 0.98 1.09
-5.97 0.96 1.13
-6.26 1.02 1.08
-6.13 1.01 1.10
-6.07 1.02 1.11
-6.06 1.07 1.11
-6.69 -1.69 0.69
-6.65 -1.66 0.70
-6.58 -1.63 0.71
-6.68 -1.62 0.70
-6.67 -1.60 0.70
-6.62 -1.57 0.71
-6.90 -1.60 0.66
-5.22 -1.03 0.94
-6.83 -1.14 0.68
-5.01 -0.86 0.98
-6.90 -1.06 0.67
-6.66 -1.01 0.71
-6.66 -0.99 0.71
-6.86 -0.99 0.67
-6.97 -0.98 0.66
-6.77 -0.93 0.69
-7.02 -0.94 0.65
-6.97 -0.91 0.66
-6.92 -0.88 0.66
-6.84 -0.85 0.68
-6.60 -0.81 0.72
-6.56 -0.79 0.72
-6.66 -0.75 0.71
-6.25 -0.70 0.77
-6.23 -0.67 0.78
-6.11 -0.64 0.80
-6.47 -0.65 0.74
-6.34 -0.62 0.76
-6.40 -0.60 0.75
-6.38 -0.58 0.75
-6.41 -0.56 0.75
-6.16 -0.53 0.79
-6.40 -0.52 0.75
-6.12 -0.48 0.79
-9.21 -0.52 0.62
-6.63 -0.36 1.05
-10.26 -0.48 0.45
-8.26 -0.36 0.78
-7.85 -0.33 0.85
-7.55 -0.30 0.90
-7.00 -0.26 0.99
-6.82 -0.24 1.02
-6.94 -0.22 1.00
-7.11 -0.19 0.97
-7.11 -0.16 0.97
-7.38 -0.15 0.93
-6.94 -0.12 1.00
-6.98 -0.09 0.99
-8.19 -0.08 0.79
-7.98 -0.06 0.82
-4.49 -0.01 1.40
-6.39 0.00 0.68
-5.86 0.02 0.77
-6.71 0.05 0.98
-6.87 0.07 0.95
-6.87 0.08 0.95
-7.04 0.10 0.92
-4.78 0.08 1.31
-7.66 0.15 0.81
-4.63 0.10 1.34
-4.67 0.12 1.33
-7.20 0.19 0.89
-4.78 0.14 1.31
-4.70 0.15 1.33
-6.69 0.23 0.98
-6.69 0.25 0.98
-6.55 0.26 1.00
-6.46 0.27 1.02
-6.67 0.29 0.98
-6.62 0.31 0.99
-6.58 0.32 1.00
-6.40 0.33 1.03
-6.21 0.34 1.06
-6.06 0.34 1.09
-6.12 0.36 1.08
-6.08 0.37 1.08
-6.22 0.40 1.06
-6.05 0.40 1.09
-6.03 0.42 1.09
-5.88 0.42 1.12
-6.03 0.45 1.09
-6.03 0.46 1.09
-5.95 0.47 1.10
-5.89 0.48 1.11
-5.85 0.49 1.12
-5.77 0.50 1.13
-5.71 0.51 1.14
-5.83 0.53 1.12
-5.77 0.54 1.13
-5.93 0.57 1.10
-5.87 0.58 1.11
-5.97 0.61 1.09
-6.08 0.63 1.07
-5.84 0.62 1.12
-5.89 0.64 1.11
-5.92 0.66 1.10
-5.89 0.67 1.11
-5.75 0.67 1.13
-5.78 0.69 1.12
-5.75 0.70 1.13
-4.00 0.52 1.43
-5.42 0.73 1.18
-5.87 0.82 1.10
-5.68 0.81 1.14
-5.95 0.86 1.09
-6.06 0.91 1.07
-6.09 0.93 1.06
-5.88 0.91 1.10
-6.09 0.96 1.06
-6.24 1.00 1.03
-6.16 1.00 1.05
-6.02 0.99 1.07
-5.64 0.96 1.14
-1.71 -1.65 1.46
-1.61 -1.02 1.49
-4.32 -1.67 1.02
-6.59 -1.69 0.64
-6.68 -1.69 0.62
-6.51 -1.63 0.65
-6.67 -1.64 0.63
-6.76 -1.64 0.61
-6.52 -1.55 0.65
-6.78 -1.57 0.61
-2.20 -0.77 1.40
-2.14 -0.74 1.41
-6.90 -1.50 0.59
-6.65 -1.44 0.63
-1.84 -0.64 1.46
-5.05 -1.03 0.91
-4.50 -0.88 1.00
-4.81 -0.89 0.95
-6.18 -1.04 0.72
-6.74 -1.08 0.62
-5.24 -0.89 0.88
-6.95 -1.04 0.59
-6.94 -1.02 0.59
-6.92 -0.99 0.59
-6.83 -0.96 0.61
-7.04 -0.96 0.57
-6.85 -0.92 0.60
-6.90 -0.90 0.59
-6.99 -0.89 0.58
-6.84 -0.85 0.61
-6.81 -0.83 0.61
-6.76 -0.78 0.62
-6.77 -0.76 0.62
-6.64 -0.73 0.64
-6.61 -0.70 0.64
-6.65 -0.68 0.64
-6.50 -0.65 0.66
-6.45 -0.63 0.67
-6.54 -0.59 0.66
-6.54 -0.57 0.66
-6.40 -0.52 0.68
-6.46 -0.50 0.67
-6.52 -0.48 0.66
-6.44 -0.46 0.67
-6.55 -0.44 0.65
-6.34 -0.41 0.69
-6.29 -0.39 0.70
-6.23 -0.37 0.71
-6.23 -0.34 0.71
-6.58 -0.34 0.65
-7.95 -0.34 0.41
-6.83 -0.28 0.61
-6.44 -0.25 0.67
-7.83 -0.26 0.43
-6.15 -0.20 0.72
-7.63 -0.21 0.47
-6.01 -0.16 0.74
-6.05 -0.14 0.74
-6.17 -0.12 0.72
-6.17 -0.10 0.72
-6.21 -0.08 0.71
-6.69 -0.06 0.63
-6.21 -0.04 0.71
-6.31 -0.02 0.69
-6.99 -0.00 0.87
-6.90 0.02 0.89
-6.87 0.03 0.89
-6.95 0.05 0.88
-7.11 0.07 0.85
-7.01 0.08 0.87
-7.17 0.10 0.84
-7.18 0.12 0.83
-7.32 0.14 0.81
-8.03 0.17 0.68
-8.03 0.19 0.68
-8.08 0.22 0.67
-6.83 0.20 0.90
-6.46 0.21 0.97
-6.53 0.22 0.95
-6.52 0.24 0.95
-6.70 0.26 0.92
-6.62 0.28 0.93
-6.47 0.29 0.96
-6.52 0.30 0.95
-6.24 0.31 1.00
-6.39 0.33 0.97
-6.24 0.34 1.00
-6.14 0.35 1.02
-6.08 0.36 1.03
-6.24 0.38 1.00
-6.15 0.39 1.02
-5.90 0.39 1.06
-5.81 0.40 1.08
-5.94 0.43 1.05
-5.88 0.44 1.06
-5.87 0.45 1.06
-5.87 0.47 1.06
-5.87 0.48 1.06
-5.85 0.49 1.07
-5.87 0.51 1.06
-5.94 0.53 1.05
-6.07 0.56 1.02
-6.22 0.58 1.00
-6.09 0.59 1.02
-6.11 0.61 1.02
-6.11 0.62 1.02
-6.17 0.64 1.00
-6.18 0.66 1.00
-6.30 0.69 0.98
-6.06 0.68 1.02
-6.32 0.72 0.98
-6.42 0.75 0.96
-6.01 0.72 1.03
-6.05 0.74 1.02
-6.24 0.78 0.99
-6.02 0.76 1.03
-5.94 0.77 1.04
-6.09 0.80 1.01
-6.00 0.81 1.03
-5.80 0.80 1.06
-5.73 0.80 1.08
-5.80 0.83 1.06
-5.77 0.84 1.07
-5.94 0.88 1.04
-5.89 0.88 1.05
-5.96 0.91 1.03
-6.05 0.94 1.01
-6.13 0.97 1.00
-6.06 0.97 1.01
-6.25 1.01 0.98
-6.07 1.00 1.01
-6.02 1.01 1.02
-6.13 1.04 1.00
-5.94 1.03 1.03
-6.05 1.06 1.01
-5.95 1.08 1.03
-5.55 1.02 1.10
-4.31 0.83 1.33
-4.43 -1.67 0.95
-4.18 -1.59 0.99
-4.58 -1.65 0.92
-4.48 -1.61 0.94
-4.76 -1.65 0.89
-4.45 -1.56 0.94
-4.18 -1.46 1.00
-4.46 -1.51 0.94
-4.60 -1.47 0.92
-4.43 -1.34 0.95
-4.31 -1.30 0.98
-4.52 -1.32 0.94
-4.20 -1.24 1.00
-4.52 -1.29 0.94
-6.72 -1.67 0.54
-6.52 -1.62 0.58
-6.75 -1.64 0.54
-4.67 -1.25 0.91
-6.68 -1.58 0.55
-6.46 -1.52 0.59
-6.48 -1.50 0.59
-6.35 -1.46 0.61
-6.52 -1.47 0.58
-6.22 -1.40 0.63
-6.17 -1.37 0.64
-6.17 -1.35 0.64
-6.24 -1.34 0.63
-6.52 -1.36 0.58
-5.93 -1.25 0.69
-5.83 -1.21 0.71
-6.02 -1.22 0.67
-6.12 -1.21 0.66
-5.26 -1.07 0.81
-6.28 -1.20 0.63
-6.46 -1.16 0.59
-6.22 -1.10 0.64
-5.97 -1.05 0.68
-5.12 -0.93 0.84
-5.04 -0.90 0.85
-6.99 -1.11 0.50
-6.99 -1.09 0.50
-7.01 -1.07 0.50
-6.91 -1.04 0.52
-6.95 -1.02 0.51
-7.07 -1.01 0.49
-6.92 -0.97 0.51
-6.98 -0.96 0.50
-6.79 -0.91 0.54
-6.75 -0.89 0.55
-6.94 -0.88 0.51
-6.76 -0.85 0.54
-6.83 -0.83 0.53
-7.00 -0.82 0.50
-6.65 -0.77 0.56
-6.57 -0.74 0.58
-6.70 -0.73 0.55
-6.74 -0.71 0.55
-6.47 -0.67 0.59
-4.20 -0.48 1.00
-3.86 -0.44 1.06
-6.26 -0.59 0.63
-4.11 -0.43 1.02
-4.02 -0.41 1.03
-3.78 -0.38 1.08
-3.94 -0.37 1.05
-6.60 -0.51 0.57
-6.67 -0.49 0.56
-7.49 -0.51 0.41
-6.64 -0.45 0.57
-6.49 -0.42 0.59
-6.59 -0.40 0.57
-6.74 -0.39 0.55
-6.78 -0.37 0.54
-6.60 -0.34 0.57
-7.72 -0.36 0.37
-7.36 -0.32 0.43
-7.65 -0.31 0.38
-6.45 -0.25 0.60
-7.42 -0.25 0.42
-6.72 -0.21 0.55
-6.39 -0.18 0.61
-6.48 -0.17 0.59
-6.77 -0.10 0.91
-6.80 -0.08 0.91
-6.80 -0.07 0.91
-6.93 -0.05 0.88
-6.97 -0.04 0.88
-7.29 -0.02 0.82
-6.11 0.00 0.58
-3.61 0.02 1.05
-3.31 0.03 1.11
-3.47 0.04 1.08
-5.51 0.08 0.69
-5.38 0.09 0.72
-5.33 0.11 0.73
-5.47 0.13 0.70
-5.30 0.15 0.73
-5.47 0.17 0.70
-5.35 0.19 0.72
-8.07 0.24 0.60
-4.48 0.14 1.29
-4.43 0.15 1.30
-6.28 0.23 0.94
-6.19 0.24 0.96
-6.10 0.27 0.97
-6.16 0.29 0.96
-5.98 0.29 1.00
-6.05 0.31 0.98
-6.14 0.33 0.97
-6.02 0.34 0.99
-6.02 0.36 0.99
-5.95 0.38 1.00
-6.10 0.41 0.97
-6.06 0.42 0.98
-5.69 0.41 1.05
-5.86 0.43 1.02
-5.57 0.43 1.07
-5.65 0.45 1.06
-5.52 0.46 1.08
-5.69 0.49 1.05
-6.08 0.54 0.97
-6.07 0.55 0.97
-4.35 0.42 1.30
-5.98 0.58 0.99
-4.27 0.43 1.32
-6.16 0.64 0.95
-4.72 0.51 1.23
-5.22 0.57 1.13
-4.92 0.55 1.19
-4.67 0.54 1.24
-4.95 0.58 1.18
-4.81 0.58 1.21
-4.99 0.62 1.17
-5.24 0.67 1.12
-5.79 0.78 1.02
-5.67 0.78 1.04
-5.79 0.81 1.02
-5.83 0.84 1.01
-5.87 0.86 1.00
-5.90 0.88 0.99
-5.92 0.90 0.99
-5.88 0.91 0.99
-4.41 -1.63 0.89
-4.48 -1.43 0.88
-4.50 -1.33 0.88
-6.52 -1.63 0.50
-6.61 -1.63 0.48
-6.70 -1.63 0.47
-6.91 -1.64 0.43
-6.48 -1.54 0.51
-6.62 -1.55 0.48
-6.54 -1.47 0.50
-6.37 -1.42 0.53
-6.56 -1.40 0.50
-4.98 -1.12 0.80
-5.35 -1.14 0.73
-4.58 -0.99 0.87
-1.62 -0.55 1.43
-1.86 -0.55 1.39
-5.06 -0.94 0.78
-5.04 -0.92 0.79
-5.17 -0.92 0.76
-7.10 -1.13 0.40
-7.03 -1.10 0.41
-7.09 -1.08 0.40
-6.71 -1.01 0.47
-6.95 -1.02 0.43
-6.97 -1.00 0.43
-4.31 -0.70 0.93
-7.00 -0.96 0.42
-6.79 -0.91 0.46
-6.76 -0.89 0.47
-6.68 -0.86 0.48
-6.60 -0.83 0.50
-6.65 -0.81 0.49
-6.68 -0.80 0.48
-6.60 -0.77 0.49
-6.43 -0.73 0.53
-6.39 -0.71 0.54
-1.80 -0.33 1.40
-6.57 -0.68 0.50
-1.84 -0.31 1.39
-1.84 -0.30 1.39
-1.84 -0.29 1.39
-6.19 -0.57 0.57
-1.76 -0.27 1.40
-6.88 -0.57 0.44
-6.51 -0.53 0.51
-6.98 -0.53 0.42
-6.77 -0.50 0.46
-7.12 -0.49 0.40
-6.84 -0.44 0.45
-7.04 -0.42 0.41
-7.28 -0.41 0.37
-8.15 -0.37 0.20
-8.02 -0.34 0.23
-8.15 -0.32 0.20
-7.40 -0.23 0.34
-6.67 -0.19 0.48
-6.21 -0.16 0.57
-6.04 -0.14 0.60
-5.90 -0.12 0.62
-5.88 -0.10 0.63
-5.64 -0.07 0.67
-5.85 -0.06 0.63
-5.94 -0.04 0.62
-5.73 -0.02 0.66
-6.76 0.01 0.79
-6.92 0.05 0.76
-7.09 0.07 0.72
-7.49 0.09 0.64
-7.93 0.13 0.56
-8.03 0.17 0.53
-8.11 0.22 0.52
-6.29 0.18 0.88
-6.34 0.20 0.87
-6.16 0.23 0.91
-6.08 0.25 0.92
-6.09 0.28 0.92
-6.16 0.30 0.90
-6.32 0.33 0.87
-6.09 0.34 0.92
-6.00 0.37 0.93
-6.62 0.44 0.81
-6.62 0.46 0.81
-6.75 0.48 0.78
-6.39 0.49 0.85
-6.65 0.54 0.80
-6.61 0.57 0.81
-6.42 0.57 0.84
-6.53 0.60 0.82
-6.59 0.63 0.81
-5.09 0.52 1.11
-5.20 0.56 1.08
-5.01 0.55 1.12
-5.17 0.58 1.09
-5.26 0.62 1.07
-5.19 0.64 1.08
-5.38 0.69 1.04
-5.42 0.71 1.04
-5.50 0.73 1.02
-5.73 0.79 0.97
-5.75 0.82 0.97
-5.85 0.86 0.94
-5.77 0.87 0.96
-5.74 0.88 0.97
-5.72 0.90 0.97
-5.69 0.93 0.97
-5.79 0.97 0.95
-6.06 1.08 0.89
-4.30 -1.67 0.85
-4.41 -1.67 0.83
-4.63 -1.69 0.78
-4.24 -1.58 0.86
-4.24 -1.56 0.86
-4.39 -1.58 0.83
-4.42 -1.57 0.83
-4.45 -1.56 0.82
-4.47 -1.55 0.82
-4.39 -1.51 0.83
-4.81 -1.59 0.75
-4.21 -1.42 0.87
-4.39 -1.43 0.84
-4.57 -1.45 0.80
-4.08 -1.33 0.90
-4.32 -1.36 0.85
-4.53 -1.39 0.81
-6.14 -1.69 0.49
-4.64 -1.36 0.79
-4.60 -1.34 0.80
-4.55 -1.31 0.81
-4.61 -1.30 0.80
-4.66 -1.30 0.79
-4.67 -1.28 0.79
-6.56 -1.60 0.41
-4.41 -1.20 0.84
-4.13 -1.14 0.89
-4.34 -1.16 0.85
-4.49 -1.17 0.82
-4.43 -1.14 0.83
-4.41 -1.12 0.84
-4.73 -1.15 0.78
-4.59 -1.12 0.80
-4.37 -1.06 0.85
-4.42 -1.06 0.84
-5.19 -1.16 0.69
-5.53 -1.19 0.62
-4.60 -1.03 0.80
-4.91 -1.06 0.74
-4.95 -1.05 0.73
-6.07 -1.19 0.51
-6.42 -1.22 0.45
-4.72 -0.96 0.78
-4.65 -0.94 0.80
-5.65 -1.05 0.60
-5.15 -0.97 0.70
-4.67 -0.89 0.79
-4.68 -0.88 0.79
-4.76 -0.87 0.77
-6.95 -1.11 0.34
-6.92 -1.08 0.35
-6.79 -1.05 0.37
-6.81 -1.03 0.37
-7.12 -1.04 0.31
-6.78 -0.98 0.38
-4.16 -0.69 0.89
-4.30 -0.68 0.87
-6.45 -0.88 0.44
-6.47 -0.86 0.44
-6.47 -0.84 0.44
-4.29 -0.60 0.87
-4.22 -0.58 0.88
-4.36 -0.58 0.85
-4.33 -0.56 0.86
-4.19 -0.53 0.89
-6.51 -0.68 0.43
-3.70 -0.45 0.98
-6.52 -0.63 0.43
-3.96 -0.44 0.93
-3.89 -0.42 0.95
-3.95 -0.41 0.93
-3.97 -0.39 0.93
-3.67 -0.36 0.99
-3.73 -0.35 0.98
-3.66 -0.33 0.99
-3.72 -0.32 0.98
-3.67 -0.30 0.99
-6.53 -0.42 0.43
-6.69 -0.41 0.39
-6.62 -0.38 0.41
-6.42 -0.35 0.45
-7.09 -0.36 0.32
-7.28 -0.27 0.69
-7.10 -0.23 0.73
-7.05 -0.21 0.74
-7.05 -0.19 0.74
-6.88 -0.15 0.77
-7.15 -0.12 0.72
-7.09 -0.09 0.73
-6.96 -0.05 0.75
-6.67 -0.02 0.81
-5.64 0.00 0.54
-5.65 0.02 0.53
-5.62 0.04 0.54
-5.58 0.06 0.55
-5.56 0.08 0.55
-5.67 0.10 0.53
-5.44 0.11 0.57
-5.25 0.13 0.61
-3.08 0.11 1.06
-3.30 0.12 1.01
-5.18 0.18 0.63
-3.05 0.14 1.06
-3.31 0.16 1.01
-4.84 0.22 0.69
-3.53 0.20 0.96
-4.15 0.23 0.83
-3.50 0.23 0.97
-3.67 0.25 0.93
-3.43 0.25 0.98
-6.07 0.30 0.87
-6.34 0.33 0.82
-6.56 0.35 0.77
-6.27 0.37 0.83
-6.62 0.40 0.76
-5.48 0.41 0.99
-5.72 0.44 0.94
-5.93 0.47 0.90
-6.12 0.50 0.86
-6.07 0.51 0.87
-6.31 0.54 0.82
-6.15 0.54 0.85
-4.88 0.45 1.11
-4.46 0.42 1.20
-4.48 0.44 1.20
-4.62 0.46 1.17
-4.63 0.47 1.16
-4.61 0.48 1.17
-4.87 0.52 1.11
-4.86 0.53 1.11
-4.86 0.55 1.11
-4.85 0.56 1.12
-4.77 0.56 1.13
-4.83 0.58 1.12
-4.74 0.58 1.14
-5.07 0.63 1.07
-5.16 0.66 1.05
-5.38 0.71 1.00
-5.61 0.77 0.95
-5.68 0.79 0.94
-5.65 0.80 0.94
-5.52 0.80 0.97
-5.65 0.85 0.94
-4.43 -1.55 0.77
-4.30 -1.47 0.80
-4.69 -1.38 0.72
-4.69 -1.35 0.73
-4.59 -1.30 0.75
-4.27 -1.19 0.81
-4.67 -1.24 0.73
-4.52 -1.20 0.76
-4.50 -1.18 0.77
-2.32 -0.58 1.22
-2.08 -0.45 1.27
-1.69 -0.41 1.35
-6.34 -0.85 0.40
-2.21 -0.41 1.24
-3.13 -0.48 1.05
-1.60 -0.26 1.37
-4.28 -0.38 0.82
-6.29 -0.39 0.41
-6.17 -0.36 0.43
-6.40 -0.35 0.38
-7.23 -0.36 0.21
-6.36 -0.31 0.39
-7.17 -0.32 0.23
-6.47 -0.23 0.37
-6.03 -0.20 0.46
-5.77 -0.17 0.51
-5.78 -0.15 0.51
-5.87 -0.14 0.49
-5.76 -0.11 0.51
-5.74 -0.10 0.52
-5.77 -0.08 0.51
-5.71 -0.06 0.52
-5.73 -0.04 0.52
-5.66 -0.02 0.53
-7.02 -0.00 0.61
-7.15 0.01 0.58
-7.22 0.03 0.56
-7.56 0.05 0.49
-6.65 0.06 0.69
-7.55 0.09 0.49
-7.76 0.11 0.45
-7.59 0.13 0.48
-6.21 0.14 0.78
-6.23 0.15 0.78
-6.15 0.16 0.79
-6.07 0.18 0.81
-6.13 0.19 0.80
-6.12 0.21 0.80
-6.11 0.22 0.80
-6.11 0.24 0.80
-6.08 0.25 0.81
-6.04 0.27 0.82
-5.91 0.28 0.84
-6.00 0.29 0.82
-6.23 0.32 0.77
-6.26 0.34 0.77
-6.40 0.36 0.73
-6.31 0.37 0.75
-6.49 0.40 0.71
-6.26 0.40 0.76
-6.14 0.41 0.79
-5.85 0.40 0.85
-6.01 0.43 0.82
-6.19 0.46 0.78
-5.47 0.42 0.93
-6.29 0.50 0.75
-6.35 0.52 0.74
-6.17 0.52 0.78
-6.48 0.56 0.71
-6.29 0.56 0.75
-6.21 0.57 0.77
-4.26 0.41 1.19
-6.42 0.62 0.72
-6.46 0.64 0.71
-4.38 0.45 1.17
-6.40 0.66 0.72
-6.24 0.66 0.76
-6.22 0.68 0.76
-6.22 0.69 0.76
-6.19 0.71 0.77
-6.34 0.74 0.73
-5.96 0.71 0.82
-5.72 0.70 0.87
-5.62 0.70 0.89
-5.71 0.73 0.87
-5.47 0.71 0.92
-5.54 0.73 0.90
-5.31 0.72 0.95
-5.59 0.77 0.89
-5.68 0.80 0.87
-5.74 0.82 0.86
-5.91 0.86 0.82
-5.80 0.86 0.84
-5.67 0.85 0.87
-6.00 0.91 0.80
-5.82 0.90 0.84
-5.78 0.91 0.84
-5.84 0.94 0.83
-5.84 0.95 0.83
-6.08 1.00 0.78
-6.19 1.05 0.75
-6.16 1.06 0.76
-4.03 0.72 1.23
-4.31 0.78 1.16
-6.19 1.12 0.75
-3.69 -1.66 0.85
-3.88 -1.66 0.81
-4.35 -1.67 0.71
-4.26 -1.63 0.73
-4.24 -1.61 0.74
-4.23 -1.59 0.74
-4.38 -1.61 0.71
-4.64 -1.66 0.65
-4.65 -1.64 0.65
-4.60 -1.61 0.66
-4.77 -1.64 0.63
-4.76 -1.61 0.63
-4.70 -1.58 0.64
-4.53 -1.53 0.68
-4.51 -1.51 0.69
-4.59 -1.51 0.67
-4.64 -1.50 0.66
-4.61 -1.48 0.67
-4.52 -1.44 0.69
-4.74 -1.47 0.64
-4.53 -1.41 0.68
-4.88 -1.46 0.61
-4.95 -1.46 0.59
-4.65 -1.38 0.66
-4.54 -1.34 0.68
-4.86 -1.39 0.61
-4.48 -1.30 0.70
-4.46 -1.28 0.70
-4.65 -1.30 0.66
-4.58 -1.27 0.68
-4.61 -1.26 0.67
-4.47 -1.21 0.70
-4.43 -1.19 0.71
-4.33 -1.16 0.73
-4.39 -1.15 0.72
-4.49 -1.15 0.70
-5.25 -1.26 0.53
-4.71 -1.15 0.65
-4.72 -1.14 0.65
-4.61 -1.10 0.67
-4.62 -1.09 0.67
-4.56 -1.06 0.69
-5.17 -1.14 0.55
-4.45 -1.01 0.71
-4.48 -1.00 0.70
-4.50 -0.99 0.70
-4.55 -0.98 0.69
-4.44 -0.95 0.71
-4.33 -0.91 0.74
-4.20 -0.88 0.76
-4.11 -0.85 0.78
-4.57 -0.90 0.68
-4.81 -0.91 0.63
-5.03 -0.92 0.59
-4.46 -0.78 0.71
-4.09 -0.73 0.79
-3.95 -0.63 0.82
-4.03 -0.61 0.80
-3.95 -0.59 0.82
-5.69 -0.73 0.45
-5.92 -0.71 0.40
-4.17 -0.55 0.77
-5.83 -0.67 0.42
-4.18 -0.52 0.77
-4.16 -0.50 0.77
-4.35 -0.48 0.73
-4.14 -0.44 0.78
-4.10 -0.42 0.79
-4.02 -0.40 0.80
-4.05 -0.38 0.80
-7.76 -0.42 0.45
-7.71 -0.40 0.46
-7.71 -0.38 0.46
-7.29 -0.33 0.55
-7.62 -0.32 0.48
-7.59 -0.30 0.49
-7.54 -0.28 0.50
-7.45 -0.26 0.52
-7.33 -0.24 0.54
-7.39 -0.22 0.53
-7.13 -0.20 0.59
-7.01 -0.18 0.61
-7.02 -0.16 0.61
-7.33 -0.15 0.54
-7.30 -0.13 0.55
-7.24 -0.11 0.56
-7.16 -0.09 0.58
-6.95 -0.07 0.63
-7.05 -0.06 0.60
-7.04 -0.04 0.61
-7.02 -0.02 0.61
-2.45 0.00 1.09
-2.31 0.01 1.12
-7.16 0.05 0.51
-7.01 0.06 0.54
-6.69 0.08 0.61
-6.17 0.09 0.73
-6.08 0.10 0.75
-6.12 0.12 0.74
-6.18 0.13 0.73
-6.09 0.15 0.75
-6.10 0.16 0.74
-5.90 0.17 0.79
-6.04 0.19 0.76
-5.98 0.20 0.77
-5.89 0.22 0.79
-5.85 0.23 0.80
-5.94 0.25 0.78
-5.84 0.26 0.80
-5.89 0.27 0.79
-6.02 0.29 0.76
-6.10 0.31 0.74
-6.07 0.33 0.75
-6.14 0.35 0.73
-6.02 0.35 0.76
-5.87 0.36 0.79
-5.59 0.36 0.85
-5.61 0.37 0.85
-5.98 0.41 0.77
-5.85 0.42 0.79
-4.50 0.34 1.10
-4.59 0.35 1.08
-5.97 0.47 0.76
-5.92 0.48 0.78
-6.10 0.51 0.73
-6.16 0.53 0.72
-6.16 0.55 0.72
-4.41 0.41 1.12
-4.30 0.41 1.14
-4.42 0.43 1.12
-4.62 0.46 1.07
-4.49 0.46 1.10
-4.34 0.46 1.13
-4.46 0.48 1.11
-4.58 0.51 1.08
-4.58 0.52 1.08
-4.83 0.56 1.02
-4.61 0.54 1.07
-4.94 0.59 0.99
-5.23 0.64 0.92
-5.24 0.65 0.92
-5.59 0.71 0.84
-5.39 0.70 0.89
-5.29 0.70 0.91
-4.82 0.67 1.02
-4.27 0.73 1.13
-4.49 -1.45 0.63
-4.39 -1.38 0.65
-4.59 -1.38 0.61
-4.58 -1.37 0.61
-4.42 -1.30 0.65
-4.32 -1.27 0.67
-3.07 -1.00 0.95
-4.35 -1.16 0.67
-4.37 -1.15 0.66
-4.41 -1.12 0.65
-4.62 -1.12 0.61
-4.30 -1.05 0.68
-4.47 -1.03 0.64
-4.40 -0.99 0.66
-5.21 -1.07 0.47
-4.37 -0.93 0.66
-4.25 -0.89 0.69
-4.08 -0.85 0.73
-3.75 -0.77 0.80
-3.63 -0.73 0.83
-4.35 -0.77 0.67
-3.74 -0.69 0.81
-3.68 -0.65 0.82
-3.44 -0.60 0.88
-3.96 -0.63 0.76
-3.71 -0.58 0.81
-3.82 -0.58 0.79
-3.57 -0.52 0.85
-3.57 -0.48 0.85
-2.26 -0.35 1.14
-6.39 -0.38 0.21
-2.45 -0.18 1.09
-6.35 -0.17 0.22
-5.59 -0.09 0.39
-5.56 -0.06 0.40
-5.67 -0.04 0.37
-7.36 0.09 0.39
-7.05 0.12 0.46
-6.48 0.17 0.60
-6.26 0.18 0.65
-6.04 0.19 0.70
-6.12 0.22 0.68
-6.12 0.24 0.68
-6.23 0.27 0.65
-6.23 0.29 0.65
-6.21 0.30 0.65
-6.40 0.33 0.61
-6.43 0.36 0.60
-5.92 0.35 0.72
-5.76 0.37 0.76
-5.54 0.37 0.81
-6.31 0.43 0.63
-6.16 0.44 0.66
-6.01 0.46 0.70
-6.49 0.51 0.58
-6.68 0.56 0.54
-6.12 0.53 0.67
-6.05 0.54 0.68
-6.13 0.56 0.66
-6.53 0.63 0.57
-6.41 0.63 0.60
-6.49 0.67 0.58
-4.56 0.49 1.03
-4.48 0.49 1.05
-4.64 0.52 1.01
-6.61 0.77 0.54
-6.61 0.78 0.54
-6.71 0.83 0.52
-6.29 0.81 0.62
-6.59 0.86 0.54
-5.97 0.82 0.69
-5.97 0.83 0.69
-6.13 0.88 0.65
-6.26 0.93 0.62
-6.06 0.92 0.66
-6.21 0.97 0.63
-5.96 0.95 0.68
-6.12 0.99 0.65
-4.73 -1.34 0.51
-4.55 -1.29 0.55
-4.78 -1.32 0.50
-4.78 -1.30 0.50
-4.68 -1.27 0.52
-4.58 -1.23 0.55
-4.88 -1.27 0.47
-4.61 -1.20 0.54
-5.03 -1.26 0.44
-4.87 -1.20 0.48
-4.68 -1.15 0.52
-4.35 -1.08 0.60
-4.43 -1.07 0.58
-4.62 -1.09 0.54
-4.30 -1.02 0.61
-4.58 -1.05 0.55
-4.43 -1.01 0.58
-4.18 -0.96 0.64
-4.47 -0.98 0.57
-4.53 -0.97 0.56
-4.44 -0.94 0.58
-4.59 -0.95 0.55
-4.21 -0.88 0.64
-4.33 -0.88 0.61
-4.34 -0.87 0.61
-4.38 -0.85 0.60
-4.04 -0.75 0.68
-3.70 -0.64 0.76
-4.04 -0.64 0.68
-4.54 -0.59 0.56
-4.83 -0.53 0.49
-4.61 -0.50 0.54
-6.03 -0.34 0.21
-7.36 -0.11 0.39
-0.88 -0.90 0.45
-1.04 -0.67 0.25
