# .PCD v0.7 - Point Cloud Data file format
VERSION 0.7
FIELDS x y z
SIZE 4 4 4
TYPE F F F
COUNT 1 1 1
WIDTH 2257
HEIGHT 1
VIEWPOINT 0 0 0 1 0 0 0
POINTS 2257
DATA ASCII
-6.40 -1.67 1.97
-2.78 -0.58 2.06
-10.40 0.33 1.84
-5.90 -1.64 1.95
-6.13 -1.54 1.94
-6.11 -0.72 1.94
-6.15 -0.70 1.94
-6.05 -0.65 1.94
-6.06 -0.61 1.94
-6.00 -0.59 1.94
-10.09 0.03 1.79
-10.93 0.59 1.75
-9.44 0.19 1.72
-9.45 0.21 1.71
-8.39 0.52 1.81
-2.54 -1.54 1.99
-9.90 0.03 1.72
-9.81 0.05 1.72
-9.96 0.08 1.71
-10.07 0.10 1.71
-10.36 0.18 1.69
-10.07 0.20 1.71
-10.16 0.23 1.70
-10.31 0.25 1.69
-10.38 0.31 1.69
-6.19 -1.59 1.82
-6.06 -1.55 1.82
-6.43 -0.85 1.81
-8.61 -0.90 1.71
-8.90 -0.90 1.70
-9.52 -0.23 1.73
-9.52 -0.16 1.73
-9.79 -0.14 1.72
-9.21 0.02 1.63
-9.40 0.07 1.63
-9.68 0.42 1.61
-9.62 0.44 1.61
-11.80 1.12 1.57
-8.86 -0.92 1.66
-9.61 0.00 1.65
-9.48 0.03 1.65
-9.66 0.05 1.64
-10.22 0.20 1.61
-10.09 0.22 1.62
-10.26 0.25 1.61
-10.19 0.30 1.61
-10.29 0.33 1.61
-10.42 0.36 1.60
-10.42 0.38 1.60
-10.12 0.40 1.61
-10.17 0.42 1.61
-10.28 0.50 1.60
-10.99 0.70 1.56
-9.88 0.68 1.62
-11.80 1.15 1.51
-8.15 1.17 1.71
-6.03 -1.58 1.75
-5.93 -1.54 1.76
-5.92 -1.52 1.76
-6.42 -1.04 1.73
-7.12 -1.01 1.70
-7.81 -0.98 1.66
-8.45 -0.89 1.63
-8.62 -0.88 1.62
-8.61 -0.85 1.62
-9.96 -0.24 1.63
-9.92 -0.21 1.63
-9.76 -0.19 1.64
-9.57 -0.16 1.65
-9.67 -0.14 1.64
-9.48 -0.09 1.65
-9.71 -0.04 1.64
-9.48 -0.02 1.65
-10.48 0.33 1.55
-7.50 -1.02 1.63
-7.54 -0.63 1.63
-7.87 -0.13 1.61
-10.07 0.12 1.53
-8.31 0.12 1.64
-10.24 0.23 1.52
-10.34 0.28 1.51
-10.44 0.31 1.50
-10.64 0.34 1.49
-10.32 0.35 1.51
-10.30 0.40 1.51
-10.38 0.43 1.51
-10.61 0.47 1.49
-10.12 0.47 1.52
-10.18 0.55 1.52
-15.32 0.89 1.19
-8.08 1.20 1.64
-8.15 1.23 1.64
-6.71 -1.47 1.64
-6.80 -1.17 1.63
-6.74 -1.08 1.64
-7.87 -1.11 1.57
-7.99 -1.10 1.56
-7.93 -1.07 1.56
-7.96 -1.05 1.56
-7.87 -1.01 1.57
-7.52 -0.69 1.59
-7.67 -0.68 1.58
-7.59 -0.65 1.58
-7.89 -0.65 1.56
-7.84 -0.57 1.57
-9.67 -0.14 1.56
-9.55 -0.11 1.56
-9.82 -0.09 1.55
-9.69 -0.07 1.56
-9.83 -0.05 1.55
-7.65 0.08 1.52
-7.40 0.10 1.54
-9.29 0.24 1.41
-9.28 0.29 1.41
-10.33 0.28 1.46
-10.24 0.30 1.46
-10.21 0.32 1.46
-10.33 0.35 1.46
-10.44 0.38 1.45
-11.32 0.80 1.38
-6.33 -1.34 1.61
-6.48 -1.19 1.60
-6.57 -1.18 1.60
-6.95 -1.19 1.57
-6.54 -1.05 1.60
-7.27 -1.11 1.55
-7.66 -1.11 1.53
-8.01 -1.10 1.50
-7.95 -1.07 1.51
-8.08 -1.06 1.50
-7.94 -1.02 1.51
-8.01 -0.61 1.50
-7.83 -0.52 1.51
-8.06 -0.38 1.50
-11.89 -0.25 1.24
-8.83 -0.17 1.45
-9.30 -0.01 1.41
-8.43 0.00 1.55
-10.10 0.03 1.42
-9.94 0.05 1.43
-8.42 0.06 1.55
-10.08 0.10 1.42
-10.23 0.13 1.41
-9.94 0.15 1.43
-10.05 0.17 1.42
-10.34 0.20 1.40
-10.27 0.23 1.41
-10.69 0.26 1.38
-10.38 0.33 1.40
-10.55 0.36 1.39
-10.29 0.38 1.40
-8.57 0.34 1.53
-10.70 0.44 1.37
-8.51 0.38 1.53
-10.65 0.49 1.38
-8.84 0.43 1.51
-9.27 0.48 1.48
-15.14 0.81 1.04
-15.25 0.85 1.03
-11.32 0.77 1.32
-13.53 1.15 1.16
-13.51 1.18 1.16
-9.36 1.10 1.46
-7.92 1.06 1.57
-8.40 1.25 1.53
-8.15 1.23 1.55
-8.26 1.33 1.54
-5.55 -1.67 1.62
-5.97 -1.59 1.59
-6.03 -1.56 1.59
-5.87 -1.49 1.60
-6.21 -1.53 1.58
-6.55 -1.55 1.55
-6.24 -1.48 1.57
-6.17 -1.44 1.58
-6.32 -1.45 1.57
-6.40 -1.42 1.56
-6.36 -1.39 1.57
-6.32 -1.34 1.57
-6.37 -1.33 1.57
-6.55 -1.33 1.55
-6.55 -1.21 1.55
-6.64 -1.17 1.55
-6.09 -1.00 1.59
-8.25 -1.23 1.43
-7.19 -1.06 1.51
-7.63 -1.09 1.48
-8.03 -1.06 1.45
-6.81 -0.78 1.53
-7.85 -0.77 1.46
-8.44 -0.79 1.42
-8.24 -0.75 1.43
-7.97 -0.68 1.45
-8.10 -0.66 1.44
-8.30 -0.62 1.43
-8.15 -0.56 1.44
-8.45 -0.55 1.42
-8.13 -0.46 1.44
-8.23 -0.42 1.43
-8.06 -0.39 1.44
-8.37 -0.37 1.42
-9.16 -0.31 1.49
-9.32 -0.29 1.48
-9.48 -0.28 1.47
-9.38 -0.25 1.48
-9.54 -0.23 1.47
-9.54 -0.21 1.46
-9.65 -0.19 1.46
-9.43 -0.14 1.47
-9.57 -0.12 1.46
-9.47 -0.09 1.47
-9.53 -0.07 1.46
-9.69 -0.05 1.45
-9.90 -0.02 1.44
-7.78 0.18 1.41
-8.37 0.37 1.36
-6.30 -1.46 1.53
-7.94 -0.70 1.40
-7.99 -0.68 1.40
-8.48 -0.68 1.36
-7.95 -0.63 1.40
-8.02 -0.61 1.40
-8.23 -0.49 1.38
-8.47 -0.40 1.36
-9.80 0.00 1.34
-8.26 0.02 1.47
-8.37 0.04 1.46
-8.13 0.06 1.48
-8.33 0.08 1.46
-10.13 0.12 1.31
-10.06 0.15 1.31
-9.74 0.17 1.34
-9.93 0.19 1.32
-8.27 0.18 1.46
-9.87 0.24 1.33
-9.93 0.27 1.32
-10.11 0.30 1.31
-9.97 0.32 1.32
-10.14 0.35 1.30
-10.29 0.38 1.29
-10.72 0.42 1.25
-10.35 0.43 1.28
-10.73 0.47 1.25
-8.36 0.39 1.45
-8.16 0.40 1.47
-8.36 0.45 1.45
-7.90 0.49 1.49
-8.80 0.63 1.41
-9.06 0.69 1.39
-7.62 0.75 1.51
-7.97 0.90 1.48
-8.00 1.03 1.47
-8.27 1.16 1.45
-8.17 1.17 1.45
-8.16 1.19 1.46
-5.77 -1.69 1.52
-5.75 -1.67 1.52
-5.76 -1.57 1.52
-5.69 -1.54 1.52
-5.90 -1.56 1.51
-5.84 -1.53 1.51
-5.89 -1.52 1.51
-5.93 -1.50 1.51
-6.12 -1.52 1.49
-6.45 -1.56 1.46
-6.32 -1.51 1.47
-6.10 -1.45 1.49
-6.60 -1.52 1.45
-6.08 -1.41 1.49
-6.34 -1.43 1.47
-6.18 -1.38 1.49
-6.28 -1.38 1.48
-6.23 -1.35 1.48
-6.24 -1.33 1.48
-6.18 -1.30 1.49
-6.41 -1.31 1.47
-6.38 -1.23 1.47
-6.62 -1.17 1.45
-6.74 -1.17 1.44
-6.59 -1.13 1.45
-6.33 -1.07 1.47
-7.44 -1.16 1.38
-7.49 -1.12 1.38
-6.13 -0.95 1.49
-6.71 -0.88 1.44
-7.11 -0.85 1.41
-7.14 -0.81 1.41
-7.21 -0.79 1.40
-8.05 -0.83 1.33
-8.28 -0.75 1.31
-8.20 -0.72 1.32
-8.12 -0.69 1.33
-8.28 -0.67 1.31
-8.25 -0.65 1.32
-8.18 -0.62 1.32
-8.07 -0.59 1.33
-9.04 -0.46 1.40
-9.12 -0.44 1.40
-8.86 -0.41 1.42
-8.94 -0.39 1.41
-9.07 -0.38 1.40
-8.99 -0.35 1.41
-8.94 -0.33 1.41
-9.01 -0.31 1.40
-8.97 -0.28 1.41
-9.18 -0.27 1.39
-8.96 -0.24 1.41
-9.05 -0.22 1.40
-9.15 -0.20 1.39
-9.33 -0.18 1.38
-9.48 -0.16 1.36
-9.40 -0.14 1.37
-9.44 -0.11 1.37
-9.59 -0.07 1.35
-9.75 -0.05 1.34
-9.75 -0.02 1.34
-8.52 0.04 1.40
-9.82 0.07 1.28
-10.06 0.10 1.26
-9.87 0.12 1.27
-9.94 0.14 1.27
-8.53 0.15 1.39
-9.77 0.19 1.28
-9.98 0.22 1.26
-10.09 0.24 1.25
-9.59 0.26 1.30
-10.11 0.29 1.25
-9.67 0.31 1.29
-8.42 0.29 1.40
-10.57 0.38 1.21
-10.72 0.42 1.19
-7.79 0.96 1.45
-7.78 1.00 1.45
-6.53 -1.22 1.41
-6.89 -1.16 1.38
-7.07 -0.89 1.36
-7.19 -0.83 1.35
-8.24 -0.65 1.26
-8.04 -0.58 1.28
-8.10 -0.56 1.27
-7.88 -0.50 1.29
-8.23 -0.49 1.26
-7.87 -0.11 1.29
-9.04 -0.07 1.19
-9.84 -0.00 1.22
-9.73 0.02 1.23
-9.83 0.05 1.22
-9.85 0.07 1.22
-9.92 0.10 1.21
-10.06 0.12 1.20
-9.90 0.14 1.21
-9.93 0.17 1.21
-9.82 0.19 1.22
-9.79 0.21 1.22
-9.63 0.23 1.24
-8.45 0.23 1.35
-8.49 0.25 1.35
-9.90 0.31 1.21
-9.68 0.33 1.23
-10.36 0.38 1.16
-10.45 0.41 1.16
-8.17 0.34 1.37
-7.83 0.34 1.41
-7.94 0.37 1.40
-7.94 0.39 1.40
-7.93 0.41 1.40
-7.95 0.43 1.39
-7.87 0.44 1.40
-7.91 0.46 1.40
-7.89 0.48 1.40
-8.29 0.53 1.36
-7.92 0.52 1.39
-7.81 0.54 1.41
-7.94 0.56 1.39
-8.04 0.59 1.38
-7.73 0.80 1.41
-7.96 0.96 1.38
-7.77 0.96 1.40
-7.89 0.99 1.39
-7.80 1.16 1.39
-7.81 1.18 1.39
-7.84 1.20 1.39
-7.93 1.24 1.38
-7.88 1.25 1.38
-5.77 -1.67 1.42
-6.04 -1.65 1.40
-5.81 -1.58 1.42
-6.13 -1.62 1.39
-6.03 -1.56 1.40
-6.08 -1.55 1.40
-5.93 -1.50 1.41
-6.35 -1.56 1.37
-5.94 -1.46 1.41
-6.24 -1.50 1.38
-6.36 -1.50 1.37
-6.26 -1.31 1.38
-6.41 -1.29 1.37
-6.80 -1.20 1.33
-6.51 -1.05 1.36
-7.26 -0.93 1.29
-7.17 -0.88 1.30
-6.99 -0.84 1.31
-7.57 -0.84 1.26
-7.25 -0.79 1.29
-8.01 -0.71 1.22
-8.41 -0.71 1.18
-8.09 -0.66 1.21
-8.17 -0.64 1.20
-8.11 -0.61 1.21
-8.08 -0.59 1.21
-8.09 -0.56 1.21
-8.03 -0.53 1.22
-7.76 -0.50 1.24
-7.73 -0.47 1.24
-7.73 -0.45 1.24
-7.45 -0.41 1.27
-7.46 -0.37 1.27
-8.21 -0.32 1.20
-8.38 -0.27 1.18
-7.83 -0.18 1.23
-8.75 -0.17 1.15
-9.25 -0.11 1.28
-9.77 -0.07 1.23
-9.78 -0.05 1.22
-9.75 -0.02 1.23
-8.81 0.01 1.07
-8.84 0.04 1.07
-8.77 0.06 1.08
-8.76 0.09 1.08
-8.56 0.11 1.10
-8.56 0.14 1.10
-9.04 0.17 1.05
-8.69 0.20 1.08
-8.61 0.22 1.09
-8.79 0.25 1.07
-8.48 0.27 1.10
-10.11 0.27 1.13
-9.63 0.28 1.18
-9.09 0.29 1.23
-8.71 0.30 1.27
-8.79 0.32 1.26
-8.64 0.34 1.28
-8.70 0.36 1.27
-8.30 0.36 1.31
-7.99 0.37 1.34
-7.87 0.38 1.35
-7.72 0.40 1.37
-7.91 0.42 1.35
-7.86 0.44 1.35
-8.10 0.47 1.33
-7.90 0.48 1.35
-7.97 0.51 1.34
-8.04 0.53 1.33
-7.76 0.53 1.36
-8.21 0.58 1.32
-7.92 0.58 1.35
-7.85 0.60 1.35
-7.81 0.61 1.36
-7.72 0.62 1.37
-5.98 0.64 1.54
-13.96 1.49 0.72
-14.32 1.56 0.68
-7.65 0.94 1.37
-7.63 0.96 1.37
-8.26 1.18 1.30
-8.19 1.19 1.31
-8.02 1.23 1.32
-7.88 1.25 1.34
-8.04 1.29 1.32
-8.20 1.34 1.30
-5.72 -1.64 1.38
-5.65 -1.59 1.39
-6.08 -1.65 1.34
-5.82 -1.58 1.37
-5.98 -1.59 1.35
-6.39 -1.65 1.31
-5.93 -1.54 1.36
-5.90 -1.52 1.36
-5.67 -1.45 1.39
-5.89 -1.47 1.36
-6.07 -1.47 1.35
-6.27 -1.48 1.33
-6.11 -1.43 1.34
-5.62 -1.33 1.39
-6.39 -1.27 1.32
-6.63 -1.26 1.29
-6.74 -1.23 1.28
-6.70 -1.18 1.29
-6.52 -1.14 1.30
-6.33 -1.09 1.32
-6.74 -1.06 1.28
-7.10 -0.98 1.25
-7.30 -0.93 1.23
-6.96 -0.86 1.26
-7.64 -0.90 1.19
-7.24 -0.84 1.23
-8.31 -0.78 1.13
-8.23 -0.75 1.13
-8.40 -0.73 1.12
-8.32 -0.70 1.13
-8.26 -0.67 1.13
-5.63 -0.49 1.39
-8.15 -0.62 1.14
-8.21 -0.59 1.14
-8.04 -0.56 1.15
-8.01 -0.53 1.16
-8.00 -0.51 1.16
-7.94 -0.48 1.16
-7.91 -0.45 1.17
-7.83 -0.43 1.17
-8.31 -0.42 1.13
-7.55 -0.37 1.20
-8.65 -0.38 1.09
-7.63 -0.32 1.19
-8.34 -0.30 1.12
-8.77 -0.25 1.08
-8.76 -0.23 1.08
-8.60 -0.20 1.10
-8.80 -0.18 1.08
-8.51 -0.14 1.10
-8.72 -0.12 1.08
-8.73 -0.09 1.08
-8.13 -0.06 1.14
-8.56 -0.04 1.10
-8.70 -0.02 1.08
-9.64 -0.00 1.11
-9.63 0.02 1.11
-7.82 0.04 1.31
-9.35 0.07 1.14
-9.72 0.09 1.10
-9.84 0.12 1.09
-9.87 0.14 1.09
-9.10 0.15 1.17
-9.45 0.18 1.13
-9.51 0.21 1.12
-9.38 0.23 1.14
-9.29 0.25 1.15
-9.00 0.26 1.18
-9.33 0.29 1.14
-9.30 0.32 1.15
-8.96 0.33 1.18
-8.71 0.34 1.21
-8.31 0.34 1.25
-8.33 0.37 1.25
-8.36 0.39 1.25
-8.73 0.43 1.21
-7.81 0.40 1.31
-7.73 0.42 1.31
-7.77 0.44 1.31
-7.80 0.46 1.31
-7.80 0.48 1.31
-7.91 0.50 1.29
-7.67 0.51 1.32
-7.57 0.52 1.33
-7.66 0.54 1.32
-7.56 0.56 1.33
-7.39 0.56 1.35
-7.55 0.59 1.33
-7.41 0.60 1.35
-7.50 0.63 1.34
-7.69 0.66 1.31
-8.17 0.72 1.26
-6.90 0.73 1.40
-14.19 1.51 0.60
-7.59 0.94 1.32
-7.48 0.94 1.33
-7.71 1.01 1.30
-7.82 1.12 1.29
-7.91 1.17 1.28
-7.92 1.20 1.28
-7.82 1.20 1.29
-7.96 1.24 1.27
-7.93 1.26 1.27
-7.79 1.25 1.29
-7.88 1.29 1.28
-7.86 1.31 1.28
-8.12 1.37 1.25
-5.70 -1.66 1.33
-5.77 -1.66 1.32
-5.91 -1.66 1.31
-6.05 -1.67 1.29
-5.91 -1.62 1.30
-5.76 -1.57 1.32
-5.85 -1.57 1.31
-5.90 -1.54 1.31
-6.08 -1.49 1.29
-5.87 -1.43 1.31
-5.72 -1.39 1.33
-6.23 -1.35 1.27
-7.05 -1.30 1.19
-6.65 -1.22 1.23
-6.79 -1.20 1.22
-6.59 -1.15 1.24
-6.59 -1.13 1.24
-6.81 -0.96 1.21
-7.31 -0.89 1.16
-7.09 -0.80 1.18
-5.93 -0.61 1.31
-6.62 -0.64 1.23
-8.16 -0.72 1.07
-6.17 -0.54 1.28
-8.13 -0.64 1.08
-8.09 -0.61 1.08
-8.13 -0.59 1.07
-7.99 -0.56 1.09
-7.82 -0.53 1.11
-7.83 -0.50 1.11
-7.71 -0.47 1.12
-7.71 -0.45 1.12
-7.37 -0.41 1.15
-7.41 -0.39 1.15
-8.19 -0.39 1.07
-9.23 -0.34 1.16
-9.21 -0.31 1.16
-9.43 -0.30 1.14
-9.40 -0.28 1.14
-9.55 -0.26 1.13
-9.52 -0.23 1.13
-9.34 -0.21 1.15
-9.36 -0.18 1.15
-9.37 -0.16 1.14
-9.55 -0.14 1.12
-9.51 -0.12 1.13
-9.35 -0.09 1.15
-9.64 -0.07 1.11
-9.23 -0.05 1.16
-9.63 -0.02 1.11
-8.68 0.01 0.94
-8.36 0.03 0.98
-7.89 0.06 1.03
-8.79 0.09 0.93
-8.56 0.11 0.95
-8.06 0.13 1.01
-8.71 0.17 0.94
-8.60 0.19 0.95
-8.89 0.22 0.92
-8.60 0.24 0.95
-8.57 0.30 0.95
-8.04 0.31 1.01
-6.77 0.29 1.15
-6.74 0.31 1.15
-6.61 0.33 1.17
-6.71 0.35 1.16
-7.49 0.43 1.07
-7.05 0.44 1.12
-7.65 0.43 1.27
-7.90 0.46 1.24
-7.71 0.47 1.27
-7.66 0.49 1.27
-7.53 0.59 1.28
-6.64 -1.07 1.17
-8.11 -0.59 1.01
-8.08 -0.56 1.01
-8.35 -0.55 0.98
-7.73 -0.35 1.05
-7.99 -0.31 1.02
-8.50 -0.28 0.96
-8.56 -0.20 0.96
-8.78 -0.18 0.93
-8.74 -0.12 0.94
-8.60 -0.09 0.95
-8.18 -0.07 1.00
-8.29 -0.04 0.99
-8.80 -0.02 0.93
-10.15 -0.00 0.92
-9.28 0.04 1.02
-9.96 0.07 0.94
-9.56 0.09 0.99
-9.52 0.11 0.99
-8.90 0.13 1.07
-8.79 0.15 1.08
-8.88 0.19 1.07
-8.87 0.21 1.07
-8.83 0.23 1.08
-8.96 0.26 1.06
-8.96 0.28 1.06
-9.13 0.31 1.04
-8.83 0.32 1.07
-8.74 0.36 1.09
-8.98 0.39 1.06
-8.66 0.40 1.09
-8.24 0.40 1.15
-8.40 0.43 1.12
-8.94 0.48 1.06
-7.75 0.47 1.20
-7.74 0.49 1.20
-7.64 0.52 1.22
-7.94 0.86 1.17
-6.76 -1.00 1.10
-8.00 -0.76 0.95
-7.94 -0.58 0.96
-9.46 -0.26 1.00
-9.16 -0.20 1.04
-9.37 -0.18 1.02
-9.31 -0.14 1.02
-9.11 -0.11 1.05
-9.69 -0.07 0.97
-9.33 -0.05 1.02
-7.90 0.01 0.89
-8.07 0.03 0.86
-9.67 0.05 0.91
-9.10 0.06 0.98
-8.45 0.08 1.07
-8.54 0.10 1.06
-8.63 0.12 1.04
-8.64 0.15 1.04
-8.65 0.17 1.04
-8.64 0.19 1.04
-8.89 0.21 1.01
-8.93 0.24 1.00
-9.02 0.26 0.99
-8.96 0.28 1.00
-8.53 0.29 1.05
-8.92 0.32 1.00
-8.43 0.33 1.07
-8.46 0.35 1.06
-8.31 0.36 1.08
-8.09 0.37 1.11
-8.28 0.40 1.08
-8.07 0.41 1.11
-8.06 0.43 1.11
-7.99 0.45 1.12
-7.85 0.46 1.14
-7.99 0.49 1.12
-7.42 0.47 1.19
-7.57 0.50 1.17
-7.36 0.50 1.20
-5.82 0.42 1.40
-5.76 0.43 1.41
-5.86 0.45 1.39
-5.88 0.46 1.39
-5.78 0.47 1.40
-5.77 0.49 1.40
-5.72 0.50 1.41
-5.66 0.50 1.42
-5.67 0.52 1.42
-5.76 0.54 1.40
-5.88 0.57 1.39
-5.58 0.55 1.43
-5.75 0.58 1.40
-5.85 0.61 1.39
-5.61 0.60 1.42
-7.52 0.81 1.17
-5.56 0.62 1.43
-5.65 0.68 1.41
-7.79 1.13 1.13
-7.93 1.17 1.11
-8.03 1.21 1.10
-8.01 1.25 1.10
-6.46 -1.15 1.07
-6.63 -1.15 1.05
-6.44 -1.11 1.07
-6.62 -1.07 1.05
-6.62 -1.02 1.05
-6.79 -1.02 1.03
-6.76 -0.99 1.03
-6.76 -0.97 1.03
-6.76 -0.95 1.03
-6.82 -0.94 1.03
-7.56 -0.94 0.93
-7.00 -0.75 1.00
-5.98 -0.59 1.13
-7.97 -0.71 0.88
-7.68 -0.64 0.92
-7.54 -0.61 0.94
-7.79 -0.60 0.91
-7.94 -0.58 0.89
-7.94 -0.56 0.89
-7.87 -0.53 0.89
-7.82 -0.50 0.90
-7.88 -0.48 0.89
-7.90 -0.46 0.89
-7.73 -0.43 0.91
-7.93 -0.41 0.89
-7.82 -0.38 0.90
-7.84 -0.36 0.90
-7.91 -0.33 0.89
-8.46 -0.33 0.82
-8.11 -0.29 0.86
-8.04 -0.26 0.87
-8.22 -0.24 0.85
-8.09 -0.22 0.86
-7.69 -0.18 0.91
-5.82 -0.13 1.15
-5.97 -0.11 1.13
-6.07 -0.09 1.12
-8.31 -0.09 0.84
-7.92 -0.07 0.88
-7.72 -0.04 0.91
-7.88 -0.02 0.89
-8.96 -0.00 0.93
-8.83 0.02 0.95
-8.82 0.04 0.95
-8.61 0.06 0.98
-8.62 0.08 0.98
-8.62 0.12 0.98
-8.26 0.14 1.03
-8.40 0.16 1.01
-9.15 0.20 0.91
-9.39 0.23 0.87
-9.61 0.25 0.84
-7.81 0.23 1.09
-7.76 0.26 1.09
-7.65 0.28 1.11
-7.57 0.29 1.12
-7.65 0.32 1.11
-7.71 0.34 1.10
-7.87 0.36 1.08
-7.63 0.37 1.11
-7.73 0.41 1.10
-7.68 0.43 1.10
-7.80 0.46 1.08
-7.54 0.46 1.12
-7.67 0.49 1.10
-7.21 0.48 1.17
-7.22 0.49 1.16
-7.16 0.53 1.17
-7.24 0.55 1.16
-5.72 0.45 1.37
-7.28 0.59 1.15
-5.76 0.49 1.36
-5.59 0.49 1.38
-5.50 0.49 1.40
-5.62 0.53 1.38
-5.51 0.53 1.39
-5.69 0.56 1.37
-7.52 0.76 1.12
-5.78 0.60 1.36
-7.29 0.77 1.15
-7.49 0.81 1.12
-7.73 0.87 1.08
-7.68 0.89 1.09
-7.74 0.91 1.08
-7.71 0.93 1.09
-5.90 0.73 1.34
-7.49 0.94 1.11
-7.77 1.03 1.07
-7.77 1.13 1.07
-7.72 1.18 1.08
-7.78 1.21 1.07
-7.84 1.24 1.06
-7.72 1.24 1.08
-7.81 1.28 1.06
-6.06 -1.69 1.05
-3.60 -1.16 1.38
-6.77 -1.19 0.97
-6.59 -1.00 0.99
-6.74 -0.99 0.97
-6.62 -0.96 0.99
-6.83 -0.94 0.96
-6.76 -0.91 0.97
-7.91 -1.00 0.82
-6.87 -0.85 0.95
-7.09 -0.85 0.92
-8.18 -0.92 0.78
-6.31 -0.72 1.03
-8.23 -0.85 0.77
-5.67 -0.61 1.11
-8.00 -0.76 0.80
-8.25 -0.75 0.77
-5.76 -0.56 1.10
-7.78 -0.65 0.83
-6.99 -0.57 0.94
-7.79 -0.60 0.83
-7.54 -0.56 0.86
-7.74 -0.55 0.84
-7.86 -0.53 0.82
-7.82 -0.50 0.83
-7.94 -0.48 0.81
-7.97 -0.46 0.81
-7.59 -0.42 0.86
-6.15 -0.34 1.05
-7.77 -0.38 0.83
-7.93 -0.36 0.81
-5.83 -0.27 1.09
-7.99 -0.31 0.80
-8.22 -0.30 0.77
-7.64 -0.26 0.85
-7.39 -0.23 0.88
-7.88 -0.21 0.82
-8.22 -0.19 0.77
-5.38 -0.12 1.15
-9.18 -0.14 0.91
-9.41 -0.12 0.88
-9.44 -0.09 0.87
-8.27 -0.04 1.03
-9.26 -0.03 0.89
-7.31 0.01 0.82
-7.21 0.03 0.83
-7.16 0.05 0.84
-7.30 0.08 0.82
-7.11 0.10 0.85
-7.13 0.12 0.84
-7.13 0.14 0.84
-6.78 0.16 0.89
-6.95 0.18 0.87
-6.94 0.21 0.87
-6.62 0.22 0.91
-7.83 0.21 1.03
-9.78 0.28 0.75
-7.63 0.24 1.06
-7.65 0.26 1.05
-7.63 0.28 1.06
-7.60 0.29 1.06
-7.55 0.31 1.07
-7.56 0.33 1.07
-7.55 0.35 1.07
-7.56 0.37 1.06
-7.52 0.38 1.07
-7.57 0.40 1.06
-7.63 0.43 1.05
-7.40 0.43 1.09
-7.37 0.45 1.09
-7.39 0.47 1.09
-7.13 0.47 1.12
-7.21 0.49 1.11
-7.23 0.51 1.11
-7.33 0.54 1.09
-7.16 0.54 1.12
-7.18 0.56 1.11
-7.48 0.60 1.07
-7.44 0.62 1.08
-5.45 0.47 1.36
-7.31 0.64 1.09
-5.69 0.52 1.33
-5.64 0.53 1.33
-5.56 0.54 1.35
-5.59 0.55 1.34
-5.46 0.56 1.36
-6.21 0.64 1.25
-5.49 0.59 1.35
-7.32 0.79 1.09
-7.52 0.85 1.06
-7.39 0.85 1.08
-7.58 0.89 1.05
-7.81 0.94 1.02
-7.64 1.02 1.04
-7.77 1.17 1.01
-7.85 1.20 1.00
-7.75 1.22 1.02
-5.69 -1.36 1.05
-5.94 -1.38 1.01
-8.40 -1.69 0.67
-6.23 -1.10 0.98
-6.45 -1.11 0.95
-7.24 -1.16 0.83
-7.01 -1.11 0.87
-7.37 -1.06 0.82
-7.06 -1.00 0.86
-6.74 -0.95 0.91
-8.30 -1.09 0.69
-7.50 -0.98 0.80
-7.94 -1.00 0.74
-8.50 -0.95 0.66
-8.57 -0.93 0.65
-8.29 -0.88 0.69
-8.31 -0.86 0.69
-6.41 -0.68 0.95
-8.27 -0.80 0.69
-8.02 -0.76 0.73
-8.02 -0.74 0.73
-7.82 -0.70 0.75
-7.74 -0.64 0.77
-7.72 -0.62 0.77
-7.76 -0.60 0.76
-7.61 -0.56 0.78
-7.73 -0.55 0.77
-7.34 -0.50 0.82
-7.54 -0.49 0.79
-7.57 -0.44 0.79
-7.59 -0.42 0.79
-6.70 -0.36 0.91
-7.97 -0.39 0.73
-8.04 -0.37 0.72
-7.73 -0.33 0.77
-8.54 -0.33 0.65
-8.31 -0.27 0.68
-8.70 -0.26 0.63
-8.65 -0.23 0.64
-8.52 -0.20 0.65
-8.64 -0.18 0.64
-8.61 -0.15 0.64
-8.56 -0.12 0.65
-7.15 -0.08 0.84
-8.17 -0.07 0.70
-8.52 -0.04 0.65
-7.60 -0.02 0.78
-8.06 -0.00 0.93
-8.21 0.02 0.91
-8.67 0.04 0.84
-8.88 0.06 0.81
-8.67 0.08 0.84
-8.61 0.10 0.85
-8.80 0.12 0.82
-8.89 0.15 0.81
-7.82 0.15 0.97
-7.91 0.17 0.95
-7.70 0.19 0.98
-7.60 0.20 1.00
-7.77 0.23 0.97
-7.59 0.24 1.00
-7.60 0.26 1.00
-7.40 0.27 1.03
-7.41 0.29 1.03
-7.57 0.31 1.00
-7.83 0.34 0.96
-7.74 0.36 0.97
-7.70 0.37 0.98
-7.73 0.39 0.98
-7.76 0.42 0.97
-7.29 0.41 1.04
-7.72 0.45 0.98
-7.18 0.44 1.06
-7.34 0.47 1.03
-7.32 0.48 1.04
-7.33 0.50 1.03
-7.33 0.52 1.03
-7.46 0.55 1.01
-7.60 0.58 0.99
-7.78 0.61 0.96
-7.50 0.61 1.01
-5.80 0.49 1.26
-5.75 0.50 1.27
-6.17 0.55 1.21
-7.23 0.66 1.04
-7.19 0.67 1.05
-5.84 0.56 1.26
-5.61 0.56 1.29
-5.75 0.59 1.27
-5.75 0.60 1.27
-5.62 0.60 1.29
-7.36 0.80 1.02
-7.38 0.82 1.02
-5.33 0.61 1.33
-7.37 0.85 1.02
-7.33 0.87 1.02
-5.37 0.66 1.32
-5.37 0.69 1.32
-7.80 1.12 0.95
-7.68 1.14 0.96
-7.82 1.22 0.94
-5.99 -1.68 0.94
-6.14 -1.69 0.91
-6.02 -1.63 0.93
-6.23 -1.63 0.90
-6.05 -1.57 0.93
-6.23 -1.52 0.90
-6.07 -1.47 0.93
-5.91 -1.30 0.95
-5.99 -1.30 0.94
-5.86 -1.26 0.96
-6.02 -1.26 0.94
-6.16 -1.26 0.92
-8.17 -1.53 0.62
-8.30 -1.50 0.60
-8.21 -1.46 0.61
-8.21 -1.44 0.61
-8.07 -1.39 0.63
-5.97 -1.07 0.95
-6.09 -1.07 0.93
-6.18 -1.06 0.91
-8.37 -1.02 0.59
-8.54 -1.01 0.57
-8.36 -0.94 0.59
-6.24 -0.73 0.91
-8.45 -0.90 0.58
-8.47 -0.87 0.58
-8.30 -0.83 0.60
-5.59 -0.60 1.00
-8.12 -0.77 0.63
-8.16 -0.75 0.62
-8.02 -0.71 0.64
-7.81 -0.67 0.67
-7.86 -0.65 0.67
-7.84 -0.63 0.67
-5.01 -0.44 1.09
-7.91 -0.58 0.66
-7.88 -0.56 0.66
-7.85 -0.53 0.67
-7.95 -0.51 0.65
-7.93 -0.49 0.66
-7.90 -0.46 0.66
-7.80 -0.43 0.67
-7.83 -0.41 0.67
-3.13 -0.21 1.36
-7.88 -0.36 0.66
-8.04 -0.28 0.94
-8.15 -0.26 0.92
-7.99 -0.24 0.95
-8.10 -0.22 0.93
-8.14 -0.20 0.92
-8.20 -0.18 0.91
-8.27 -0.17 0.90
-8.25 -0.14 0.91
-8.17 -0.12 0.92
-8.26 -0.10 0.90
-8.30 -0.08 0.90
-8.21 -0.06 0.91
-8.04 -0.04 0.94
-7.97 -0.02 0.95
-7.52 0.03 0.64
-7.31 0.07 0.68
-7.32 0.12 0.67
-7.13 0.14 0.70
-6.90 0.16 0.74
-6.76 0.20 0.76
-1.02 0.09 1.65
-6.47 0.26 0.80
-6.73 0.29 0.76
-4.88 0.25 1.05
-4.96 0.27 1.04
-4.97 0.30 1.03
-4.88 0.33 1.05
-7.25 0.41 1.00
-7.11 0.41 1.02
-7.03 0.43 1.03
-7.42 0.49 0.97
-8.02 0.55 0.87
-7.44 0.52 0.97
-5.44 0.44 1.28
-5.56 0.47 1.26
-5.58 0.48 1.26
-5.53 0.49 1.27
-5.93 0.54 1.20
-5.66 0.53 1.24
-5.90 0.58 1.20
-5.52 0.56 1.27
-7.25 0.80 0.99
-8.43 -1.62 0.50
-6.17 -1.16 0.86
-6.02 -1.09 0.88
-6.39 -1.10 0.82
-8.62 -1.09 0.48
-8.60 -1.01 0.48
-8.53 -0.93 0.49
-8.98 -0.94 0.42
-8.92 -0.91 0.43
-8.34 -0.83 0.52
-8.60 -0.83 0.48
-8.20 -0.77 0.54
-8.20 -0.72 0.54
-8.35 -0.71 0.52
-8.19 -0.67 0.55
-7.88 -0.60 0.59
-7.98 -0.56 0.58
-8.00 -0.51 0.57
-8.12 -0.47 0.55
-8.47 -0.43 0.50
-8.95 -0.42 0.43
-9.50 -0.36 0.34
-9.25 -0.33 0.38
-9.04 -0.29 0.41
-8.63 -0.26 0.47
-8.78 -0.23 0.45
-8.89 -0.21 0.43
-8.75 -0.18 0.46
-7.50 -0.11 0.65
-7.03 -0.08 0.72
-7.59 -0.04 0.63
-7.37 -0.02 0.67
-8.46 -0.00 0.74
-8.45 0.02 0.74
-8.45 0.04 0.74
-8.16 0.06 0.79
-8.30 0.08 0.76
-8.12 0.09 0.79
-8.82 0.12 0.68
-8.37 0.14 0.75
-8.12 0.15 0.79
-8.10 0.17 0.80
-8.21 0.20 0.78
-7.92 0.21 0.83
-7.70 0.22 0.86
-7.27 0.23 0.93
-7.31 0.25 0.93
-7.41 0.27 0.91
-7.28 0.28 0.93
-7.26 0.30 0.93
-7.44 0.32 0.90
-7.15 0.33 0.95
-7.30 0.35 0.93
-7.31 0.37 0.92
-7.33 0.39 0.92
-7.94 0.44 0.82
-7.61 0.44 0.87
-7.77 0.47 0.85
-7.87 0.50 0.83
-8.09 0.53 0.79
-8.30 0.57 0.76
-5.94 0.42 1.15
-6.09 0.45 1.12
-5.75 0.44 1.18
-5.59 0.44 1.21
-5.76 0.47 1.18
-5.64 0.47 1.20
-5.72 0.50 1.18
-5.88 0.52 1.16
-5.72 0.52 1.18
-5.68 0.54 1.19
-5.88 0.57 1.15
-6.03 0.60 1.13
-6.38 0.65 1.07
-7.05 0.73 0.96
-6.99 0.74 0.97
-7.10 0.77 0.95
-7.05 0.78 0.95
-7.21 0.82 0.93
-7.20 0.83 0.93
-7.13 0.84 0.94
-7.59 0.94 0.86
-7.50 0.98 0.87
-7.78 1.04 0.83
-6.28 -1.68 0.76
-6.29 -1.66 0.76
-6.17 -1.62 0.78
-6.29 -1.62 0.76
-6.29 -1.60 0.76
-6.16 -1.55 0.78
-6.53 -1.60 0.72
-6.25 -1.53 0.77
-6.39 -1.53 0.74
-6.39 -1.51 0.74
-6.17 -1.29 0.78
-6.24 -1.27 0.77
-6.26 -1.26 0.77
-6.17 -1.16 0.78
-6.14 -1.14 0.79
-6.07 -1.11 0.80
-6.05 -1.08 0.80
-6.02 -1.06 0.81
-6.07 -1.05 0.80
-6.41 -1.07 0.74
-8.60 -1.20 0.39
-8.67 -1.18 0.38
-8.60 -1.15 0.39
-8.73 -1.13 0.37
-8.75 -1.11 0.36
-8.59 -1.07 0.39
-8.66 -1.05 0.38
-6.39 -0.81 0.75
-7.86 -0.92 0.51
-8.11 -0.92 0.47
-8.09 -0.89 0.47
-8.13 -0.87 0.46
-7.97 -0.83 0.49
-8.19 -0.83 0.45
-8.13 -0.80 0.47
-8.12 -0.77 0.47
-5.41 -0.55 0.91
-7.65 -0.69 0.54
-8.08 -0.69 0.47
-7.98 -0.66 0.49
-7.91 -0.63 0.50
-7.84 -0.60 0.51
-7.97 -0.59 0.49
-8.28 -0.47 0.77
-8.57 -0.46 0.72
-8.67 -0.45 0.71
-8.77 -0.43 0.69
-8.54 -0.40 0.73
-8.58 -0.38 0.72
-8.96 -0.38 0.66
-6.71 -0.27 1.03
-9.78 -0.36 0.52
-8.98 -0.31 0.66
-8.84 -0.29 0.68
-10.16 -0.30 0.46
-10.24 -0.28 0.45
-10.27 -0.25 0.44
-10.43 -0.23 0.41
-8.30 -0.17 0.77
-8.61 -0.15 0.72
-8.34 -0.13 0.76
-8.33 -0.11 0.76
-8.66 -0.09 0.71
-8.72 -0.07 0.70
-8.73 -0.05 0.69
-8.95 -0.03 0.66
-3.03 0.00 1.25
-3.26 0.02 1.21
-3.85 0.03 1.11
-7.81 0.05 0.78
-7.85 0.07 0.78
-7.78 0.09 0.79
-8.02 0.11 0.75
-7.91 0.13 0.76
-7.86 0.15 0.77
-7.76 0.17 0.79
-7.77 0.19 0.79
-7.50 0.20 0.83
-7.28 0.21 0.87
-7.24 0.23 0.88
-7.41 0.25 0.85
-7.42 0.27 0.85
-7.39 0.29 0.85
-7.27 0.30 0.87
-7.27 0.32 0.87
-7.27 0.33 0.87
-7.20 0.35 0.88
-6.04 0.31 1.09
-6.33 0.34 1.04
-6.05 0.34 1.08
-6.19 0.36 1.06
-6.10 0.37 1.07
-5.96 0.38 1.10
-5.99 0.40 1.09
-5.93 0.41 1.10
-5.81 0.41 1.12
-5.81 0.43 1.12
-5.88 0.45 1.11
-5.86 0.46 1.11
-5.74 0.47 1.13
-5.69 0.48 1.14
-5.61 0.49 1.16
-5.56 0.49 1.16
-5.81 0.53 1.12
-5.61 0.53 1.16
-5.69 0.55 1.14
-6.02 0.59 1.08
-6.10 0.63 1.07
-6.55 0.69 0.99
-6.54 0.71 0.99
-6.75 0.75 0.95
-6.99 0.81 0.91
-7.34 0.88 0.85
-7.11 0.89 0.88
-7.29 0.93 0.85
-1.37 -1.55 1.51
-1.94 -1.59 1.42
-6.13 -1.69 0.72
-6.06 -1.65 0.73
-6.11 -1.64 0.72
-6.45 -1.69 0.66
-6.31 -1.64 0.69
-6.51 -1.66 0.65
-6.22 -1.58 0.70
-6.12 -1.54 0.72
-6.21 -1.54 0.70
-6.24 -1.52 0.70
-6.08 -1.47 0.73
-6.26 -1.48 0.70
-6.15 -1.44 0.72
-6.36 -1.46 0.68
-6.55 -1.47 0.65
-6.04 -1.34 0.74
-6.16 -1.34 0.72
-6.29 -1.34 0.69
-6.27 -1.32 0.70
-6.48 -1.33 0.66
-6.37 -1.29 0.68
-6.24 -1.25 0.70
-6.14 -1.22 0.72
-6.15 -1.20 0.72
-6.28 -1.19 0.70
-5.96 -1.13 0.75
-6.19 -1.14 0.71
-6.38 -1.15 0.68
-6.06 -1.08 0.74
-5.81 -1.03 0.78
-5.90 -1.02 0.76
-2.00 -0.52 1.43
-1.78 -0.46 1.47
-6.01 -0.92 0.74
-8.66 -1.18 0.29
-8.52 -1.14 0.32
-8.42 -1.10 0.33
-8.47 -1.08 0.32
-8.63 -1.07 0.30
-8.51 -1.03 0.32
-8.19 -0.98 0.37
-8.19 -0.95 0.37
-7.88 -0.90 0.43
-7.65 -0.85 0.47
-7.61 -0.83 0.47
-7.87 -0.83 0.43
-5.17 -0.59 0.89
-7.92 -0.78 0.42
-7.81 -0.75 0.44
-7.73 -0.72 0.45
-7.74 -0.69 0.45
-8.29 -0.68 0.36
-8.18 -0.65 0.37
-8.14 -0.62 0.38
-7.98 -0.59 0.41
-8.32 -0.58 0.35
-7.77 -0.53 0.44
-7.73 -0.50 0.45
-3.13 -0.26 1.24
-7.82 -0.46 0.44
-2.91 -0.23 1.27
-2.96 -0.21 1.27
-3.26 -0.21 1.21
-3.02 -0.19 1.25
-2.90 -0.17 1.27
-3.10 -0.17 1.24
-3.21 -0.16 1.22
-3.63 -0.16 1.15
-2.96 -0.13 1.26
-2.94 -0.11 1.27
-3.10 -0.10 1.24
-3.11 -0.09 1.24
-3.32 -0.08 1.20
-3.14 -0.06 1.23
-4.20 -0.06 1.05
-4.03 -0.04 1.08
-3.96 -0.03 1.09
-4.45 -0.01 1.01
-8.58 -0.01 0.58
-8.23 0.01 0.64
-7.91 0.03 0.70
-7.88 0.05 0.71
-7.69 0.07 0.74
-7.72 0.09 0.73
-7.82 0.11 0.71
-7.78 0.13 0.72
-7.52 0.14 0.77
-7.79 0.17 0.72
-7.54 0.18 0.76
-7.37 0.19 0.80
-7.42 0.21 0.79
-7.39 0.23 0.79
-7.55 0.25 0.76
-7.51 0.27 0.77
-7.47 0.29 0.78
-7.36 0.30 0.79
-7.23 0.31 0.82
-6.39 0.30 0.97
-6.12 0.30 1.02
-6.30 0.32 0.99
-6.27 0.34 0.99
-6.10 0.34 1.02
-6.21 0.36 1.00
-6.16 0.38 1.01
-6.16 0.39 1.01
-6.13 0.41 1.02
-6.00 0.41 1.04
-6.21 0.44 1.00
-6.13 0.45 1.02
-6.11 0.47 1.02
-5.88 0.46 1.06
-5.97 0.48 1.04
-6.02 0.50 1.03
-5.90 0.51 1.05
-5.95 0.53 1.05
-6.05 0.55 1.03
-6.03 0.57 1.03
-6.02 0.58 1.03
-5.97 0.59 1.04
-6.03 0.61 1.03
-6.10 0.63 1.01
-6.27 0.67 0.98
-6.74 0.73 0.90
-6.72 0.75 0.90
-6.90 0.78 0.86
-6.78 0.79 0.89
-7.06 0.83 0.83
-6.80 0.82 0.88
-6.97 0.86 0.85
-6.95 0.87 0.85
-6.89 0.88 0.86
-6.98 0.91 0.85
-7.19 0.96 0.81
-7.01 0.95 0.84
-5.61 0.80 1.10
-7.69 1.14 0.71
-5.60 -1.68 0.74
-5.82 -1.63 0.70
-5.97 -1.64 0.67
-5.98 -1.62 0.67
-5.87 -1.58 0.69
-6.03 -1.59 0.66
-6.07 -1.58 0.66
-5.92 -1.53 0.68
-6.25 -1.57 0.62
-6.42 -1.58 0.59
-6.13 -1.50 0.65
-6.16 -1.49 0.64
-6.00 -1.44 0.67
-6.17 -1.45 0.64
-6.12 -1.42 0.65
-6.20 -1.41 0.64
-6.06 -1.37 0.66
-6.08 -1.35 0.66
-6.16 -1.34 0.64
-6.21 -1.33 0.64
-6.40 -1.34 0.60
-6.40 -1.32 0.60
-6.13 -1.26 0.65
-6.42 -1.28 0.60
-6.14 -1.22 0.65
-6.10 -1.19 0.66
-5.95 -1.15 0.68
-6.18 -1.16 0.64
-5.98 -1.11 0.68
-6.11 -1.11 0.66
-6.12 -1.09 0.65
-6.40 -1.11 0.60
-6.32 -1.08 0.62
-5.76 -0.99 0.72
-5.89 -0.98 0.70
-5.56 -0.92 0.76
-5.61 -0.91 0.75
-5.78 -0.91 0.72
-5.88 -0.90 0.70
-6.36 -0.93 0.61
-5.84 -0.86 0.71
-6.43 -0.90 0.60
-6.13 -0.85 0.65
-6.68 -0.88 0.56
-5.54 -0.73 0.76
-7.50 -0.89 0.41
-5.77 -0.72 0.72
-5.37 -0.66 0.79
-5.24 -0.63 0.81
-5.46 -0.63 0.77
-5.36 -0.61 0.79
-7.74 -0.77 0.37
-4.64 -0.52 0.92
-4.77 -0.51 0.90
-4.87 -0.50 0.88
-4.99 -0.49 0.86
-4.81 -0.46 0.89
-4.95 -0.45 0.86
-5.01 -0.44 0.86
-5.20 -0.43 0.82
-5.12 -0.41 0.83
-5.29 -0.40 0.80
-5.20 -0.38 0.82
-5.22 -0.36 0.82
-5.23 -0.34 0.81
-5.01 -0.31 0.85
-4.86 -0.29 0.88
-3.27 -0.21 1.16
-3.36 -0.20 1.15
-4.02 -0.21 1.03
-3.78 -0.19 1.07
-4.10 -0.18 1.01
-3.85 -0.16 1.06
-3.68 -0.14 1.09
-3.99 -0.13 1.04
-3.62 -0.11 1.10
-3.65 -0.10 1.09
-8.63 -0.13 0.57
-8.33 -0.11 0.63
-7.94 -0.08 0.70
-8.53 -0.07 0.59
-8.43 -0.05 0.61
-8.23 -0.03 0.64
-2.90 0.00 1.18
-3.05 0.01 1.16
-3.53 0.03 1.06
-3.45 0.04 1.08
-3.56 0.06 1.06
-3.95 0.08 0.98
-3.76 0.09 1.02
-4.24 0.11 0.93
-3.52 0.11 1.07
-6.58 0.19 0.49
-4.53 0.17 0.87
-7.48 0.20 0.71
-7.35 0.21 0.73
-7.49 0.23 0.71
-7.27 0.24 0.75
-7.03 0.25 0.79
-7.24 0.28 0.75
-5.89 0.24 1.01
-5.90 0.26 1.01
-5.80 0.27 1.03
-5.69 0.28 1.05
-5.71 0.29 1.05
-5.82 0.31 1.02
-5.68 0.32 1.05
-5.53 0.32 1.08
-5.77 0.35 1.03
-5.85 0.37 1.02
-5.70 0.38 1.04
-5.73 0.39 1.04
-5.81 0.41 1.02
-5.65 0.42 1.05
-5.83 0.44 1.02
-5.73 0.45 1.04
-5.81 0.47 1.02
-5.78 0.48 1.03
-5.83 0.50 1.02
-5.95 0.53 0.99
-5.94 0.54 0.99
-5.94 0.55 0.99
-5.90 0.57 1.00
-5.99 0.59 0.98
-6.05 0.61 0.97
-6.12 0.63 0.96
-6.06 0.64 0.97
-6.11 0.66 0.96
-6.46 0.71 0.89
-6.27 0.71 0.92
-6.67 0.77 0.85
-6.91 0.81 0.80
-7.10 0.85 0.76
-6.38 0.83 0.90
-6.09 0.83 0.95
-1.46 -1.67 1.43
-1.83 -1.68 1.36
-0.66 -0.88 1.61
-3.09 -1.10 1.15
-5.89 -1.64 0.62
-6.21 -1.62 0.56
-6.05 -1.55 0.59
-6.46 -1.60 0.51
-6.16 -1.53 0.57
-6.21 -1.52 0.56
-6.14 -1.48 0.57
-6.27 -1.49 0.55
-6.10 -1.44 0.58
-5.86 -1.36 0.63
-6.25 -1.40 0.55
-6.14 -1.36 0.57
-6.27 -1.36 0.55
-6.24 -1.33 0.56
-6.27 -1.32 0.55
-6.26 -1.30 0.55
-6.18 -1.26 0.57
-6.29 -1.26 0.55
-6.05 -1.18 0.59
-6.11 -1.13 0.58
-5.54 -1.04 0.69
-6.21 -1.10 0.56
-5.97 -1.05 0.61
-5.62 -0.99 0.68
-5.41 -0.94 0.72
-5.63 -0.95 0.67
-5.53 -0.92 0.69
-5.73 -0.92 0.66
-5.47 -0.88 0.71
-5.66 -0.88 0.67
-5.52 -0.84 0.70
-5.59 -0.83 0.68
-3.34 -0.58 1.11
-5.49 -0.78 0.70
-5.64 -0.78 0.67
-5.39 -0.72 0.72
-7.42 -0.84 0.34
-5.13 -0.62 0.77
-4.84 -0.56 0.82
-4.72 -0.54 0.85
-4.79 -0.53 0.83
-5.21 -0.54 0.75
-5.30 -0.51 0.74
-4.91 -0.47 0.81
-5.29 -0.47 0.74
-5.33 -0.40 0.73
-3.20 -0.28 1.13
-2.93 -0.25 1.18
-3.19 -0.25 1.13
-2.72 -0.22 1.22
-3.09 -0.22 1.15
-3.06 -0.21 1.16
-3.15 -0.20 1.14
-3.06 -0.18 1.16
-3.15 -0.17 1.14
-3.09 -0.16 1.15
-3.02 -0.14 1.16
-3.23 -0.13 1.12
-3.27 -0.12 1.12
-3.19 -0.10 1.13
-3.23 -0.09 1.12
-3.37 -0.08 1.10
-3.58 -0.07 1.06
-3.19 -0.05 1.13
-3.04 -0.04 1.16
-3.29 -0.03 1.11
-3.28 -0.01 1.11
-7.66 -0.01 0.61
-7.76 0.01 0.59
-7.77 0.03 0.58
-7.81 0.05 0.58
-7.76 0.07 0.59
-7.66 0.09 0.61
-7.68 0.11 0.60
-7.64 0.12 0.61
-7.71 0.14 0.59
-7.57 0.16 0.62
-7.56 0.18 0.62
-7.25 0.19 0.69
-7.10 0.20 0.71
-7.25 0.23 0.68
-7.08 0.24 0.72
-7.08 0.26 0.72
-7.15 0.28 0.70
-7.10 0.29 0.71
-7.07 0.31 0.72
-7.16 0.33 0.70
-5.81 0.28 0.97
-5.78 0.30 0.98
-5.77 0.31 0.98
-5.81 0.33 0.97
-5.81 0.34 0.97
-5.80 0.35 0.97
-5.73 0.37 0.98
-5.82 0.39 0.97
-5.74 0.40 0.98
-5.75 0.41 0.98
-5.83 0.43 0.96
-5.80 0.44 0.97
-5.77 0.46 0.97
-5.80 0.47 0.97
-5.75 0.48 0.98
-5.85 0.50 0.96
-5.84 0.52 0.96
-5.80 0.53 0.96
-5.90 0.55 0.94
-6.05 0.58 0.91
-5.99 0.59 0.92
-6.09 0.62 0.90
-6.14 0.64 0.89
-6.16 0.65 0.89
-6.15 0.67 0.89
-6.32 0.70 0.85
-6.38 0.72 0.84
-6.36 0.74 0.84
-6.49 0.77 0.82
-6.60 0.80 0.80
-6.66 0.82 0.78
-6.72 0.85 0.77
-6.21 0.80 0.87
-6.05 0.80 0.90
-6.30 0.84 0.85
-6.19 0.84 0.88
-6.34 0.88 0.84
-6.30 0.89 0.85
-3.33 -1.18 1.05
-5.86 -1.66 0.54
-5.73 -1.61 0.57
-5.75 -1.58 0.57
-5.71 -1.55 0.58
-5.84 -1.55 0.55
-5.87 -1.54 0.54
-6.00 -1.55 0.52
-6.00 -1.52 0.52
-6.07 -1.52 0.51
-5.97 -1.48 0.53
-6.08 -1.48 0.51
-6.14 -1.47 0.49
-6.09 -1.44 0.50
-6.02 -1.41 0.52
-5.87 -1.36 0.55
-5.86 -1.34 0.55
-6.12 -1.36 0.50
-6.00 -1.32 0.52
-6.05 -1.31 0.51
-6.09 -1.29 0.51
-6.03 -1.27 0.52
-6.11 -1.26 0.50
-6.25 -1.26 0.48
-6.09 -1.21 0.51
-6.21 -1.21 0.49
-6.28 -1.20 0.47
-5.99 -1.14 0.53
-6.33 -1.16 0.46
-5.87 -1.08 0.55
-6.24 -1.11 0.48
-5.76 -1.03 0.58
-5.55 -0.98 0.62
-5.55 -0.96 0.62
-5.44 -0.93 0.64
-5.47 -0.92 0.63
-5.50 -0.90 0.63
-5.41 -0.87 0.65
-5.47 -0.86 0.63
-5.45 -0.84 0.64
-5.42 -0.82 0.64
-5.26 -0.78 0.68
-5.18 -0.76 0.69
-5.11 -0.73 0.70
-5.28 -0.73 0.67
-5.17 -0.70 0.69
-5.09 -0.68 0.71
-5.00 -0.65 0.73
-5.10 -0.64 0.71
-4.96 -0.61 0.73
-5.05 -0.60 0.72
-5.05 -0.58 0.72
-5.11 -0.57 0.70
-4.95 -0.54 0.74
-5.14 -0.54 0.70
-5.29 -0.53 0.67
-5.43 -0.52 0.64
-5.50 -0.47 0.63
-5.42 -0.44 0.64
-5.62 -0.44 0.60
-5.58 -0.42 0.61
-4.73 -0.35 0.78
-5.79 -0.39 0.57
-3.84 -0.27 0.95
-3.42 -0.23 1.03
-3.98 -0.24 0.92
-9.09 -0.34 0.32
-8.77 -0.31 0.39
-8.72 -0.28 0.40
-8.60 -0.26 0.42
-8.91 -0.25 0.36
-8.60 -0.22 0.42
-8.32 -0.19 0.48
-8.01 -0.16 0.54
-7.95 -0.14 0.55
-8.00 -0.12 0.54
-7.91 -0.10 0.56
-7.88 -0.08 0.56
-7.83 -0.06 0.57
-7.82 -0.04 0.57
-7.83 -0.03 0.57
-2.50 0.00 1.18
-3.16 0.01 1.04
-2.53 0.02 1.17
-2.75 0.04 1.12
-2.67 0.05 1.14
-2.47 0.06 1.18
-2.59 0.07 1.16
-3.71 0.10 0.93
-3.64 0.12 0.94
-3.63 0.13 0.94
-3.84 0.16 0.90
-1.17 0.10 1.45
-4.37 0.21 0.79
-4.73 0.24 0.72
-4.60 0.25 0.74
-5.18 0.29 0.62
-4.68 0.29 0.72
-2.71 0.22 1.13
-2.40 0.22 1.19
-5.72 0.28 0.94
-5.62 0.29 0.96
-5.70 0.30 0.95
-5.65 0.32 0.96
-5.62 0.33 0.96
-5.60 0.34 0.97
-5.63 0.36 0.96
-5.68 0.37 0.95
-5.57 0.38 0.97
-5.65 0.40 0.95
-5.70 0.42 0.94
-5.77 0.44 0.93
-5.76 0.45 0.93
-5.80 0.47 0.92
-5.79 0.48 0.92
-5.73 0.49 0.93
-5.79 0.51 0.92
-5.77 0.52 0.92
-5.85 0.55 0.91
-5.86 0.56 0.90
-6.02 0.59 0.87
-6.02 0.61 0.87
-5.99 0.62 0.88
-6.07 0.64 0.86
-6.15 0.67 0.84
-6.10 0.67 0.85
-6.25 0.71 0.82
-6.23 0.72 0.82
-6.15 0.74 0.84
-5.93 -1.59 0.47
-5.91 -1.54 0.47
-6.20 -1.56 0.41
-5.90 -1.48 0.48
-5.72 -1.43 0.51
-6.12 -1.48 0.43
-6.06 -1.45 0.44
-5.95 -1.41 0.47
-5.82 -1.37 0.49
-6.06 -1.39 0.45
-5.75 -1.32 0.51
-5.79 -1.30 0.50
-6.19 -1.33 0.42
-6.14 -1.30 0.43
-6.20 -1.29 0.42
-6.12 -1.25 0.43
-6.14 -1.24 0.43
-6.15 -1.22 0.43
-6.09 -1.19 0.44
-5.97 -1.15 0.47
-6.21 -1.16 0.42
-6.21 -1.08 0.42
-6.14 -1.05 0.43
-6.00 -1.02 0.46
-5.53 -0.94 0.56
-5.37 -0.90 0.59
-5.35 -0.88 0.60
-5.51 -0.88 0.56
-5.37 -0.85 0.59
-5.44 -0.84 0.58
-5.60 -0.83 0.55
-5.37 -0.79 0.59
-5.42 -0.78 0.58
-5.47 -0.76 0.57
-2.10 -0.43 1.26
-5.31 -0.71 0.61
-5.10 -0.67 0.65
-5.20 -0.67 0.63
-5.12 -0.64 0.65
-5.22 -0.63 0.62
-5.33 -0.62 0.60
-5.05 -0.58 0.66
-5.31 -0.58 0.60
-5.14 -0.55 0.64
-5.62 -0.57 0.54
-5.60 -0.55 0.55
-5.49 -0.52 0.57
-5.40 -0.50 0.59
-2.36 -0.29 1.21
-5.46 -0.46 0.57
-2.55 -0.28 1.17
-3.90 -0.31 0.89
-2.59 -0.24 1.16
-2.83 -0.22 1.11
-2.80 -0.21 1.12
-3.33 -0.22 1.01
-3.11 -0.20 1.05
-3.12 -0.18 1.05
-3.15 -0.17 1.05
-2.98 -0.15 1.08
-3.02 -0.14 1.07
-3.07 -0.13 1.06
-2.80 -0.11 1.12
-2.85 -0.10 1.11
-2.84 -0.09 1.11
-2.72 -0.07 1.13
-2.66 -0.06 1.15
-2.79 -0.05 1.12
-2.75 -0.04 1.13
-3.03 -0.03 1.07
-2.87 -0.01 1.10
-5.24 -0.00 0.99
-7.84 0.01 0.43
-7.61 0.03 0.47
-7.61 0.05 0.48
-7.55 0.07 0.49
-7.46 0.08 0.51
-7.41 0.10 0.52
-7.37 0.12 0.53
-7.42 0.14 0.51
-7.39 0.16 0.52
-7.27 0.17 0.55
-7.36 0.19 0.53
-7.17 0.21 0.57
-7.45 0.23 0.51
-5.59 0.19 0.91
-5.46 0.20 0.94
-7.10 0.27 0.58
-5.95 0.25 0.83
-5.70 0.25 0.88
-5.71 0.26 0.88
-5.73 0.28 0.88
-5.72 0.29 0.88
-5.69 0.31 0.88
-5.78 0.32 0.87
-5.71 0.34 0.88
-5.86 0.36 0.85
-5.94 0.38 0.83
-5.88 0.39 0.84
-5.97 0.41 0.82
-5.84 0.42 0.85
-5.95 0.44 0.82
-5.91 0.45 0.83
-5.80 0.46 0.86
-5.78 0.47 0.86
-5.84 0.49 0.85
-5.75 0.50 0.87
-5.70 0.51 0.88
-5.70 0.52 0.88
-5.78 0.54 0.86
-5.92 0.57 0.83
-6.01 0.59 0.81
-5.95 0.60 0.82
-5.98 0.62 0.81
-6.10 0.65 0.78
-6.09 0.66 0.79
-6.04 0.67 0.80
-6.03 0.69 0.80
-6.14 0.71 0.77
-6.11 0.73 0.78
-6.11 0.74 0.78
-6.27 0.78 0.74
-6.26 0.79 0.74
-6.10 0.79 0.78
-6.15 0.81 0.77
-6.05 0.81 0.79
-6.09 0.83 0.78
-5.42 0.76 0.93
-5.13 0.75 0.99
-3.45 -1.55 0.91
-5.76 -1.68 0.41
-5.73 -1.65 0.42
-5.78 -1.65 0.41
-5.65 -1.60 0.44
-5.71 -1.59 0.43
-5.90 -1.61 0.39
-4.79 -1.38 0.63
-5.40 -1.45 0.50
-5.65 -1.48 0.44
-5.94 -1.51 0.38
-5.64 -1.44 0.45
-5.90 -1.47 0.39
-5.89 -1.45 0.39
-5.59 -1.37 0.46
-5.73 -1.38 0.43
-5.93 -1.39 0.39
-5.82 -1.35 0.41
-5.61 -1.30 0.45
-5.60 -1.28 0.46
-5.79 -1.29 0.42
-5.93 -1.29 0.39
-5.98 -1.28 0.38
-6.05 -1.27 0.36
-5.82 -1.22 0.41
-6.10 -1.24 0.35
-6.04 -1.21 0.37
-6.09 -1.17 0.35
-6.02 -1.14 0.37
-6.07 -1.13 0.36
-6.05 -1.11 0.36
-5.97 -1.08 0.38
-5.92 -1.05 0.39
-6.04 -1.04 0.37
-2.69 -0.62 1.09
-2.63 -0.60 1.10
-2.50 -0.57 1.13
-5.17 -0.87 0.55
-2.45 -0.54 1.14
-5.14 -0.83 0.56
-5.07 -0.80 0.58
-5.26 -0.80 0.54
-2.37 -0.49 1.16
-5.23 -0.76 0.54
-2.19 -0.45 1.19
-5.05 -0.71 0.58
-2.38 -0.44 1.15
-2.22 -0.42 1.19
-2.26 -0.41 1.18
-4.91 -0.63 0.61
-5.04 -0.62 0.58
-4.73 -0.58 0.65
-4.90 -0.57 0.61
-4.77 -0.55 0.64
-4.92 -0.54 0.61
-5.21 -0.54 0.55
-5.04 -0.51 0.58
-5.19 -0.51 0.55
-4.75 -0.46 0.65
-5.01 -0.46 0.59
-4.63 -0.42 0.67
-5.21 -0.43 0.55
-8.35 -0.39 0.32
-8.83 -0.40 0.21
-8.49 -0.36 0.29
-8.63 -0.34 0.26
-5.69 -0.12 0.89
-5.60 -0.10 0.91
-7.94 -0.12 0.40
-5.55 -0.07 0.92
-5.70 -0.06 0.89
-5.76 -0.05 0.88
-7.98 -0.05 0.40
-5.70 -0.02 0.89
-2.87 0.00 1.00
-2.93 0.01 0.98
-3.33 0.03 0.89
-7.55 0.05 0.42
-4.88 0.06 1.02
-4.74 0.07 1.05
-4.67 0.09 1.07
-4.57 0.10 1.09
-5.32 0.14 0.92
-4.91 0.15 1.01
-7.77 0.26 0.36
-5.52 0.21 0.87
-5.69 0.23 0.83
-5.55 0.26 0.86
-7.05 0.36 0.52
-5.67 0.30 0.83
-5.96 0.35 0.77
-5.99 0.36 0.76
-5.85 0.39 0.79
-5.81 0.41 0.80
-5.67 0.42 0.83
-5.59 0.44 0.85
-5.61 0.45 0.84
-5.92 0.51 0.77
-5.66 0.52 0.83
-5.84 0.55 0.79
-5.99 0.59 0.75
-5.95 0.60 0.76
-6.07 0.64 0.73
-6.12 0.68 0.72
-5.90 0.67 0.77
-6.05 0.72 0.73
-5.85 0.71 0.78
-6.03 0.76 0.74
-6.11 0.80 0.72
-5.62 0.75 0.83
-5.26 0.73 0.91
-3.72 0.61 1.26
-5.53 -1.55 0.39
-5.54 -1.54 0.39
-5.58 -1.52 0.38
-5.47 -1.48 0.41
-5.57 -1.48 0.38
-5.48 -1.43 0.41
-5.46 -1.41 0.41
-5.11 -1.32 0.49
-5.47 -1.37 0.41
-5.46 -1.35 0.41
-5.57 -1.35 0.39
-5.51 -1.32 0.40
-5.50 -1.30 0.40
-5.44 -1.27 0.42
-5.46 -1.25 0.41
-5.43 -1.23 0.42
-5.23 -1.18 0.47
-5.50 -1.20 0.41
-5.48 -1.18 0.41
-5.50 -1.17 0.41
-5.18 -1.08 0.48
-5.46 -1.10 0.42
-5.53 -1.09 0.40
-5.11 -1.02 0.50
-4.65 -0.94 0.60
-4.88 -0.95 0.55
-4.78 -0.92 0.57
-5.27 -0.97 0.46
-4.84 -0.89 0.56
-5.03 -0.88 0.52
-5.84 -0.94 0.33
-5.36 -0.87 0.44
-5.68 -0.88 0.37
-5.52 -0.81 0.41
-5.09 -0.75 0.50
-5.08 -0.73 0.51
-4.93 -0.70 0.54
-4.87 -0.67 0.55
-1.32 -0.34 1.35
-5.25 -0.67 0.47
-5.19 -0.65 0.48
-4.85 -0.60 0.56
-4.78 -0.58 0.57
-4.87 -0.57 0.55
-4.68 -0.54 0.59
-4.98 -0.54 0.53
-4.40 -0.48 0.66
-4.57 -0.48 0.62
-4.06 -0.43 0.73
-4.36 -0.43 0.67
-4.71 -0.44 0.59
-3.29 -0.34 0.91
-2.89 -0.30 1.00
-2.73 -0.28 1.03
-3.08 -0.29 0.95
-3.42 -0.29 0.88
-2.69 -0.24 1.04
-2.98 -0.24 0.98
-3.14 -0.24 0.94
-3.10 -0.22 0.95
-3.43 -0.22 0.87
-2.88 -0.19 1.00
-2.78 -0.17 1.02
-3.14 -0.17 0.94
-2.87 -0.15 1.00
-2.71 -0.13 1.03
-2.76 -0.12 1.02
-2.56 -0.11 1.07
-3.02 -0.10 0.96
-3.04 -0.09 0.96
-2.87 -0.06 1.00
-5.77 -0.08 0.35
-3.06 -0.01 0.95
-7.46 0.10 0.36
-7.42 0.12 0.37
-7.54 0.16 0.34
-7.43 0.17 0.37
-7.46 0.19 0.36
-7.50 0.21 0.35
-6.05 0.32 0.69
-6.05 0.34 0.69
-6.18 0.36 0.66
-6.07 0.37 0.68
-6.16 0.39 0.66
-6.19 0.41 0.65
-6.32 0.43 0.62
-6.10 0.43 0.67
-6.19 0.45 0.65
-6.30 0.48 0.62
-6.30 0.49 0.62
-6.60 0.53 0.55
-6.53 0.54 0.57
-6.31 0.54 0.62
-6.03 0.53 0.69
-6.17 0.56 0.65
-6.17 0.58 0.65
-6.17 0.59 0.65
-6.07 0.60 0.67
-6.16 0.62 0.65
-6.10 0.63 0.66
-6.25 0.66 0.63
-6.16 0.67 0.65
-6.25 0.69 0.63
-6.36 0.72 0.60
-6.33 0.73 0.61
-6.30 0.74 0.61
-6.21 0.75 0.63
-6.13 0.76 0.65
-6.17 0.78 0.64
-6.20 0.80 0.63
-5.81 0.76 0.73
-6.03 0.81 0.67
-5.77 0.79 0.74
-5.68 0.79 0.75
-5.22 0.74 0.86
-5.26 0.76 0.86
-5.53 0.83 0.79
-5.37 0.82 0.83
-4.86 -1.30 0.48
-4.92 -1.29 0.46
-5.24 -1.31 0.39
-5.03 -1.26 0.44
-4.83 -1.21 0.49
-5.06 -1.23 0.43
-5.05 -1.21 0.43
-5.18 -1.21 0.40
-4.92 -1.14 0.47
-4.82 -1.08 0.49
-4.97 -1.09 0.45
-4.83 -1.05 0.49
-4.99 -1.06 0.45
-4.54 -0.98 0.56
-4.64 -0.97 0.53
-4.51 -0.94 0.56
-4.85 -0.97 0.49
-4.70 -0.93 0.52
-4.82 -0.93 0.49
-5.01 -0.94 0.45
-4.88 -0.90 0.48
-5.20 -0.67 0.41
-5.16 -0.65 0.41
-5.27 -0.64 0.39
-5.96 -0.68 0.23
-5.88 -0.65 0.25
-4.37 -0.45 0.60
-5.11 -0.48 0.43
-4.85 -0.45 0.49
-5.11 -0.41 0.43
-3.95 -0.33 0.70
-4.01 -0.32 0.68
-3.79 -0.27 0.73
-3.71 -0.18 0.75
-3.87 -0.15 0.71
-3.21 -0.12 0.87
-2.93 -0.10 0.93
-2.79 0.61 0.29
-2.78 0.53 0.25
-2.85 0.47 0.22
