# .PCD v0.7 - Point Cloud Data file format
VERSION 0.7
FIELDS x y z
SIZE 4 4 4
TYPE F F F
COUNT 1 1 1
WIDTH 1683
HEIGHT 1
VIEWPOINT 0 0 0 1 0 0 0
POINTS 1683
DATA ASCII
-15.87 -1.64 1.65
-6.20 0.28 1.93
-10.09 0.65 1.78
-3.38 0.93 1.97
-4.38 1.66 1.90
-3.26 0.89 1.96
-3.46 1.03 1.95
-11.16 -0.04 1.47
-11.24 0.01 1.34
-11.10 0.04 1.35
-8.48 0.15 1.54
-11.33 0.23 1.33
-10.41 0.59 1.40
-10.00 0.64 1.42
-5.03 0.75 1.78
-2.68 -1.69 1.82
-10.78 -0.59 1.25
-10.67 -0.49 1.25
-14.01 -0.46 1.14
-14.33 -0.44 1.12
-11.20 -0.26 1.35
-11.38 -0.24 1.33
-11.47 -0.21 1.33
-11.40 -0.18 1.33
-11.28 -0.13 1.34
-11.06 -0.67 1.16
-10.87 -0.62 1.17
-11.19 0.01 1.22
-10.92 0.04 1.24
-11.03 0.06 1.24
-10.80 0.09 1.25
-11.13 0.14 1.23
-11.13 0.25 1.22
-11.21 0.31 1.22
-11.26 0.39 1.21
-8.50 0.32 1.44
-8.80 0.35 1.42
-6.27 0.38 1.63
-10.50 1.03 1.27
-10.80 1.12 1.24
-5.15 0.77 1.72
-5.71 0.94 1.67
-3.89 0.88 1.82
-4.05 1.32 1.79
-2.45 -1.64 1.78
-2.85 -1.65 1.75
-2.74 -1.58 1.76
-2.85 -1.59 1.75
-3.17 -1.63 1.72
-3.05 -1.58 1.73
-3.23 -1.62 1.72
-3.30 -1.58 1.71
-3.11 -1.47 1.73
-3.29 -1.51 1.71
-3.59 -1.54 1.69
-3.44 -1.45 1.70
-3.42 -1.43 1.70
-3.40 -1.41 1.71
-3.21 -1.28 1.72
-3.30 -1.27 1.72
-9.88 -1.11 1.18
-14.86 -1.51 0.77
-14.87 -1.27 0.77
-11.46 -0.55 1.20
-11.39 -0.49 1.21
-11.82 -0.22 1.17
-11.34 -0.18 1.21
-11.17 -0.15 1.23
-11.42 -0.13 1.20
-11.26 -0.07 1.22
-11.37 -0.05 1.21
-11.08 -0.02 1.23
-3.96 0.80 1.79
-3.19 -1.60 1.69
-9.86 0.10 1.22
-10.25 0.21 1.18
-15.29 0.45 0.70
-8.68 0.32 1.33
-8.85 0.35 1.31
-8.82 0.39 1.31
-8.74 0.41 1.32
-8.71 0.43 1.32
-8.57 0.45 1.34
-8.26 0.47 1.37
-5.03 0.88 1.66
-2.47 -1.58 1.72
-3.21 -1.60 1.65
-3.21 -1.57 1.65
-3.50 -1.63 1.63
-3.23 -1.53 1.65
-10.30 -1.57 1.00
-10.46 -1.47 0.98
-10.54 -1.38 0.98
-10.38 -1.27 0.99
-14.51 -1.24 0.61
-7.48 -0.56 1.26
-7.35 -0.53 1.27
-13.85 -0.84 0.67
-7.65 -0.50 1.25
-7.87 -0.49 1.22
-7.77 -0.46 1.23
-12.44 -0.59 0.80
-11.85 -0.50 0.85
-9.94 0.03 0.95
-6.60 0.11 1.28
-1.95 0.07 1.75
-9.17 0.27 1.23
-9.01 0.31 1.24
-9.06 0.34 1.24
-8.74 0.50 1.27
-4.71 0.52 1.67
-4.46 0.80 1.69
-3.01 -1.56 1.64
-3.39 -1.63 1.60
-3.30 -1.55 1.61
-3.37 -1.55 1.61
-3.37 -1.52 1.61
-3.13 -1.40 1.63
-3.29 -1.38 1.62
-1.96 -0.76 1.75
-10.14 -1.58 0.94
-10.31 -1.57 0.92
-10.27 -1.53 0.93
-10.50 -1.53 0.90
-10.39 -1.49 0.91
-10.52 -1.47 0.90
-10.56 -1.38 0.90
-10.62 -1.33 0.89
-10.70 -1.30 0.88
-10.07 -0.95 0.95
-9.94 -0.91 0.96
-7.61 -0.47 1.19
-7.77 -0.43 1.17
-7.63 -0.38 1.19
-13.42 -0.37 0.61
-9.92 -0.26 0.96
-9.85 0.03 1.09
-10.16 0.08 1.06
-9.50 0.19 1.13
-9.19 0.21 1.16
-9.05 0.23 1.18
-9.20 0.25 1.16
-9.14 0.30 1.17
-9.07 0.32 1.18
-8.71 0.37 1.21
-8.61 0.38 1.22
-8.55 0.44 1.23
-8.28 0.55 1.26
-7.22 0.59 1.37
-4.98 0.90 1.60
-2.83 -1.67 1.62
-2.81 -1.59 1.62
-3.15 -1.59 1.59
-3.06 -1.51 1.60
-3.27 -1.52 1.58
-3.06 -1.43 1.60
-3.51 -1.54 1.55
-3.28 -1.45 1.58
-3.04 -1.37 1.60
-3.52 -1.28 1.55
-2.91 -1.09 1.62
-3.26 -0.78 1.58
-10.31 -1.60 0.84
-10.21 -1.56 0.85
-10.57 -1.57 0.81
-10.03 -1.45 0.87
-10.26 -1.45 0.84
-10.36 -1.40 0.83
-10.43 -1.37 0.83
-9.69 -1.12 0.90
-9.56 -1.05 0.92
-9.83 -0.99 0.89
-3.08 -0.37 1.60
-11.77 -0.74 0.68
-11.75 -0.70 0.68
-11.17 -0.64 0.75
-11.81 -0.39 0.89
-11.44 -0.35 0.93
-11.39 -0.32 0.93
-11.17 -0.29 0.96
-10.97 -0.26 0.98
-10.99 -0.23 0.97
-10.82 -0.20 0.99
-11.70 -0.19 0.90
-11.60 -0.13 0.91
-9.98 -1.59 0.79
-9.81 -1.54 0.81
-9.97 -1.47 0.79
-10.43 -1.49 0.74
-10.61 -1.48 0.72
-10.36 -1.42 0.75
-10.54 -1.32 0.73
-10.53 -1.23 0.73
-9.31 -0.89 0.87
-10.89 -0.88 0.69
-10.20 -0.60 0.77
-9.97 0.08 0.94
-9.78 0.12 0.97
-9.11 0.14 1.05
-9.44 0.17 1.01
-9.20 0.18 1.04
-10.21 -1.53 0.68
-10.44 -1.53 0.65
-10.13 -1.46 0.69
-10.12 -1.37 0.69
-10.22 -1.35 0.68
-10.28 -1.30 0.67
-10.46 -1.25 0.65
-10.16 -1.20 0.68
-10.43 -1.07 0.65
-10.43 -1.04 0.65
-10.42 -0.94 0.65
-10.51 -0.92 0.64
-10.16 -0.87 0.68
-10.14 -0.80 0.69
-11.02 -0.23 0.82
-9.19 0.12 0.98
-9.01 0.14 1.00
-9.19 0.16 0.97
-9.29 0.19 0.96
-9.26 0.21 0.97
-9.29 0.23 0.96
-9.10 0.29 0.98
-7.80 0.27 1.15
-7.76 0.29 1.16
-7.73 0.31 1.16
-8.16 0.34 1.10
-7.48 0.37 1.19
-7.28 0.45 1.21
-10.02 -1.69 0.62
-9.87 -1.64 0.63
-9.96 -1.62 0.62
-9.78 -1.57 0.65
-10.12 -1.58 0.60
-9.91 -1.52 0.63
-10.24 -1.53 0.59
-10.25 -1.50 0.59
-10.38 -1.49 0.57
-10.06 -1.42 0.61
-9.93 -1.38 0.63
-9.75 -1.33 0.65
-9.97 -1.32 0.62
-10.25 -1.32 0.59
-10.20 -1.29 0.60
-10.22 -1.26 0.59
-10.33 -1.24 0.58
-10.07 -1.19 0.61
-10.25 -1.17 0.59
-9.89 -1.11 0.63
-10.04 -1.09 0.62
-10.04 -1.03 0.62
-9.85 -0.99 0.64
-9.82 -0.96 0.64
-9.55 -0.88 0.68
-9.66 -0.86 0.66
-9.59 -0.83 0.67
-9.52 -0.79 0.68
-9.68 -0.77 0.66
-9.28 -0.72 0.71
-9.45 -0.70 0.69
-9.66 -0.69 0.66
-9.68 -0.63 0.66
-9.36 -0.59 0.70
-6.25 -0.39 1.09
-9.98 -0.53 0.62
-8.31 -0.33 0.83
-7.91 -0.29 0.88
-6.60 -0.21 1.05
-7.33 -0.21 0.95
-7.20 -0.18 0.97
-6.69 -0.02 1.03
-9.41 0.07 0.88
-9.13 0.09 0.92
-9.09 0.11 0.92
-7.13 0.11 1.19
-6.94 0.12 1.21
-9.24 0.18 0.90
-8.94 0.20 0.94
-9.26 0.23 0.90
-8.63 0.24 0.98
-8.32 0.25 1.02
-8.24 0.27 1.03
-8.28 0.29 1.03
-8.57 0.32 0.99
-8.03 0.32 1.06
-8.09 0.34 1.05
-7.33 0.33 1.16
-7.45 0.35 1.14
-7.33 0.36 1.15
-7.14 0.37 1.18
-7.17 0.39 1.17
-6.91 0.39 1.21
-6.98 0.42 1.20
-6.40 0.40 1.28
-7.32 0.47 1.15
-6.36 0.43 1.28
-7.14 0.51 1.18
-6.42 0.48 1.27
-6.42 0.49 1.27
-6.21 0.49 1.30
-10.38 0.89 0.73
-10.35 0.96 0.73
-4.29 0.70 1.55
-4.59 1.68 1.47
-2.46 -1.58 1.52
-10.13 -1.64 0.51
-10.28 -1.63 0.49
-10.23 -1.60 0.50
-10.55 -1.60 0.46
-10.51 -1.57 0.46
-10.31 -1.51 0.49
-10.03 -1.45 0.53
-10.13 -1.40 0.51
-10.42 -1.40 0.47
-10.08 -1.34 0.52
-10.12 -1.31 0.51
-10.21 -1.29 0.50
-10.34 -1.27 0.49
-10.21 -1.23 0.50
-10.32 -1.18 0.49
-10.12 -1.13 0.51
-10.07 -1.10 0.52
-10.43 -1.10 0.47
-9.86 -1.02 0.55
-9.83 -0.99 0.55
-9.66 -0.95 0.58
-9.76 -0.90 0.56
-9.63 -0.86 0.58
-9.96 -0.85 0.54
-9.84 -0.81 0.55
-10.01 -0.80 0.53
-9.70 -0.75 0.57
-10.00 -0.74 0.53
-9.79 -0.70 0.56
-10.12 -0.68 0.51
-6.29 -0.46 1.02
-6.22 -0.43 1.03
-6.27 -0.41 1.03
-6.31 -0.39 1.02
-6.21 -0.37 1.03
-6.31 -0.35 1.02
-6.32 -0.31 1.02
-6.27 -0.29 1.03
-6.36 -0.27 1.01
-6.43 -0.25 1.00
-7.37 -0.26 0.88
-7.16 -0.23 0.91
-6.82 -0.15 0.95
-9.70 -0.11 0.84
-10.02 -0.09 0.80
-13.11 -0.09 0.38
-13.33 -0.06 0.35
-9.68 -0.02 0.84
-6.50 -0.00 0.93
-5.97 0.02 1.00
-5.32 0.04 1.09
-5.34 0.05 1.09
-5.16 0.07 1.12
-5.28 0.09 1.10
-5.19 0.11 1.11
-5.70 0.13 1.04
-5.72 0.15 1.04
-5.51 0.17 1.07
-5.50 0.19 1.07
-8.92 0.26 0.88
-8.33 0.27 0.96
-7.78 0.29 1.04
-7.09 0.28 1.14
-6.95 0.29 1.16
-7.04 0.31 1.14
-6.89 0.32 1.17
-6.95 0.34 1.16
-6.86 0.36 1.17
-6.88 0.37 1.16
-6.73 0.38 1.19
-6.72 0.40 1.19
-6.84 0.42 1.17
-7.11 0.46 1.13
-7.13 0.47 1.13
-6.31 0.44 1.24
-6.21 0.45 1.26
-6.33 0.47 1.24
-6.18 0.48 1.26
-6.31 0.50 1.24
-9.95 -1.68 0.45
-9.97 -1.65 0.44
-10.27 -1.66 0.40
-9.95 -1.59 0.45
-10.32 -1.60 0.40
-10.17 -1.56 0.42
-10.50 -1.57 0.37
-10.94 -1.59 0.31
-9.96 -1.44 0.45
-10.07 -1.42 0.43
-9.80 -1.36 0.47
-9.96 -1.35 0.45
-10.20 -1.35 0.41
-10.08 -1.31 0.43
-10.06 -1.27 0.43
-10.10 -1.25 0.43
-10.27 -1.23 0.40
-10.12 -1.19 0.43
-10.06 -1.15 0.43
-9.99 -1.12 0.44
-9.91 -1.08 0.45
-10.30 -1.09 0.40
-10.02 -1.03 0.44
-9.95 -1.00 0.45
-10.51 -1.01 0.37
-10.05 -0.95 0.43
-10.10 -0.92 0.43
-9.93 -0.88 0.45
-10.45 -0.89 0.38
-10.14 -0.83 0.42
-10.36 -0.82 0.39
-9.74 -0.75 0.48
-9.40 -0.70 0.53
-6.24 -0.49 0.97
-6.20 -0.47 0.98
-6.28 -0.45 0.96
-6.34 -0.44 0.96
-6.27 -0.41 0.96
-6.16 -0.39 0.98
-6.24 -0.37 0.97
-6.32 -0.35 0.96
-6.30 -0.33 0.96
-6.41 -0.31 0.94
-6.44 -0.29 0.94
-6.31 -0.27 0.96
-6.38 -0.25 0.95
-6.28 -0.23 0.96
-6.36 -0.21 0.95
-6.43 -0.19 0.94
-7.07 -0.18 0.85
-6.44 -0.15 0.94
-6.81 -0.13 0.89
-6.69 -0.11 0.90
-6.94 -0.09 0.87
-6.56 -0.04 0.92
-6.34 -0.02 0.95
-7.18 0.00 1.07
-7.68 0.02 0.99
-8.96 0.07 0.80
-9.02 0.09 0.79
-6.11 0.08 1.23
-8.66 0.13 0.84
-8.57 0.15 0.86
-8.36 0.17 0.89
-8.43 0.19 0.88
-8.26 0.20 0.90
-8.35 0.23 0.89
-8.41 0.25 0.88
-8.43 0.27 0.88
-9.42 0.32 0.73
-7.85 0.29 0.96
-6.89 0.27 1.11
-6.92 0.29 1.10
-6.93 0.31 1.10
-6.76 0.32 1.13
-6.91 0.34 1.10
-6.70 0.35 1.13
-6.40 0.35 1.18
-6.40 0.37 1.18
-6.19 0.37 1.21
-6.18 0.38 1.21
-6.31 0.41 1.19
-6.85 0.46 1.11
-6.64 0.46 1.14
-6.39 0.46 1.18
-6.42 0.48 1.17
-5.37 0.42 1.33
-6.39 0.51 1.18
-6.71 0.55 1.13
-6.45 0.54 1.17
-6.24 0.54 1.20
-6.42 0.57 1.17
-6.45 0.59 1.17
-6.62 0.62 1.14
-6.50 0.63 1.16
-6.64 0.66 1.14
-4.16 0.60 1.51
-9.92 -1.65 0.35
-9.97 -1.62 0.34
-9.96 -1.56 0.35
-10.00 -1.51 0.34
-10.20 -1.50 0.31
-10.27 -1.45 0.30
-2.95 -0.60 1.39
-9.90 -1.35 0.36
-10.26 -1.36 0.30
-9.99 -1.30 0.34
-9.90 -1.26 0.36
-10.04 -1.25 0.34
-10.11 -1.22 0.33
-9.82 -1.16 0.37
-9.72 -1.13 0.38
-9.87 -1.11 0.36
-9.68 -1.07 0.39
-9.98 -1.06 0.35
-9.83 -1.02 0.37
-9.73 -0.98 0.38
-9.95 -0.97 0.35
-10.01 -0.95 0.34
-9.94 -0.91 0.35
-9.98 -0.88 0.35
-9.99 -0.86 0.34
-9.16 -0.77 0.47
-9.26 -0.75 0.45
-6.19 -0.53 0.91
-6.17 -0.51 0.91
-6.22 -0.49 0.90
-6.26 -0.48 0.90
-6.31 -0.46 0.89
-6.31 -0.44 0.89
-6.28 -0.41 0.89
-6.34 -0.40 0.89
-6.39 -0.38 0.88
-6.31 -0.35 0.89
-6.32 -0.33 0.89
-8.25 -0.28 0.91
-8.79 -0.27 0.83
-8.46 -0.24 0.88
-8.65 -0.23 0.85
-8.48 -0.20 0.88
-8.15 -0.18 0.92
-8.33 -0.16 0.90
-8.34 -0.14 0.90
-8.50 -0.12 0.87
-9.06 -0.11 0.79
-8.71 -0.08 0.84
-7.29 -0.05 1.05
-8.91 -0.02 0.81
-6.48 -0.00 0.80
-5.21 0.02 1.00
-5.62 0.04 0.93
-4.95 0.07 1.04
-4.98 0.09 1.03
-4.85 0.10 1.05
-6.28 0.14 0.83
-5.75 0.15 0.91
-9.83 0.48 0.60
-9.87 0.58 0.59
-9.88 0.65 0.58
-9.92 0.80 0.57
-3.93 0.45 1.52
-2.16 -0.63 1.48
-9.84 -1.49 0.28
-9.99 -1.36 0.26
-9.86 -1.23 0.28
-9.78 -1.19 0.29
-9.81 -1.16 0.29
-9.67 -1.12 0.31
-9.72 -1.10 0.30
-9.90 -1.08 0.27
-9.82 -1.05 0.29
-9.80 -1.01 0.29
-9.39 -0.93 0.35
-9.90 -0.94 0.27
-9.43 -0.87 0.35
-9.73 -0.87 0.30
-9.71 -0.83 0.30
-9.39 -0.79 0.35
-9.62 -0.77 0.32
-9.74 -0.72 0.30
-9.18 -0.66 0.38
-9.12 -0.63 0.39
-6.87 -0.49 0.74
-6.23 -0.43 0.84
-9.35 -0.56 0.36
-6.54 -0.41 0.79
-6.43 -0.38 0.81
-6.45 -0.36 0.81
-6.51 -0.34 0.80
-6.33 -0.31 0.83
-6.49 -0.30 0.80
-6.65 -0.28 0.78
-6.54 -0.26 0.79
-6.53 -0.23 0.80
-6.50 -0.21 0.80
-6.41 -0.19 0.81
-6.50 -0.17 0.80
-6.48 -0.15 0.80
-6.44 -0.13 0.81
-7.87 -0.12 0.58
-6.77 -0.09 0.76
-6.01 -0.04 0.87
-6.10 -0.02 0.86
-7.53 0.00 0.90
-7.81 0.02 0.85
-7.26 0.04 0.94
-8.51 0.06 0.73
-8.64 0.09 0.71
-8.52 0.11 0.73
-8.69 0.13 0.70
-8.74 0.15 0.69
-8.71 0.17 0.70
-8.23 0.18 0.78
-9.45 0.23 0.58
-8.52 0.23 0.73
-8.35 0.25 0.76
-9.56 0.30 0.56
-10.03 0.34 0.48
-6.69 0.25 1.03
-6.73 0.27 1.02
-6.84 0.29 1.01
-6.77 0.30 1.02
-6.64 0.31 1.04
-6.62 0.33 1.04
-6.34 0.33 1.09
-6.45 0.35 1.07
-6.77 0.39 1.02
-6.77 0.40 1.02
-7.04 0.43 0.97
-6.83 0.44 1.00
-6.95 0.46 0.98
-6.96 0.48 0.98
-6.91 0.50 0.99
-6.77 0.50 1.01
-6.61 0.51 1.04
-6.18 0.49 1.11
-6.47 0.53 1.06
-6.53 0.55 1.05
-6.69 0.58 1.02
-6.64 0.59 1.03
-6.57 0.60 1.04
-6.52 0.61 1.05
-6.50 0.63 1.05
-6.25 0.62 1.09
-6.44 0.66 1.06
-10.25 1.05 0.42
-10.33 1.09 0.41
-10.68 1.18 0.35
-6.52 0.75 1.05
-4.02 0.56 1.46
-4.14 0.59 1.44
-9.46 -0.76 0.24
-9.39 -0.73 0.25
-9.21 -0.69 0.28
-6.23 -0.50 0.77
-10.88 -0.52 0.35
-10.92 -0.50 0.34
-9.02 -0.39 0.65
-9.34 -0.36 0.60
-9.43 -0.32 0.59
-9.51 -0.30 0.57
-9.84 -0.28 0.52
-9.69 -0.26 0.54
-9.43 -0.20 0.58
-9.16 -0.18 0.63
-9.27 -0.16 0.61
-10.05 -0.14 0.48
-10.16 -0.12 0.46
-10.04 -0.10 0.48
-9.63 -0.07 0.55
-8.86 -0.04 0.68
-9.42 -0.02 0.59
-5.44 -0.00 0.83
-5.35 0.02 0.85
-8.41 0.06 0.69
-8.57 0.08 0.66
-8.44 0.10 0.68
-9.36 0.14 0.52
-9.06 0.16 0.57
-8.39 0.17 0.68
-8.70 0.19 0.63
-6.18 0.15 1.07
-6.15 0.17 1.07
-6.70 0.20 0.98
-6.36 0.21 1.04
-6.19 0.21 1.07
-6.25 0.23 1.06
-6.12 0.24 1.08
-6.26 0.26 1.05
-6.45 0.29 1.02
-6.32 0.30 1.04
-6.06 0.30 1.09
-6.16 0.32 1.07
-6.34 0.34 1.04
-6.65 0.38 0.98
-6.34 0.38 1.04
-6.14 0.38 1.07
-6.39 0.41 1.03
-6.06 0.41 1.08
-6.40 0.44 1.02
-6.04 0.43 1.09
-5.66 0.42 1.15
-5.87 0.45 1.11
-5.63 0.45 1.16
-5.59 0.46 1.16
-5.57 0.47 1.17
-6.34 0.55 1.03
-6.40 0.57 1.02
-5.91 0.54 1.11
-6.22 0.59 1.05
-6.20 0.60 1.05
-6.25 0.62 1.04
-6.18 0.63 1.06
-3.70 0.40 1.49
-3.70 0.41 1.49
-3.82 0.43 1.47
-3.79 0.44 1.47
-3.76 0.44 1.48
-4.09 0.56 1.42
-3.92 0.60 1.44
-3.33 0.77 1.54
-3.81 0.89 1.45
-3.49 1.22 1.48
-3.57 -1.01 1.16
-3.13 -0.91 1.23
-3.32 -0.93 1.20
-2.92 -0.85 1.27
-2.82 -0.82 1.29
-2.82 -0.81 1.29
-2.98 -0.82 1.26
-2.88 -0.80 1.28
-2.92 -0.78 1.27
-3.06 -0.78 1.24
-2.74 -0.73 1.30
-2.78 -0.72 1.29
-2.46 -0.63 1.35
-8.93 -0.65 0.24
-6.80 -0.51 0.60
-6.74 -0.48 0.61
-6.73 -0.46 0.62
-6.91 -0.45 0.58
-6.60 -0.41 0.64
-6.53 -0.38 0.65
-6.52 -0.36 0.65
-6.21 -0.33 0.70
-8.76 -0.40 0.27
-6.76 -0.31 0.61
-6.44 -0.28 0.66
-6.52 -0.26 0.65
-4.23 -0.18 1.04
-4.44 -0.17 1.01
-4.42 -0.15 1.01
-6.19 -0.17 0.71
-6.64 -0.15 0.63
-4.66 -0.10 0.97
-5.32 -0.09 0.85
-5.95 -0.08 0.75
-5.19 -0.06 0.88
-4.95 -0.04 0.92
-5.32 -0.02 0.85
-7.10 0.00 0.85
-8.36 0.02 0.62
-7.81 0.04 0.72
-7.87 0.06 0.71
-7.93 0.08 0.70
-7.89 0.10 0.71
-7.90 0.12 0.70
-7.95 0.14 0.70
-7.75 0.15 0.73
-7.92 0.18 0.70
-7.58 0.19 0.76
-8.28 0.22 0.63
-6.35 0.19 0.98
-6.32 0.20 0.99
-6.24 0.22 1.00
-6.31 0.23 0.99
-6.29 0.25 0.99
-6.22 0.26 1.01
-6.37 0.28 0.98
-6.38 0.30 0.98
-6.28 0.31 0.99
-6.24 0.32 1.00
-6.19 0.34 1.01
-6.29 0.36 0.99
-5.93 0.35 1.06
-6.06 0.38 1.03
-6.07 0.39 1.03
-5.98 0.40 1.05
-6.18 0.43 1.01
-6.02 0.43 1.04
-5.83 0.43 1.07
-6.01 0.46 1.04
-5.91 0.47 1.06
-6.27 0.51 0.99
-6.17 0.52 1.01
-6.19 0.54 1.00
-6.12 0.55 1.02
-6.27 0.57 0.99
-6.16 0.58 1.01
-6.22 0.60 1.00
-6.17 0.61 1.00
-6.28 0.64 0.98
-6.00 0.63 1.04
-6.09 0.65 1.02
-6.06 0.66 1.02
-6.08 0.68 1.02
-5.85 0.67 1.06
-5.97 0.70 1.04
-6.00 0.72 1.03
-6.00 0.73 1.03
-5.95 0.74 1.04
-6.18 0.83 1.00
-5.44 0.75 1.13
-4.90 0.69 1.23
-4.32 0.62 1.34
-4.44 0.65 1.31
-5.08 0.75 1.20
-4.74 0.72 1.26
-4.67 0.76 1.27
-4.68 0.98 1.25
-4.84 1.09 1.22
-4.81 1.12 1.22
-4.40 1.05 1.30
-2.89 -1.69 1.21
-2.89 -1.68 1.21
-3.09 -1.61 1.18
-2.97 -1.38 1.20
-2.95 -1.34 1.21
-3.05 -1.32 1.19
-3.65 -1.22 1.09
-3.61 -1.20 1.10
-3.61 -1.18 1.10
-3.62 -1.17 1.09
-3.66 -1.16 1.09
-3.55 -1.13 1.11
-3.57 -1.12 1.10
-3.84 -1.15 1.06
-3.88 -1.14 1.05
-3.67 -1.09 1.09
-3.54 -1.05 1.11
-3.59 -1.05 1.10
-3.86 -1.08 1.05
-3.65 -1.03 1.09
-3.77 -1.03 1.07
-3.50 -0.98 1.12
-3.44 -0.95 1.13
-3.49 -0.95 1.12
-3.35 -0.91 1.15
-3.38 -0.90 1.14
-3.28 -0.87 1.16
-3.28 -0.86 1.16
-3.30 -0.85 1.16
-3.14 -0.81 1.18
-3.12 -0.79 1.19
-3.22 -0.79 1.17
-3.08 -0.76 1.20
-3.06 -0.74 1.20
-3.03 -0.73 1.21
-2.99 -0.71 1.21
-3.15 -0.72 1.18
-3.09 -0.70 1.19
-3.12 -0.69 1.19
-2.88 -0.65 1.23
-3.06 -0.65 1.20
-3.06 -0.64 1.20
-2.98 -0.62 1.21
-3.03 -0.61 1.20
-2.98 -0.58 1.21
-3.08 -0.58 1.20
-4.80 -0.50 0.89
-7.52 -0.59 0.40
-8.22 -0.61 0.27
-4.41 -0.38 0.96
-8.27 -0.56 0.26
-8.21 -0.53 0.27
-8.06 -0.50 0.30
-7.44 -0.42 0.41
-8.05 -0.43 0.30
-7.63 -0.38 0.38
-7.49 -0.36 0.40
-6.24 -0.27 0.63
-6.41 -0.25 0.60
-7.89 -0.27 0.33
-4.62 -0.17 0.92
-5.17 -0.17 0.82
-4.98 -0.14 0.85
-7.58 -0.11 0.77
-8.91 -0.11 0.52
-8.66 -0.08 0.57
-8.63 -0.06 0.58
-6.93 -0.03 0.88
-6.79 -0.02 0.91
-4.43 -0.00 0.89
-4.55 0.01 0.87
-4.41 0.03 0.90
-4.71 0.05 0.84
-7.16 0.09 0.38
-4.19 0.08 0.94
-4.39 0.09 0.90
-6.15 0.14 0.56
-4.38 0.13 0.90
-6.14 0.18 0.57
-6.01 0.20 0.59
-8.72 0.26 0.48
-6.06 0.19 0.98
-5.93 0.21 1.01
-6.21 0.23 0.96
-5.96 0.24 1.00
-6.05 0.25 0.98
-5.99 0.27 1.00
-5.78 0.27 1.04
-5.89 0.29 1.01
-5.91 0.31 1.01
-5.86 0.32 1.02
-5.72 0.33 1.05
-5.87 0.35 1.02
-5.84 0.36 1.02
-5.71 0.37 1.05
-5.90 0.39 1.01
-5.98 0.41 0.99
-5.70 0.41 1.05
-5.87 0.44 1.01
-5.45 0.42 1.09
-5.45 0.43 1.09
-5.61 0.46 1.06
-5.56 0.47 1.07
-5.61 0.49 1.06
-6.07 0.54 0.97
-6.14 0.56 0.96
-3.45 0.33 1.47
-6.74 0.65 0.84
-6.00 0.59 0.98
-5.79 0.59 1.02
-6.70 0.69 0.85
-6.44 0.68 0.90
-3.95 0.46 1.38
-4.66 0.55 1.24
-4.44 0.54 1.28
-5.18 0.65 1.14
-5.00 0.66 1.17
-4.31 0.60 1.30
-4.11 0.59 1.34
-3.89 0.57 1.38
-4.12 0.63 1.34
-4.11 0.65 1.34
-4.09 0.75 1.34
-4.32 0.90 1.28
-4.39 0.92 1.27
-4.48 0.95 1.25
-4.13 0.91 1.32
-4.37 0.97 1.27
-3.95 0.95 1.35
-3.34 0.84 1.47
-3.98 1.00 1.34
-2.02 -1.64 1.32
-2.42 -1.69 1.25
-2.76 -1.65 1.19
-2.01 -1.30 1.34
-1.90 -1.16 1.36
-1.94 -1.05 1.36
-1.85 -1.02 1.38
-1.91 -0.98 1.37
-2.11 -1.01 1.33
-2.08 -1.00 1.34
-2.07 -0.98 1.34
-1.80 -0.76 1.39
-3.50 -1.04 1.07
-3.70 -1.06 1.03
-3.42 -1.00 1.08
-3.50 -1.00 1.07
-3.55 -0.99 1.06
-3.41 -0.96 1.09
-3.30 -0.93 1.11
-3.40 -0.93 1.09
-3.55 -0.94 1.06
-3.71 -0.95 1.03
-3.35 -0.88 1.10
-3.15 -0.83 1.14
-3.18 -0.83 1.13
-2.78 -0.76 1.21
-3.05 -0.78 1.16
-2.94 -0.75 1.18
-2.90 -0.73 1.18
-2.79 -0.71 1.21
-2.85 -0.70 1.19
-3.05 -0.72 1.16
-3.03 -0.70 1.16
-2.40 -0.61 1.28
-2.79 -0.64 1.21
-2.66 -0.62 1.23
-2.71 -0.61 1.22
-2.69 -0.60 1.22
-2.37 -0.55 1.29
-2.27 -0.52 1.30
-7.57 -0.52 0.30
-7.61 -0.50 0.30
-7.60 -0.43 0.30
-7.20 -0.39 0.37
-7.54 -0.36 0.31
-3.90 -0.21 1.00
-3.45 -0.18 1.08
-3.70 -0.18 1.03
-6.33 -0.23 0.54
-4.01 -0.16 0.97
-3.99 -0.14 0.98
-3.84 -0.12 1.00
-3.84 -0.11 1.00
-4.11 -0.10 0.95
-4.19 -0.08 0.94
-4.46 -0.07 0.89
-4.37 -0.05 0.90
-4.63 -0.04 0.85
-4.55 -0.02 0.87
-7.12 0.00 0.72
-7.06 0.02 0.73
-7.07 0.03 0.73
-7.00 0.05 0.74
-7.20 0.07 0.70
-7.36 0.09 0.67
-6.99 0.10 0.74
-7.15 0.12 0.71
-7.61 0.15 0.62
-7.80 0.17 0.58
-8.19 0.20 0.50
-7.96 0.21 0.55
-7.73 0.23 0.59
-8.14 0.26 0.51
-5.85 0.20 0.97
-5.87 0.22 0.96
-5.95 0.24 0.95
-5.91 0.25 0.95
-6.27 0.28 0.88
-6.39 0.30 0.86
-6.12 0.30 0.91
-6.71 0.35 0.79
-6.32 0.34 0.87
-6.21 0.35 0.89
-5.82 0.35 0.97
-6.06 0.38 0.92
-6.07 0.39 0.92
-6.10 0.41 0.91
-7.54 0.52 0.62
-7.72 0.55 0.59
-7.60 0.56 0.61
-6.25 0.48 0.88
-6.42 0.51 0.84
-6.89 0.56 0.75
-6.15 0.52 0.90
-5.81 0.51 0.97
-5.76 0.52 0.98
-6.22 0.57 0.88
-9.24 0.86 0.28
-8.87 0.85 0.35
-8.81 0.86 0.36
-7.23 0.73 0.68
-7.33 0.76 0.66
-7.28 0.77 0.67
-7.21 0.78 0.68
-7.87 0.87 0.55
-8.16 0.92 0.49
-6.77 0.79 0.77
-6.79 0.81 0.76
-6.66 0.81 0.79
-8.33 1.02 0.45
-6.62 0.84 0.79
-4.93 0.65 1.13
-4.98 0.66 1.12
-4.96 0.67 1.13
-5.30 0.73 1.06
-5.19 0.73 1.08
-5.40 0.77 1.03
-5.30 0.77 1.06
-5.64 0.83 0.99
-4.62 0.71 1.19
-4.48 0.79 1.22
-4.34 0.78 1.24
-4.74 0.86 1.16
-4.89 0.89 1.13
-4.79 0.89 1.15
-4.63 0.87 1.18
-4.63 0.88 1.18
-4.64 0.90 1.18
-4.76 0.93 1.15
-4.57 0.91 1.19
-4.68 0.94 1.17
-4.52 0.92 1.20
-4.43 0.94 1.22
-4.58 0.98 1.18
-4.47 0.97 1.21
-4.55 1.00 1.19
-4.50 1.00 1.20
-4.71 1.06 1.16
-4.67 1.07 1.16
-4.75 1.10 1.15
-4.73 1.10 1.15
-4.69 1.11 1.16
-4.71 1.14 1.15
-2.89 -1.66 1.11
-2.92 -1.65 1.11
-2.93 -1.62 1.11
-2.90 -1.59 1.11
-3.07 -1.63 1.08
-3.17 -1.62 1.06
-3.21 -1.59 1.06
-3.12 -1.55 1.07
-3.00 -1.50 1.10
-3.22 -1.55 1.05
-3.22 -1.49 1.05
-3.08 -1.44 1.08
-3.12 -1.44 1.08
-3.35 -1.47 1.03
-3.68 -1.39 0.97
-3.71 -1.38 0.96
-3.35 -1.29 1.04
-2.85 -1.12 1.14
-2.94 -1.13 1.12
-3.01 -1.13 1.11
-3.07 -1.13 1.10
-3.35 -1.17 1.04
-3.15 -1.12 1.08
-2.81 -1.04 1.15
-3.13 -1.09 1.08
-3.39 -1.13 1.03
-3.38 -1.11 1.04
-3.58 -1.13 0.99
-3.47 -1.10 1.02
-3.48 -1.09 1.01
-3.51 -1.08 1.01
-3.68 -1.09 0.98
-3.49 -1.05 1.01
-3.56 -1.04 1.00
-3.56 -1.03 1.00
-3.55 -1.01 1.00
-3.60 -1.01 0.99
-3.56 -0.99 1.00
-3.61 -0.98 0.99
-3.59 -0.96 1.00
-3.51 -0.94 1.01
-3.54 -0.93 1.01
-3.58 -0.92 1.00
-3.63 -0.91 0.99
-3.68 -0.90 0.98
-3.63 -0.88 0.99
-3.63 -0.87 0.99
-3.52 -0.84 1.01
-3.61 -0.84 0.99
-3.42 -0.80 1.03
-3.40 -0.78 1.04
-3.29 -0.75 1.06
-3.32 -0.74 1.05
-3.32 -0.73 1.05
-3.10 -0.69 1.09
-3.14 -0.68 1.09
-3.16 -0.67 1.08
-3.02 -0.64 1.11
-2.77 -0.60 1.16
-2.66 -0.57 1.18
-2.90 -0.58 1.14
-2.77 -0.50 1.16
-2.57 -0.47 1.20
-3.40 -0.53 1.04
-4.70 -0.63 0.78
-4.69 -0.59 0.78
-4.67 -0.58 0.79
-4.60 -0.55 0.80
-4.69 -0.54 0.78
-4.88 -0.54 0.74
-4.57 -0.50 0.81
-4.91 -0.51 0.74
-5.18 -0.51 0.69
-4.33 -0.44 0.85
-4.18 -0.40 0.88
-4.29 -0.39 0.86
-4.35 -0.37 0.85
-6.90 -0.38 0.35
-6.43 -0.34 0.44
-7.13 -0.24 0.72
-7.06 -0.22 0.73
-7.04 -0.21 0.74
-7.03 -0.19 0.74
-7.07 -0.17 0.73
-7.17 -0.16 0.71
-7.19 -0.14 0.71
-7.14 -0.12 0.72
-7.17 -0.10 0.71
-7.08 -0.09 0.73
-7.59 -0.07 0.63
-6.98 -0.05 0.75
-6.96 -0.03 0.75
-7.57 -0.02 0.63
-4.37 -0.00 0.79
-4.90 0.01 0.68
-4.30 0.03 0.80
-4.03 0.04 0.86
-5.66 0.25 0.52
-5.72 0.27 0.51
-5.51 0.28 0.55
-5.85 0.31 0.48
-5.24 0.31 0.60
-5.90 0.29 0.91
-5.95 0.31 0.90
-5.65 0.31 0.96
-6.08 0.34 0.87
-6.04 0.36 0.88
-5.88 0.36 0.91
-6.47 0.41 0.79
-6.37 0.42 0.81
-6.20 0.43 0.84
-5.87 0.42 0.91
-5.79 0.43 0.93
-8.02 0.61 0.46
-5.21 0.41 1.05
-5.27 0.43 1.03
-5.88 0.49 0.91
-5.28 0.46 1.03
-5.22 0.47 1.04
-6.03 0.57 0.87
-5.72 0.55 0.94
-5.35 0.55 1.01
-7.21 0.78 0.62
-7.84 0.92 0.49
-7.43 0.91 0.57
-4.16 0.76 1.25
-4.32 0.88 1.21
-3.31 0.70 1.42
-1.33 -1.11 1.41
-1.77 -1.23 1.31
-2.37 -1.34 1.19
-2.10 -1.03 1.25
-1.82 -0.95 1.31
-2.01 -0.97 1.27
-2.40 -1.04 1.19
-2.69 -1.09 1.13
-2.73 -1.09 1.12
-2.67 -1.06 1.14
-2.73 -1.05 1.12
-2.74 -1.04 1.12
-3.05 -1.09 1.06
-2.33 -0.94 1.21
-3.49 -1.15 0.97
-3.14 -1.07 1.04
-3.30 -1.09 1.01
-3.51 -1.12 0.96
-3.29 -1.06 1.01
-3.23 -1.04 1.02
-3.17 -1.01 1.04
-3.26 -1.01 1.02
-3.39 -1.02 0.99
-3.33 -1.00 1.00
-3.35 -0.99 1.00
-3.39 -0.98 0.99
-3.49 -0.98 0.97
-3.51 -0.97 0.97
-3.37 -0.94 1.00
-3.49 -0.94 0.97
-3.35 -0.91 1.00
-3.41 -0.90 0.99
-3.37 -0.88 1.00
-3.48 -0.88 0.97
-3.44 -0.86 0.98
-3.29 -0.83 1.01
-3.44 -0.84 0.98
-3.54 -0.84 0.96
-3.44 -0.81 0.98
-3.33 -0.78 1.01
-3.05 -0.73 1.06
-3.10 -0.72 1.05
-3.09 -0.71 1.06
-2.69 -0.64 1.14
-2.83 -0.65 1.11
-3.12 -0.67 1.05
-3.20 -0.67 1.03
-2.57 -0.58 1.16
-2.39 -0.55 1.20
-2.63 -0.56 1.15
-1.95 -0.48 1.29
-5.02 -0.62 0.66
-6.43 -0.32 0.37
-6.46 -0.30 0.36
-6.31 -0.27 0.39
-6.32 -0.25 0.39
-3.77 -0.17 0.91
-6.48 -0.22 0.36
-6.62 -0.20 0.33
-6.68 -0.18 0.32
-5.25 -0.13 0.61
-4.35 -0.08 0.79
-4.36 -0.07 0.79
-4.43 -0.04 0.78
-4.20 -0.02 0.82
-7.49 -0.00 0.51
-7.37 0.02 0.53
-7.23 0.03 0.56
-7.08 0.05 0.59
-7.23 0.07 0.56
-7.10 0.09 0.59
-7.40 0.11 0.52
-7.33 0.12 0.54
-7.08 0.14 0.59
-7.31 0.16 0.54
-7.32 0.18 0.54
-7.33 0.20 0.54
-5.91 0.18 0.85
-6.11 0.20 0.80
-5.93 0.20 0.84
-5.78 0.21 0.87
-5.74 0.23 0.88
-5.83 0.24 0.86
-5.57 0.25 0.92
-5.65 0.27 0.90
-5.79 0.29 0.87
-5.89 0.31 0.85
-5.84 0.32 0.86
-6.14 0.35 0.79
-6.43 0.38 0.73
-6.04 0.37 0.81
-6.04 0.39 0.81
-6.09 0.41 0.80
-6.11 0.42 0.79
-5.89 0.42 0.84
-5.96 0.44 0.83
-5.96 0.46 0.83
-5.92 0.47 0.83
-6.00 0.49 0.82
-6.09 0.51 0.80
-6.18 0.54 0.78
-6.21 0.55 0.77
-6.40 0.59 0.73
-6.57 0.62 0.69
-6.47 0.62 0.71
-8.20 0.82 0.33
-8.27 0.85 0.31
-5.50 0.59 0.92
-7.53 0.82 0.47
-5.44 0.61 0.93
-8.02 0.91 0.37
-7.94 0.92 0.38
-6.08 0.73 0.79
-5.45 0.67 0.93
-8.19 1.01 0.33
-5.15 0.67 0.99
-5.31 0.71 0.96
-5.29 0.72 0.96
-5.65 0.78 0.88
-5.95 0.83 0.81
-5.37 0.77 0.94
-5.23 0.76 0.97
-5.25 0.78 0.96
-5.25 0.79 0.96
-5.20 0.80 0.97
-5.26 0.82 0.96
-5.37 0.85 0.93
-5.13 0.83 0.99
-5.29 0.87 0.95
-5.32 0.88 0.94
-4.94 0.84 1.03
-5.27 0.90 0.95
-5.07 0.89 1.00
-4.61 0.82 1.10
-4.80 0.87 1.06
-4.83 0.88 1.05
-5.01 0.93 1.01
-4.92 0.92 1.03
-4.82 0.92 1.05
-5.03 0.97 1.00
-4.96 0.97 1.01
-4.71 0.94 1.07
-5.01 1.01 1.00
-5.08 1.03 0.99
-4.93 1.02 1.02
-4.90 1.02 1.03
-4.75 1.01 1.06
-4.70 1.01 1.07
-4.71 1.03 1.06
-4.54 1.00 1.10
-4.73 1.05 1.06
-4.64 1.05 1.08
-4.90 1.12 1.02
-4.90 1.13 1.02
-4.76 1.11 1.05
-4.90 1.15 1.02
-4.79 1.14 1.04
-4.93 1.19 1.01
-4.77 1.16 1.04
-4.85 1.20 1.02
-4.91 1.24 1.01
-4.87 1.25 1.02
-4.88 1.30 1.01
-3.41 0.95 1.34
-5.09 1.42 0.96
-2.86 -1.45 1.03
-2.97 -1.47 1.00
-2.85 -1.41 1.03
-2.92 -1.40 1.02
-3.05 -1.42 0.99
-2.98 -1.39 1.01
-3.49 -1.51 0.89
-3.00 -1.34 1.00
-2.90 -1.30 1.03
-3.31 -1.39 0.94
-3.66 -1.46 0.86
-3.72 -1.46 0.85
-3.56 -1.41 0.88
-3.63 -1.41 0.87
-3.78 -1.43 0.83
-3.16 -1.27 0.97
-3.63 -1.37 0.87
-3.27 -1.27 0.95
-3.21 -1.24 0.96
-3.95 -1.39 0.80
-3.82 -1.35 0.83
-3.40 -1.24 0.92
-3.38 -1.22 0.93
-3.49 -1.23 0.90
-3.13 -1.15 0.98
-3.06 -1.12 1.00
-3.07 -1.10 1.00
-3.46 -1.17 0.91
-2.97 -1.06 1.02
-3.13 -1.08 0.98
-3.08 -1.06 0.99
-3.05 -1.04 1.00
-3.24 -1.06 0.96
-3.27 -1.05 0.95
-3.44 -1.07 0.92
-3.40 -1.05 0.93
-3.37 -1.03 0.93
-3.52 -1.04 0.90
-3.49 -1.02 0.91
-3.46 -1.00 0.91
-3.58 -1.01 0.89
-3.55 -0.99 0.89
-3.34 -0.94 0.94
-3.41 -0.94 0.92
-3.49 -0.93 0.91
-3.55 -0.93 0.90
-3.71 -0.94 0.86
-3.46 -0.89 0.92
-3.55 -0.89 0.90
-3.47 -0.86 0.91
-3.59 -0.86 0.89
-3.47 -0.83 0.91
-3.54 -0.83 0.90
-3.65 -0.83 0.87
-3.46 -0.79 0.92
-3.53 -0.78 0.90
-3.60 -0.78 0.89
-3.75 -0.78 0.85
-3.87 -0.78 0.83
-3.64 -0.74 0.88
-3.49 -0.71 0.91
-3.77 -0.73 0.85
-3.49 -0.68 0.91
-3.42 -0.66 0.93
-3.34 -0.63 0.94
-3.34 -0.62 0.94
-3.40 -0.61 0.93
-2.77 -0.54 1.07
-5.71 -0.82 0.43
-2.86 -0.52 1.05
-2.38 -0.46 1.15
-2.55 -0.47 1.11
-2.66 -0.46 1.09
-4.90 -0.65 0.61
-5.04 -0.64 0.58
-4.74 -0.60 0.64
-4.79 -0.59 0.63
-4.83 -0.57 0.62
-4.57 -0.54 0.68
-4.98 -0.55 0.59
-3.78 -0.45 0.85
-5.26 -0.53 0.53
-4.45 -0.46 0.70
-4.03 -0.42 0.79
-4.24 -0.42 0.75
-4.12 -0.39 0.78
-7.62 -0.43 0.48
-7.64 -0.41 0.48
-7.51 -0.39 0.51
-7.60 -0.37 0.49
-7.45 -0.35 0.52
-7.23 -0.32 0.57
-7.31 -0.30 0.55
-7.33 -0.29 0.54
-7.17 -0.26 0.58
-7.31 -0.25 0.55
-7.08 -0.17 0.60
-6.80 -0.15 0.66
-6.98 -0.14 0.62
-7.46 -0.09 0.51
-7.59 -0.08 0.49
-7.44 -0.06 0.52
-7.16 -0.04 0.58
-7.44 -0.02 0.52
-4.05 -0.00 0.73
-4.35 0.01 0.66
-7.07 0.05 0.53
-7.29 0.07 0.48
-7.52 0.11 0.43
-7.41 0.12 0.45
-5.71 0.11 0.84
-5.71 0.13 0.84
-7.49 0.18 0.43
-5.46 0.15 0.89
-5.39 0.17 0.91
-5.39 0.19 0.91
-5.43 0.20 0.90
-5.42 0.21 0.90
-5.56 0.23 0.87
-5.55 0.26 0.87
-5.83 0.29 0.80
-5.46 0.28 0.89
-5.81 0.31 0.81
-5.72 0.32 0.83
-5.99 0.35 0.77
-5.58 0.34 0.86
-5.65 0.38 0.84
-5.90 0.41 0.78
-5.76 0.41 0.81
-5.88 0.43 0.79
-5.71 0.44 0.83
-5.91 0.47 0.78
-5.52 0.47 0.87
-5.58 0.48 0.85
-6.26 0.57 0.70
-6.54 0.64 0.63
-7.12 0.75 0.50
-7.49 0.85 0.41
-7.34 0.85 0.44
-7.21 0.85 0.47
-5.15 0.68 0.94
-4.80 0.68 1.02
-4.93 0.71 0.99
-4.08 0.65 1.18
-4.66 0.75 1.05
-4.66 0.78 1.05
-4.32 0.77 1.12
-4.96 0.92 0.97
-4.72 0.90 1.03
-4.74 0.93 1.02
-4.91 0.97 0.98
-4.57 0.92 1.05
-4.68 0.99 1.03
-3.64 -1.30 0.81
-3.12 -1.17 0.93
-2.76 -1.08 1.01
-3.16 -1.13 0.92
-3.08 -1.10 0.94
-3.06 -1.09 0.95
-3.03 -1.07 0.95
-2.91 -1.02 0.98
-2.91 -1.01 0.98
-2.81 -0.96 1.01
-2.86 -0.96 1.00
-3.04 -0.98 0.95
-3.06 -0.97 0.95
-3.12 -0.95 0.94
-3.08 -0.93 0.95
-3.09 -0.91 0.94
-3.17 -0.91 0.93
-3.24 -0.89 0.91
-3.22 -0.86 0.92
-2.81 -0.79 1.01
-3.43 -0.85 0.87
-3.41 -0.84 0.87
-3.39 -0.80 0.88
-3.30 -0.76 0.90
-3.20 -0.74 0.92
-3.35 -0.73 0.89
-3.46 -0.73 0.86
-3.37 -0.71 0.88
-3.43 -0.70 0.87
-3.39 -0.67 0.88
-1.75 -0.47 1.25
-1.91 -0.47 1.21
-1.92 -0.46 1.21
-1.73 -0.43 1.25
-2.17 -0.46 1.15
-2.25 -0.45 1.14
-2.30 -0.44 1.13
-2.24 -0.41 1.14
-4.92 -0.63 0.53
-4.76 -0.60 0.57
-4.64 -0.57 0.60
-2.31 -0.36 1.12
-3.62 -0.42 0.83
-3.54 -0.39 0.85
-4.76 -0.41 0.57
-3.91 -0.32 0.76
-4.24 -0.29 0.69
-4.37 -0.26 0.66
-4.24 -0.24 0.69
-3.68 -0.19 0.81
-3.77 -0.18 0.79
-3.88 -0.15 0.77
-4.42 -0.13 0.65
-4.82 -0.09 0.55
-4.41 -0.04 0.65
-6.91 0.03 0.50
-6.45 0.05 0.61
-7.24 0.07 0.42
-6.50 0.13 0.59
-6.71 0.15 0.54
-6.96 0.17 0.48
-7.43 0.20 0.37
-6.83 0.23 0.51
-6.68 0.24 0.55
-6.90 0.27 0.49
-6.95 0.29 0.48
-6.95 0.31 0.48
-7.05 0.33 0.46
-6.80 0.33 0.52
-4.10 0.22 1.15
-6.84 0.37 0.50
-6.35 0.36 0.62
-6.41 0.38 0.61
-6.56 0.40 0.57
-6.55 0.43 0.57
-6.17 0.43 0.66
-6.56 0.48 0.57
-6.66 0.51 0.54
-6.36 0.50 0.61
-6.41 0.52 0.60
-6.35 0.53 0.61
-6.66 0.57 0.54
-7.39 0.91 0.36
-6.98 0.88 0.45
-7.09 0.91 0.43
-6.97 0.91 0.45
-6.76 0.92 0.50
-5.24 0.73 0.87
-7.00 0.99 0.44
-5.35 0.80 0.84
-5.26 0.81 0.86
-5.63 0.87 0.77
-3.54 -1.16 0.78
-3.60 -1.15 0.77
-3.22 -1.07 0.86
-3.52 -1.11 0.79
-3.47 -1.09 0.80
-3.72 -1.12 0.74
-3.79 -1.11 0.72
-4.06 -1.15 0.66
-3.78 -1.08 0.73
-3.94 -1.09 0.69
-3.88 -1.07 0.70
-3.73 -1.03 0.74
-3.66 -1.00 0.76
-3.73 -1.00 0.74
-3.67 -0.98 0.75
-3.76 -0.98 0.73
-3.79 -0.97 0.73
-3.84 -0.96 0.71
-3.71 -0.92 0.74
-3.72 -0.91 0.74
-3.63 -0.88 0.77
-3.65 -0.87 0.76
-3.59 -0.85 0.78
-3.71 -0.85 0.75
-3.59 -0.82 0.77
-3.52 -0.80 0.79
-3.56 -0.79 0.78
-3.74 -0.80 0.74
-5.03 -0.94 0.44
-5.00 -0.92 0.44
-3.68 -0.74 0.75
-4.74 -0.86 0.51
-4.88 -0.86 0.47
-4.89 -0.84 0.47
-4.98 -0.83 0.45
-4.83 -0.78 0.49
-5.02 -0.77 0.44
-4.96 -0.74 0.45
-5.22 -0.68 0.39
-4.76 -0.62 0.50
-4.89 -0.61 0.47
-4.73 -0.58 0.51
-4.87 -0.58 0.48
-4.68 -0.54 0.52
-4.79 -0.54 0.50
-4.38 -0.49 0.59
-4.35 -0.47 0.60
-4.82 -0.49 0.49
-4.56 -0.45 0.55
-5.09 -0.47 0.43
-4.66 -0.41 0.53
-4.29 -0.37 0.61
-4.36 -0.36 0.59
-4.00 -0.33 0.68
-4.95 -0.36 0.46
-4.60 -0.32 0.54
-4.70 -0.31 0.52
-4.87 -0.30 0.48
-4.61 -0.27 0.54
-4.48 -0.25 0.57
-5.15 -0.26 0.41
-0.78 -0.95 0.45
-0.88 -0.89 0.21
-0.91 -0.79 0.20
