# .PCD v0.7 - Point Cloud Data file format
VERSION 0.7
FIELDS x y z
SIZE 4 4 4
TYPE F F F
COUNT 1 1 1
WIDTH 1878
HEIGHT 1
VIEWPOINT 0 0 0 1 0 0 0
POINTS 1878
DATA ASCII
-3.02 -1.19 2.33
-7.01 0.37 2.22
-8.38 0.88 2.22
-6.64 -0.37 2.22
-2.96 -0.58 2.20
-2.23 -0.24 2.16
-7.10 -1.17 1.99
-7.84 -0.86 1.94
-4.63 0.90 2.04
-7.35 -0.68 1.89
-6.34 -1.52 1.90
-7.71 -0.93 1.77
-5.83 -0.25 1.85
-7.88 -0.15 1.82
-14.89 0.01 1.38
-2.92 -0.66 1.89
-7.74 -0.98 1.64
-4.97 -0.69 1.79
-6.10 -0.70 1.73
-6.97 -0.73 1.68
-1.85 -0.31 1.95
-8.03 -0.02 1.74
-8.09 0.00 1.67
-15.29 0.04 1.22
-2.38 -1.00 1.88
-5.68 -1.27 1.68
-5.59 -1.23 1.68
-5.41 -0.84 1.69
-6.40 -0.77 1.63
-6.59 -0.45 1.62
-8.21 -0.12 1.66
-14.38 0.14 1.05
-5.05 -0.78 1.68
-7.53 -0.91 1.51
-5.81 -0.26 1.62
-6.01 0.02 1.73
-15.32 0.08 1.06
-12.72 0.35 1.24
-12.40 0.37 1.26
-12.27 0.39 1.27
-13.19 0.71 1.20
-4.00 0.70 1.86
-5.56 -0.95 1.60
-5.59 -0.94 1.60
-5.56 -0.88 1.60
-5.59 -0.82 1.60
-5.62 -0.72 1.59
-7.37 -0.85 1.47
-7.40 -0.78 1.47
-7.09 -0.71 1.49
-5.89 -0.56 1.57
-5.59 -0.45 1.60
-5.56 -0.43 1.60
-5.80 -0.38 1.58
-6.38 -0.38 1.54
-6.54 -0.37 1.53
-6.69 -0.25 1.68
-15.80 -0.45 1.03
-8.00 -0.21 1.59
-7.96 -0.19 1.59
-7.93 -0.11 1.59
-15.48 -0.14 1.05
-15.55 -0.07 1.04
-4.16 0.23 1.66
-12.54 0.59 1.01
-12.83 0.66 1.16
-4.47 0.34 1.81
-14.02 1.16 1.06
-9.13 -0.55 1.28
-7.76 0.00 1.51
-7.99 0.02 1.49
-8.17 0.04 1.48
-12.12 0.09 1.15
-15.86 0.16 0.84
-8.65 0.24 1.44
-12.38 0.46 1.13
-12.23 0.48 1.14
-12.69 0.53 1.10
-13.04 0.58 1.07
-13.07 0.61 1.07
-4.00 0.21 1.82
-12.83 0.66 1.09
-12.78 0.69 1.09
-12.84 0.72 1.09
-13.26 0.88 1.05
-3.23 0.26 1.88
-4.11 0.33 1.81
-13.66 1.10 1.01
-5.21 0.59 1.72
-4.48 0.81 1.77
-2.55 -0.70 1.76
-6.23 -1.16 1.45
-5.29 -0.81 1.53
-5.21 -0.78 1.54
-5.09 -0.75 1.55
-5.53 -0.78 1.51
-1.60 -0.40 1.83
-5.40 -0.73 1.52
-5.18 -0.69 1.54
-5.40 -0.69 1.52
-5.63 -0.69 1.50
-5.60 -0.67 1.51
-5.53 -0.62 1.51
-2.29 -0.36 1.78
-5.95 -0.61 1.48
-2.17 -0.32 1.79
-2.44 -0.33 1.76
-2.27 -0.30 1.78
-2.10 -0.28 1.79
-3.85 -0.21 1.84
-15.58 -0.75 0.87
-15.62 -0.71 0.87
-15.60 -0.67 0.87
-15.56 -0.63 0.87
-15.62 -0.56 0.87
-6.13 -0.21 1.65
-7.48 -0.24 1.54
-6.24 -0.19 1.64
-5.89 -0.15 1.67
-5.53 -0.12 1.70
-7.49 -0.13 1.54
-4.19 -0.06 1.81
-15.15 -0.18 0.90
-7.84 -0.06 1.51
-8.05 -0.04 1.49
-12.08 -0.03 1.16
-15.04 0.08 0.83
-13.03 0.54 1.00
-13.14 0.58 0.99
-12.78 0.75 1.02
-9.97 -1.41 1.08
-9.93 -1.37 1.08
-4.84 -0.75 1.53
-6.01 -0.49 1.43
-6.02 -0.47 1.42
-9.05 -0.60 1.16
-6.19 -0.35 1.41
-5.98 -0.32 1.43
-6.07 -0.24 1.42
-6.00 -0.20 1.42
-8.49 -0.15 1.21
-7.74 0.00 1.42
-7.77 0.02 1.42
-7.80 0.04 1.42
-7.81 0.06 1.42
-9.16 0.27 1.29
-9.46 0.30 1.26
-9.48 0.33 1.26
-9.48 0.35 1.26
-13.11 0.55 0.91
-13.21 0.58 0.90
-13.06 0.61 0.92
-12.80 0.63 0.94
-12.81 0.69 0.94
-12.51 0.77 0.97
-12.86 0.82 0.93
-12.80 0.85 0.94
-12.97 0.92 0.92
-4.63 -1.20 1.50
-9.96 -1.44 1.01
-4.98 -0.78 1.47
-5.20 -0.78 1.45
-5.31 -0.77 1.44
-7.86 -0.97 1.20
-5.16 -0.69 1.45
-5.20 -0.67 1.45
-5.45 -0.67 1.43
-5.36 -0.65 1.43
-5.51 -0.62 1.42
-5.26 -0.58 1.44
-5.35 -0.57 1.43
-5.69 -0.57 1.40
-2.17 -0.32 1.73
-2.39 -0.25 1.71
-8.82 -0.54 1.11
-8.64 -0.50 1.13
-6.06 -0.37 1.37
-6.17 -0.35 1.36
-5.90 -0.32 1.38
-5.90 -0.30 1.38
-5.92 -0.28 1.38
-5.77 -0.26 1.39
-5.87 -0.24 1.38
-5.96 -0.22 1.38
-5.79 -0.18 1.39
-15.40 -0.26 0.71
-15.37 -0.22 0.71
-15.21 -0.18 0.72
-15.24 -0.14 0.72
-7.66 -0.06 1.43
-7.78 -0.04 1.42
-7.79 -0.02 1.42
-5.83 0.03 1.33
-7.41 0.15 1.18
-11.40 0.24 0.78
-15.84 0.36 0.34
-7.90 0.23 1.13
-9.17 0.23 1.23
-9.29 0.25 1.22
-9.40 0.28 1.21
-9.24 0.30 1.22
-9.28 0.32 1.22
-12.21 0.45 0.92
-9.64 0.38 1.18
-9.55 0.40 1.19
-10.01 0.47 1.14
-12.67 0.62 0.88
-12.73 0.72 0.87
-12.70 0.74 0.87
-12.86 0.79 0.85
-13.12 0.83 0.83
-13.12 0.86 0.83
-13.18 0.90 0.82
-13.25 0.94 0.81
-13.04 0.96 0.83
-12.96 1.01 0.84
-13.25 1.10 0.81
-13.30 1.14 0.80
-13.20 1.16 0.81
-13.58 1.26 0.77
-13.95 1.33 0.74
-4.17 -1.50 1.50
-6.22 -1.22 1.30
-6.51 -1.24 1.27
-6.68 -1.22 1.26
-4.53 -0.92 1.47
-10.27 -1.53 0.90
-9.88 -1.40 0.94
-4.84 -0.76 1.44
-7.51 -1.01 1.17
-4.64 -0.71 1.46
-4.72 -0.70 1.45
-1.53 -0.39 1.77
-5.79 -0.76 1.34
-1.51 -0.37 1.77
-7.43 -0.83 1.18
-7.45 -0.81 1.18
-5.77 -0.60 1.35
-8.62 -0.74 1.06
-8.99 -0.71 1.03
-2.19 -0.29 1.70
-1.75 -0.22 1.74
-7.40 -0.45 1.18
-7.83 -0.44 1.14
-7.56 -0.41 1.17
-5.98 -0.32 1.32
-7.94 -0.37 1.13
-6.56 -0.30 1.27
-6.31 -0.27 1.29
-6.10 -0.24 1.31
-6.15 -0.23 1.31
-6.05 -0.20 1.31
-6.30 -0.19 1.29
-5.89 -0.16 1.33
-6.16 -0.14 1.30
-6.51 -0.13 1.27
-15.14 -0.12 0.41
-8.72 0.00 1.22
-7.35 0.02 1.36
-8.36 0.04 1.26
-8.45 0.06 1.25
-8.40 0.08 1.25
-7.77 0.10 1.32
-8.58 0.13 1.23
-8.87 0.15 1.20
-9.06 0.18 1.18
-8.89 0.20 1.20
-8.98 0.22 1.19
-9.25 0.25 1.16
-9.28 0.28 1.16
-12.23 0.39 0.84
-11.92 0.41 0.87
-9.43 0.35 1.14
-9.27 0.37 1.16
-9.39 0.39 1.14
-9.42 0.42 1.14
-9.44 0.44 1.14
-9.58 0.47 1.12
-9.59 0.50 1.12
-9.49 0.52 1.13
-9.71 0.55 1.11
-9.66 0.57 1.11
-12.55 0.77 0.80
-12.62 0.80 0.79
-12.70 0.87 0.78
-12.83 0.94 0.77
-13.02 1.02 0.75
-13.23 1.07 0.72
-7.69 0.75 1.32
-12.93 1.43 0.75
-4.62 0.56 1.64
-5.14 0.63 1.59
-4.23 -1.22 1.45
-4.07 -1.17 1.47
-4.21 -1.16 1.45
-4.05 -1.07 1.47
-2.70 -0.79 1.61
-6.76 -1.37 1.18
-7.04 -1.38 1.16
-6.92 -1.35 1.17
-6.48 -1.26 1.21
-6.86 -1.29 1.17
-7.01 -1.29 1.16
-7.27 -1.30 1.13
-6.71 -1.20 1.19
-6.49 -1.15 1.21
-6.77 -1.17 1.18
-6.65 -1.08 1.20
-6.49 -1.02 1.21
-4.38 -0.77 1.44
-6.19 -0.95 1.25
-6.20 -0.93 1.24
-7.52 -1.01 1.10
-6.78 -0.92 1.18
-7.22 -0.94 1.14
-4.50 -0.66 1.42
-6.78 -0.85 1.18
-4.55 -0.58 1.42
-4.73 -0.58 1.40
-5.01 -0.55 1.37
-4.51 -0.46 1.42
-6.87 -0.59 1.17
-6.98 -0.57 1.16
-7.49 -0.55 1.11
-8.32 -0.57 1.02
-7.38 -0.50 1.12
-7.31 -0.47 1.12
-2.32 -0.22 1.65
-7.42 -0.43 1.11
-7.41 -0.40 1.11
-7.32 -0.38 1.12
-6.66 -0.25 1.44
-7.05 -0.24 1.40
-6.87 -0.22 1.42
-7.23 -0.21 1.38
-6.99 -0.19 1.41
-7.19 -0.18 1.38
-7.05 -0.16 1.40
-7.31 -0.14 1.37
-7.30 -0.13 1.37
-8.43 -0.12 1.25
-7.37 -0.09 1.36
-15.30 -0.15 0.52
-7.65 -0.06 1.33
-8.79 -0.04 1.21
-8.79 -0.02 1.21
-11.34 0.31 0.60
-11.49 0.34 0.58
-11.22 0.37 0.61
-11.10 0.43 0.63
-11.15 0.47 0.62
-11.49 0.61 0.58
-12.45 0.58 0.73
-12.10 0.62 0.77
-12.00 0.64 0.78
-12.44 0.70 0.73
-12.58 0.77 0.72
-12.44 0.79 0.73
-2.79 0.44 1.82
-0.39 -0.80 1.84
-7.13 -1.16 1.08
-7.15 -1.12 1.08
-7.37 -1.07 1.06
-1.01 -0.36 1.77
-6.70 -0.89 1.13
-7.43 -0.33 1.05
-6.00 -0.12 1.21
-15.08 0.00 0.33
-11.94 0.32 0.71
-12.18 0.36 0.68
-9.31 0.30 1.02
-12.11 0.41 0.69
-11.92 0.44 0.71
-11.92 0.47 0.71
-11.62 0.57 0.74
-3.61 0.22 1.71
-12.15 0.71 0.68
-12.11 0.74 0.68
-12.81 0.88 0.59
-12.22 0.87 0.67
-12.72 0.96 0.60
-13.08 1.22 0.56
-12.88 1.23 0.58
-7.49 -1.45 0.97
-7.22 -1.18 1.00
-7.20 -1.15 1.00
-7.48 -1.16 0.97
-7.21 -1.08 1.00
-7.19 -1.03 1.01
-6.74 -0.80 1.06
-7.22 -0.63 1.00
-6.78 -0.58 1.05
-9.84 -0.58 0.97
-10.08 -0.57 0.94
-9.77 -0.48 0.98
-15.24 -0.29 0.32
-15.25 -0.15 0.32
-15.17 -0.11 0.32
-6.16 0.00 1.07
-8.91 0.04 1.01
-8.80 0.06 1.03
-9.14 0.11 0.98
-8.95 0.15 1.01
-9.85 0.19 0.89
-9.44 0.23 0.94
-9.42 0.25 0.95
-9.41 0.28 0.95
-9.23 0.29 0.97
-11.79 0.40 0.64
-9.34 0.34 0.95
-9.50 0.37 0.93
-11.99 0.50 0.62
-12.15 0.53 0.60
-12.96 0.60 0.49
-9.15 0.45 0.98
-9.57 0.52 0.92
-9.40 0.53 0.94
-9.63 0.57 0.91
-9.54 0.59 0.92
-9.41 0.60 0.94
-12.08 0.80 0.60
-11.86 0.81 0.63
-11.81 0.84 0.63
-12.37 0.91 0.56
-12.82 0.97 0.50
-12.88 1.01 0.49
-12.75 1.03 0.51
-12.66 1.11 0.52
-12.66 1.14 0.52
-12.49 1.16 0.54
-12.60 1.20 0.53
-12.84 1.25 0.49
-12.98 1.36 0.48
-13.07 1.41 0.46
-12.62 1.42 0.52
-3.24 0.83 1.70
-1.77 -0.79 1.62
-6.84 -1.63 0.98
-7.62 -1.59 0.88
-7.74 -1.59 0.87
-7.64 -1.54 0.88
-7.80 -1.49 0.86
-7.75 -1.46 0.87
-7.44 -1.39 0.91
-6.37 -1.22 1.04
-6.28 -1.19 1.05
-6.61 -1.21 1.01
-6.82 -1.22 0.99
-6.80 -1.19 0.99
-6.95 -1.19 0.97
-7.20 -1.19 0.94
-7.20 -1.17 0.94
-1.30 -0.46 1.68
-7.05 -1.11 0.96
-7.19 -1.10 0.94
-7.20 -1.08 0.94
-7.17 -1.05 0.94
-7.03 -1.01 0.96
-4.82 -0.76 1.24
-6.93 -0.96 0.97
-6.63 -0.90 1.01
-6.73 -0.89 1.00
-6.73 -0.87 1.00
-7.10 -0.86 0.95
-6.59 -0.79 1.02
-6.41 -0.75 1.04
-6.34 -0.72 1.05
-6.48 -0.71 1.03
-6.35 -0.68 1.05
-6.57 -0.68 1.02
-6.63 -0.66 1.01
-6.80 -0.65 0.99
-6.76 -0.62 0.99
-6.93 -0.61 0.97
-6.83 -0.58 0.99
-6.66 -0.55 1.01
-6.75 -0.53 1.00
-6.58 -0.50 1.02
-7.14 -0.51 0.95
-6.93 -0.48 0.97
-7.10 -0.46 0.95
-7.06 -0.44 0.96
-6.92 -0.41 0.97
-7.04 -0.39 0.96
-6.66 -0.35 1.01
-6.83 -0.34 0.98
-6.41 -0.30 1.04
-6.54 -0.28 1.02
-6.97 -0.27 0.97
-6.74 -0.24 0.99
-5.95 -0.20 1.09
-6.48 -0.17 1.03
-6.45 -0.15 1.03
-5.94 -0.12 1.09
-6.40 -0.10 1.04
-5.95 -0.08 1.09
-6.48 -0.04 1.03
-3.19 -0.01 1.44
-9.00 0.02 0.93
-8.99 0.04 0.93
-9.05 0.07 0.93
-9.17 0.11 0.91
-9.48 0.14 0.87
-9.20 0.16 0.90
-9.22 0.20 0.90
-9.27 0.23 0.89
-8.88 0.24 0.95
-9.15 0.29 0.91
-9.66 0.33 0.84
-9.25 0.34 0.90
-9.18 0.38 0.90
-9.51 0.42 0.86
-9.20 0.43 0.90
-9.41 0.49 0.87
-9.69 0.52 0.83
-9.55 0.54 0.85
-9.43 0.58 0.87
-9.47 0.60 0.86
-9.72 0.64 0.83
-12.22 0.83 0.49
-12.27 0.87 0.48
-12.08 0.88 0.51
-12.24 0.93 0.49
-7.41 0.61 1.14
-12.14 1.01 0.50
-12.58 1.14 0.44
-12.74 1.18 0.41
-12.95 1.23 0.38
-12.93 1.30 0.39
-12.78 1.31 0.40
-12.76 1.37 0.41
-13.02 1.43 0.37
-12.99 1.46 0.37
-12.86 1.48 0.39
-12.70 1.59 0.41
-4.09 0.89 1.56
-6.93 -1.65 0.90
-1.94 -0.78 1.57
-7.18 -1.62 0.87
-7.32 -1.62 0.85
-7.35 -1.60 0.84
-7.62 -1.59 0.81
-7.36 -1.53 0.84
-7.34 -1.50 0.85
-7.00 -1.40 0.89
-7.32 -1.43 0.85
-6.97 -1.35 0.90
-6.83 -1.29 0.92
-6.97 -1.28 0.90
-6.65 -1.22 0.94
-6.89 -1.20 0.91
-7.04 -1.20 0.89
-6.67 -1.09 0.94
-7.12 -1.12 0.88
-7.23 -1.10 0.86
-7.08 -1.04 0.88
-6.92 -0.98 0.90
-6.91 -0.93 0.91
-6.83 -0.90 0.92
-7.23 -0.92 0.86
-7.15 -0.86 0.87
-6.71 -0.80 0.93
-6.71 -0.78 0.93
-6.68 -0.75 0.94
-6.62 -0.70 0.94
-1.85 -0.33 1.58
-6.44 -0.65 0.97
-6.49 -0.63 0.96
-6.53 -0.61 0.96
-6.68 -0.60 0.94
-6.53 -0.57 0.96
-6.68 -0.53 0.94
-6.93 -0.52 0.90
-6.85 -0.50 0.91
-6.83 -0.47 0.92
-6.84 -0.45 0.91
-6.83 -0.43 0.91
-2.37 -0.22 1.51
-6.77 -0.36 0.92
-6.12 -0.31 1.01
-6.06 -0.29 1.02
-5.99 -0.27 1.03
-5.71 -0.24 1.06
-4.07 -0.17 1.28
-3.86 -0.15 1.31
-3.69 -0.12 1.33
-7.30 -0.11 1.16
-7.07 -0.09 1.19
-8.73 -0.06 0.97
-8.69 -0.04 0.98
-8.74 -0.02 0.97
-6.27 0.00 0.92
-6.36 0.02 0.91
-6.25 0.05 0.93
-6.11 0.07 0.94
-4.05 0.07 1.23
-3.87 0.08 1.26
-4.76 0.11 1.13
-3.87 0.11 1.26
-3.78 0.12 1.27
-4.09 0.15 1.23
-4.16 0.16 1.22
-9.19 0.25 0.84
-11.94 0.35 0.45
-12.05 0.38 0.43
-9.27 0.32 0.83
-12.00 0.44 0.44
-11.65 0.45 0.49
-12.39 0.51 0.38
-8.94 0.39 0.87
-11.26 0.52 0.54
-11.43 0.56 0.52
-11.59 0.59 0.49
-11.42 0.61 0.52
-12.26 0.69 0.40
-11.82 0.69 0.46
-9.56 0.59 0.78
-12.14 0.77 0.41
-12.08 0.79 0.42
-9.74 0.67 0.75
-12.22 0.86 0.40
-11.77 0.86 0.46
-12.05 0.94 0.42
-12.05 0.97 0.42
-6.57 0.56 1.20
-12.30 1.05 0.38
-12.47 1.09 0.36
-12.88 1.16 0.30
-12.65 1.52 0.32
-6.92 -1.60 0.83
-7.10 -1.61 0.81
-7.20 -1.60 0.79
-7.28 -1.59 0.78
-7.38 -1.58 0.77
-7.33 -1.55 0.78
-7.13 -1.49 0.80
-7.04 -1.45 0.82
-7.29 -1.47 0.78
-7.03 -1.41 0.82
-6.98 -1.38 0.83
-6.96 -1.35 0.83
-6.86 -1.31 0.84
-7.12 -1.33 0.81
-6.93 -1.28 0.83
-6.78 -1.23 0.85
-6.66 -1.20 0.87
-6.72 -1.18 0.86
-6.53 -1.14 0.89
-6.62 -1.12 0.88
-6.88 -1.13 0.84
-6.85 -1.11 0.85
-6.69 -1.07 0.87
-7.00 -1.08 0.82
-6.69 -1.02 0.87
-6.69 -1.00 0.87
-6.88 -1.00 0.84
-7.19 -1.00 0.80
-7.01 -0.96 0.82
-6.91 -0.93 0.84
-7.21 -0.94 0.80
-6.92 -0.89 0.84
-6.87 -0.86 0.84
-0.43 -0.27 1.75
-6.76 -0.80 0.86
-6.71 -0.78 0.87
-6.74 -0.76 0.86
-6.80 -0.74 0.85
-6.86 -0.72 0.84
-6.67 -0.69 0.87
-6.33 -0.64 0.92
-6.39 -0.62 0.91
-6.41 -0.60 0.91
-6.69 -0.60 0.87
-6.71 -0.58 0.87
-6.63 -0.55 0.88
-6.88 -0.54 0.84
-6.70 -0.51 0.87
-6.71 -0.49 0.87
-6.74 -0.47 0.86
-6.73 -0.44 0.86
-6.66 -0.42 0.87
-6.56 -0.39 0.89
-5.81 -0.32 0.99
-5.89 -0.30 0.98
-5.98 -0.29 0.97
-5.97 -0.24 0.97
-5.69 -0.22 1.01
-5.75 -0.20 1.00
-5.69 -0.18 1.01
-3.80 -0.12 1.27
-6.19 -0.14 0.94
-5.90 -0.12 0.98
-6.17 -0.10 0.94
-5.82 -0.08 0.99
-3.62 -0.03 1.29
-6.41 -0.02 0.90
-8.35 -0.00 0.89
-8.25 0.02 0.91
-8.37 0.04 0.89
-8.15 0.06 0.92
-8.47 0.10 0.87
-8.71 0.13 0.84
-8.85 0.15 0.81
-9.01 0.18 0.79
-9.01 0.20 0.79
-9.31 0.23 0.74
-9.16 0.25 0.77
-9.08 0.27 0.78
-9.20 0.29 0.76
-9.23 0.32 0.75
-11.36 0.41 0.44
-11.21 0.44 0.46
-11.22 0.46 0.46
-10.94 0.48 0.50
-9.13 0.43 0.77
-11.02 0.54 0.48
-10.96 0.56 0.49
-11.05 0.59 0.48
-11.37 0.64 0.43
-11.18 0.65 0.46
-11.45 0.70 0.42
-11.74 0.74 0.37
-4.23 0.29 1.50
-11.70 0.80 0.38
-11.50 0.81 0.41
-11.83 0.87 0.36
-9.37 0.71 0.73
-7.38 0.59 1.02
-7.01 0.58 1.08
-12.17 1.01 0.31
-12.18 1.04 0.30
-11.98 1.05 0.33
-4.80 0.55 1.41
-4.78 0.56 1.41
-9.38 1.42 0.70
-9.30 1.46 0.71
-9.32 1.48 0.71
-8.99 1.52 0.76
-2.29 -0.84 1.45
-7.22 -1.65 0.71
-7.32 -1.64 0.70
-7.32 -1.62 0.70
-7.39 -1.61 0.69
-7.22 -1.56 0.71
-6.80 -1.47 0.77
-6.68 -1.43 0.79
-6.59 -1.39 0.81
-6.75 -1.39 0.78
-6.79 -1.38 0.78
-6.81 -1.36 0.77
-6.69 -1.32 0.79
-6.79 -1.31 0.78
-6.73 -1.28 0.79
-6.75 -1.26 0.78
-6.84 -1.24 0.77
-6.50 -1.18 0.82
-6.61 -1.17 0.80
-6.74 -1.17 0.78
-6.69 -1.14 0.79
-6.63 -1.11 0.80
-6.75 -1.10 0.78
-6.44 -1.04 0.83
-6.66 -1.04 0.80
-6.64 -1.02 0.80
-6.74 -1.01 0.79
-6.65 -0.98 0.80
-6.62 -0.95 0.80
-6.40 -0.91 0.84
-6.70 -0.91 0.79
-6.63 -0.88 0.80
-6.64 -0.86 0.80
-6.53 -0.83 0.82
-6.82 -0.83 0.77
-6.73 -0.80 0.79
-6.89 -0.79 0.76
-6.84 -0.77 0.77
-8.31 -0.86 0.55
-6.93 -0.73 0.76
-6.24 -0.66 0.86
-6.28 -0.64 0.85
-6.31 -0.62 0.85
-6.12 -0.58 0.88
-6.35 -0.58 0.84
-6.45 -0.56 0.83
-6.58 -0.55 0.81
-6.65 -0.53 0.80
-6.85 -0.52 0.77
-6.86 -0.50 0.77
-6.92 -0.48 0.76
-6.94 -0.46 0.76
-7.04 -0.44 0.74
-6.85 -0.41 0.77
-7.05 -0.39 0.74
-4.31 -0.27 1.14
-6.81 -0.25 1.12
-7.15 -0.25 1.07
-6.93 -0.22 1.11
-6.92 -0.21 1.11
-7.02 -0.19 1.09
-6.74 -0.17 1.13
-6.65 -0.15 1.15
-6.74 -0.14 1.13
-6.90 -0.12 1.11
-6.87 -0.10 1.11
-6.63 -0.08 1.15
-6.75 -0.07 1.13
-6.97 -0.05 1.10
-7.03 -0.04 1.09
-8.36 -0.02 0.89
-9.53 0.21 0.28
-8.51 0.38 0.44
-4.19 0.26 1.11
-11.24 0.52 0.37
-9.32 0.48 0.67
-11.50 0.64 0.33
-11.29 0.66 0.36
-11.14 0.68 0.39
-11.41 0.72 0.34
-11.45 0.75 0.34
-7.58 0.83 0.93
-3.61 0.44 1.56
-9.48 1.50 0.62
-3.53 1.19 1.53
-7.41 -1.63 0.61
-7.63 -1.64 0.58
-7.08 -1.48 0.67
-6.68 -1.40 0.73
-6.88 -1.41 0.70
-6.96 -1.40 0.69
-6.83 -1.35 0.71
-6.84 -1.33 0.71
-6.65 -1.28 0.73
-6.72 -1.27 0.72
-6.88 -1.27 0.70
-6.80 -1.24 0.71
-6.84 -1.22 0.71
-6.89 -1.20 0.70
-6.77 -1.17 0.72
-6.86 -1.15 0.70
-6.56 -1.10 0.75
-6.73 -1.09 0.72
-6.76 -1.07 0.72
-6.70 -1.04 0.73
-6.64 -1.02 0.74
-6.91 -1.02 0.70
-6.79 -0.99 0.71
-6.56 -0.94 0.75
-6.61 -0.92 0.74
-6.86 -0.93 0.70
-7.01 -0.92 0.68
-6.82 -0.85 0.71
-7.08 -0.85 0.67
-6.97 -0.82 0.69
-6.77 -0.78 0.72
-6.61 -0.75 0.74
-6.47 -0.71 0.76
-6.58 -0.70 0.75
-6.45 -0.67 0.77
-6.80 -0.67 0.71
-7.18 -0.68 0.65
-6.24 -0.53 0.80
-6.83 -0.54 0.71
-7.08 -0.51 0.67
-7.12 -0.46 0.66
-7.04 -0.44 0.67
-7.22 -0.40 0.65
-6.10 -0.14 0.82
-4.26 -0.00 1.43
-7.80 0.04 0.85
-8.54 0.08 0.72
-8.79 0.11 0.68
-8.52 0.12 0.73
-11.00 0.21 0.32
-8.82 0.19 0.68
-8.70 0.21 0.70
-9.07 0.24 0.64
-9.16 0.27 0.62
-7.47 0.26 0.90
-10.59 0.39 0.38
-8.77 0.37 0.68
-10.88 0.48 0.34
-8.75 0.45 0.68
-9.24 0.52 0.60
-9.06 0.56 0.63
-9.32 0.59 0.59
-6.58 0.49 1.04
-9.48 0.82 0.56
-9.77 0.89 0.51
-9.33 1.32 0.57
-4.40 -1.44 1.02
-1.77 -0.85 1.45
-5.97 -1.57 0.76
-5.95 -1.51 0.76
-7.52 -1.68 0.51
-7.48 -1.65 0.51
-7.29 -1.55 0.55
-8.17 -1.63 0.40
-6.49 -1.36 0.68
-6.16 -1.29 0.73
-6.61 -1.33 0.66
-6.83 -1.34 0.62
-6.68 -1.29 0.65
-6.66 -1.27 0.65
-6.91 -1.28 0.61
-6.53 -1.21 0.67
-6.79 -1.22 0.63
-6.77 -1.19 0.63
-6.63 -1.15 0.66
-6.39 -1.10 0.70
-6.37 -1.08 0.70
-6.50 -1.07 0.68
-6.26 -1.02 0.72
-6.03 -0.97 0.76
-6.26 -0.98 0.72
-5.94 -0.92 0.77
-8.32 -1.15 0.38
-6.07 -0.90 0.75
-6.18 -0.89 0.73
-6.26 -0.87 0.72
-6.32 -0.86 0.71
-6.65 -0.87 0.66
-6.73 -0.85 0.64
-6.44 -0.80 0.69
-6.68 -0.80 0.65
-6.55 -0.77 0.67
-6.56 -0.75 0.67
-6.63 -0.73 0.66
-6.51 -0.70 0.68
-6.44 -0.67 0.69
-6.80 -0.68 0.63
-6.74 -0.65 0.64
-6.82 -0.63 0.63
-6.64 -0.60 0.66
-6.45 -0.56 0.69
-6.52 -0.55 0.68
-6.50 -0.52 0.68
-7.25 -0.42 0.94
-7.20 -0.39 0.95
-7.73 -0.40 0.86
-7.28 -0.36 0.94
-7.40 -0.35 0.92
-7.09 -0.32 0.97
-7.25 -0.31 0.94
-6.87 -0.27 1.00
-6.70 -0.25 1.03
-6.72 -0.24 1.03
-6.76 -0.22 1.02
-6.94 -0.21 0.99
-6.83 -0.19 1.01
-6.82 -0.17 1.01
-6.83 -0.15 1.01
-6.81 -0.14 1.01
-7.47 -0.13 0.90
-7.82 -0.12 0.85
-7.95 -0.10 0.82
-8.01 -0.08 0.81
-4.21 -0.02 1.44
-6.82 -0.02 1.01
-3.89 0.00 1.05
-3.87 0.02 1.05
-4.30 0.03 1.39
-4.12 0.04 1.42
-4.42 0.07 1.37
-8.52 0.14 0.66
-8.80 0.17 0.61
-4.27 0.10 1.39
-5.04 0.20 1.26
-4.79 0.28 1.30
-9.46 0.58 0.49
-9.52 0.63 0.48
-7.02 0.50 0.91
-9.80 0.77 0.43
-9.41 0.76 0.49
-9.34 0.85 0.50
-2.94 0.30 1.61
-9.78 0.94 0.43
-9.48 0.93 0.48
-5.37 0.61 1.19
-5.40 0.63 1.18
-5.38 0.67 1.18
-4.30 0.60 1.37
-1.58 -0.83 1.45
-1.81 -0.81 1.41
-6.58 -1.63 0.59
-5.71 -1.46 0.74
-5.62 -1.40 0.75
-5.75 -1.38 0.73
-5.73 -1.36 0.74
-5.76 -1.35 0.73
-7.21 -1.56 0.48
-2.45 -0.79 1.30
-7.69 -1.56 0.40
-7.17 -1.43 0.49
-6.57 -1.32 0.59
-7.23 -1.39 0.48
-6.86 -1.32 0.54
-6.70 -1.27 0.57
-1.54 -0.55 1.46
-1.44 -0.52 1.48
-1.86 -0.56 1.41
-1.59 -0.52 1.45
-6.07 -1.04 0.68
-6.08 -1.02 0.68
-3.42 -0.68 1.14
-3.28 -0.62 1.16
-3.32 -0.61 1.15
-6.19 -0.89 0.66
-3.43 -0.60 1.14
-3.35 -0.56 1.15
-6.52 -0.81 0.60
-6.56 -0.79 0.60
-3.57 -0.52 1.11
-6.62 -0.75 0.59
-6.47 -0.72 0.61
-6.43 -0.67 0.62
-6.43 -0.65 0.62
-6.49 -0.61 0.61
-6.58 -0.59 0.59
-6.42 -0.56 0.62
-6.21 -0.53 0.66
-6.02 -0.50 0.69
-6.06 -0.48 0.68
-5.86 -0.43 0.72
-5.44 -0.39 0.79
-4.02 -0.30 1.03
-6.12 -0.38 0.67
-5.63 -0.34 0.76
-5.87 -0.32 0.72
-5.64 -0.30 0.75
-5.34 -0.25 0.81
-3.71 -0.12 1.08
-3.84 -0.11 1.06
-4.02 -0.08 1.03
-3.91 -0.06 1.05
-3.96 -0.03 1.04
-4.38 -0.02 0.97
-7.39 -0.00 0.79
-8.00 0.02 0.68
-8.25 0.04 0.64
-7.25 0.05 0.82
-7.42 0.07 0.79
-5.00 0.06 1.22
-8.37 0.12 0.61
-6.95 0.12 0.87
-5.05 0.10 1.21
-5.14 0.11 1.20
-9.05 0.22 0.49
-7.02 0.19 0.86
-7.50 0.22 0.77
-7.37 0.23 0.79
-5.35 0.19 1.16
-5.30 0.20 1.17
-5.25 0.21 1.17
-5.46 0.23 1.14
-5.31 0.28 1.16
-5.35 0.29 1.15
-5.69 0.33 1.09
-5.18 0.31 1.18
-5.31 0.33 1.16
-7.03 0.45 0.85
-6.52 0.44 0.94
-6.48 0.45 0.95
-6.92 0.50 0.87
-5.90 0.44 1.05
-5.96 0.46 1.04
-5.86 0.47 1.06
-5.89 0.49 1.05
-5.87 0.50 1.06
-5.90 0.52 1.05
-6.00 0.54 1.03
-6.88 0.63 0.87
-6.24 0.59 0.98
-5.98 0.58 1.03
-5.85 0.59 1.05
-5.95 0.61 1.04
-5.94 0.63 1.04
-6.24 0.67 0.98
-5.99 0.66 1.03
-5.83 0.66 1.06
-5.77 0.67 1.07
-5.83 0.69 1.05
-5.88 0.71 1.05
-5.88 0.73 1.04
-5.68 0.72 1.08
-5.82 0.75 1.05
-5.58 0.73 1.10
-5.60 0.75 1.09
-5.62 0.77 1.09
-5.56 0.77 1.10
-5.50 0.78 1.11
-5.48 0.79 1.11
-5.43 0.80 1.12
-5.41 0.81 1.12
-5.32 0.81 1.14
-5.04 0.89 1.19
-5.16 1.34 1.14
-4.97 1.38 1.17
-3.36 1.30 1.45
-1.82 -1.02 1.37
-2.89 -1.04 1.18
-3.69 -1.17 1.03
-2.83 -1.00 1.19
-3.35 -1.08 1.10
-5.74 -1.49 0.66
-5.72 -1.46 0.67
-5.51 -1.41 0.71
-5.72 -1.42 0.67
-5.48 -1.36 0.71
-5.67 -1.37 0.68
-3.57 -1.01 1.06
-3.28 -0.95 1.11
-2.76 -0.86 1.20
-2.73 -0.84 1.21
-7.55 -1.56 0.34
-5.84 -1.28 0.65
-2.92 -0.83 1.17
-6.28 -1.30 0.57
-6.75 -1.33 0.48
-3.50 -0.85 1.07
-6.42 -1.24 0.55
-6.65 -1.24 0.50
-6.71 -1.23 0.49
-6.42 -1.17 0.55
-6.59 -1.17 0.52
-3.63 -0.78 1.05
-3.46 -0.75 1.08
-5.61 -0.99 0.69
-5.67 -0.97 0.68
-5.43 -0.93 0.72
-5.73 -0.94 0.67
-5.46 -0.89 0.72
-3.88 -0.70 1.00
-5.13 -0.82 0.78
-5.01 -0.79 0.80
-6.01 -0.87 0.62
-6.43 -0.89 0.54
-6.61 -0.88 0.51
-6.61 -0.86 0.51
-6.65 -0.84 0.51
-6.43 -0.80 0.55
-6.44 -0.78 0.54
-6.51 -0.76 0.53
-6.44 -0.74 0.54
-6.50 -0.72 0.53
-3.68 -0.48 1.04
-6.33 -0.66 0.56
-3.61 -0.45 1.05
-6.41 -0.63 0.55
-6.54 -0.61 0.53
-6.31 -0.58 0.57
-3.87 -0.41 1.01
-6.07 -0.52 0.61
-6.05 -0.50 0.61
-5.91 -0.47 0.64
-3.96 -0.35 0.99
-5.80 -0.42 0.66
-5.74 -0.40 0.67
-5.80 -0.38 0.66
-5.66 -0.36 0.68
-5.65 -0.34 0.68
-5.45 -0.31 0.72
-5.56 -0.29 0.70
-5.52 -0.27 0.71
-5.54 -0.25 0.70
-4.06 -0.19 0.97
-5.57 -0.22 0.70
-5.54 -0.20 0.70
-5.34 -0.17 0.74
-4.72 -0.14 0.85
-7.32 -0.13 0.81
-7.24 -0.11 0.82
-7.00 -0.09 0.86
-7.25 -0.07 0.82
-6.93 -0.05 0.88
-6.97 -0.04 0.87
-7.80 -0.02 0.72
-3.99 -0.00 0.92
-4.22 0.02 0.88
-3.95 0.03 0.93
-4.27 0.05 0.87
-4.07 0.06 0.91
-4.21 0.08 0.88
-3.91 0.09 0.94
-3.80 0.11 0.96
-3.57 0.12 1.00
-3.85 0.14 0.95
-3.93 0.16 0.93
-4.93 0.13 1.19
-4.82 0.16 1.21
-4.91 0.17 1.19
-5.09 0.22 1.16
-3.90 0.21 1.38
-3.60 0.20 1.44
-4.59 0.27 1.25
-4.24 0.26 1.32
-4.34 0.29 1.30
-5.46 0.40 1.08
-5.56 0.42 1.06
-5.57 0.43 1.06
-5.59 0.45 1.06
-2.77 0.24 1.59
-4.87 0.43 1.19
-5.78 0.52 1.02
-5.89 0.56 1.00
-5.83 0.57 1.01
-5.78 0.58 1.02
-5.71 0.59 1.03
-5.91 0.62 0.99
-5.65 0.61 1.04
-5.44 0.62 1.08
-5.10 0.59 1.14
-4.71 0.62 1.21
-3.54 0.55 1.44
-5.08 0.86 1.14
-3.51 1.29 1.39
-1.06 -1.08 1.47
-1.90 -0.97 1.32
-5.92 -1.66 0.55
-2.29 -0.95 1.25
-5.82 -1.60 0.57
-6.14 -1.64 0.51
-6.25 -1.64 0.49
-6.28 -1.62 0.49
-5.96 -1.55 0.55
-5.75 -1.49 0.59
-5.68 -1.45 0.60
-1.63 -0.74 1.37
-1.87 -0.77 1.33
-2.09 -0.79 1.29
-2.02 -0.77 1.30
-5.44 -1.31 0.65
-5.57 -1.32 0.62
-5.78 -1.33 0.59
-2.31 -0.77 1.24
-5.64 -1.27 0.61
-2.05 -0.66 1.29
-1.56 -0.58 1.39
-1.73 -0.60 1.36
-6.70 -1.25 0.41
-6.68 -1.22 0.42
-6.51 -1.18 0.45
-1.72 -0.55 1.36
-2.36 -0.62 1.24
-1.82 -0.54 1.34
-1.67 -0.52 1.37
-5.18 -0.92 0.70
-5.24 -0.90 0.69
-5.42 -0.90 0.66
-3.81 -0.71 0.96
-5.30 -0.85 0.68
-1.72 -0.46 1.36
-1.53 -0.43 1.39
-4.86 -0.73 0.76
-3.18 -0.56 1.08
-6.72 -0.87 0.41
-1.91 -0.41 1.32
-1.62 -0.38 1.37
-1.47 -0.36 1.40
-1.59 -0.36 1.38
-3.00 -0.46 1.12
-1.77 -0.35 1.35
-6.98 -0.73 0.36
-6.51 -0.68 0.45
-3.20 -0.42 1.08
-6.65 -0.64 0.43
-5.57 -0.55 0.63
-3.49 -0.40 1.02
-3.28 -0.37 1.06
-3.24 -0.35 1.07
-2.77 -0.31 1.16
-3.13 -0.32 1.09
-5.92 -0.45 0.56
-5.90 -0.43 0.57
-5.88 -0.41 0.57
-5.70 -0.38 0.61
-5.61 -0.35 0.62
-5.71 -0.34 0.60
-5.63 -0.32 0.62
-5.36 -0.29 0.67
-5.40 -0.27 0.66
-5.44 -0.25 0.65
-5.28 -0.21 0.68
-4.57 -0.17 0.82
-3.61 -0.13 1.00
-3.45 -0.12 1.03
-3.98 -0.11 0.93
-3.53 -0.09 1.01
-5.51 -0.10 0.64
-3.48 -0.06 1.02
-3.76 -0.05 0.97
-3.72 -0.03 0.97
-4.02 -0.02 0.92
-7.04 -0.00 0.72
-7.18 0.01 0.70
-7.21 0.03 0.69
-6.96 0.05 0.74
-6.80 0.06 0.77
-6.77 0.08 0.78
-6.91 0.10 0.75
-6.95 0.12 0.74
-6.81 0.13 0.77
-6.65 0.15 0.80
-5.20 0.13 1.09
-6.83 0.18 0.76
-7.00 0.20 0.73
-5.12 0.17 1.10
-5.07 0.18 1.11
-5.22 0.19 1.08
-5.06 0.20 1.11
-5.17 0.22 1.09
-5.25 0.24 1.07
-7.38 0.34 0.65
-5.08 0.25 1.11
-4.94 0.26 1.13
-5.37 0.30 1.05
-5.33 0.31 1.06
-5.35 0.32 1.05
-5.48 0.34 1.03
-5.45 0.36 1.03
-5.48 0.37 1.03
-5.78 0.40 0.96
-5.82 0.42 0.96
-5.49 0.41 1.02
-5.71 0.44 0.98
-5.57 0.45 1.00
-5.67 0.47 0.98
-5.64 0.48 0.99
-5.69 0.50 0.98
-5.60 0.51 1.00
-5.64 0.52 0.99
-5.82 0.55 0.95
-5.73 0.56 0.97
-5.82 0.58 0.95
-6.01 0.62 0.91
-5.70 0.60 0.97
-5.80 0.63 0.95
-5.91 0.65 0.93
-5.75 0.65 0.96
-5.63 0.65 0.99
-5.77 0.68 0.96
-5.83 0.71 0.94
-5.91 0.73 0.93
-8.23 1.02 0.46
-7.81 0.99 0.55
-5.76 0.77 0.95
-5.17 0.72 1.07
-5.27 0.75 1.05
-5.17 0.75 1.07
-5.36 0.79 1.03
-5.46 0.82 1.01
-5.66 0.86 0.97
-5.76 0.89 0.95
-5.42 0.86 1.02
-5.16 0.83 1.07
-5.07 0.83 1.09
-5.56 0.92 0.99
-5.63 1.04 0.97
-5.98 1.56 0.87
-3.03 -1.13 1.05
-5.88 -1.68 0.48
-5.91 -1.67 0.48
-2.97 -1.08 1.06
-5.73 -1.59 0.51
-6.01 -1.62 0.46
-3.22 -1.09 1.01
-3.29 -1.08 1.00
-3.30 -1.07 1.00
-6.04 -1.54 0.45
-5.51 -1.43 0.56
-5.86 -1.47 0.49
-5.87 -1.45 0.49
-2.70 -0.90 1.12
-2.50 -0.85 1.16
-5.35 -1.30 0.59
-5.32 -1.28 0.60
-5.26 -1.25 0.61
-5.30 -1.24 0.60
-3.31 -0.91 1.00
-2.65 -0.80 1.13
-3.00 -0.84 1.06
-2.30 -0.73 1.20
-2.69 -0.77 1.12
-2.82 -0.77 1.10
-2.93 -0.78 1.07
-2.73 -0.74 1.11
-2.31 -0.67 1.20
-3.10 -0.76 1.04
-2.66 -0.69 1.13
-2.80 -0.69 1.10
-2.86 -0.69 1.09
-3.30 -0.73 1.00
-3.25 -0.71 1.01
-3.85 -0.76 0.89
-3.31 -0.69 1.00
-4.89 -0.85 0.69
-5.14 -0.86 0.64
-4.88 -0.81 0.69
-3.69 -0.67 0.92
-5.21 -0.81 0.62
-5.00 -0.77 0.67
-4.77 -0.73 0.71
-3.88 -0.63 0.89
-4.13 -0.63 0.84
-3.73 -0.58 0.92
-3.72 -0.56 0.92
-3.37 -0.49 0.99
-3.55 -0.49 0.95
-3.13 -0.44 1.04
-5.85 -0.63 0.50
-3.36 -0.43 0.99
-5.70 -0.58 0.53
-5.59 -0.55 0.55
-5.78 -0.54 0.51
-5.94 -0.53 0.48
-5.84 -0.51 0.50
-5.50 -0.47 0.57
-5.38 -0.44 0.59
-5.57 -0.43 0.55
-5.76 -0.42 0.52
-3.63 -0.30 0.94
-5.47 -0.37 0.57
-5.30 -0.34 0.61
-5.38 -0.33 0.59
-5.07 -0.30 0.65
-6.96 -0.26 0.75
-7.29 -0.26 0.68
-6.98 -0.23 0.74
-7.19 -0.22 0.70
-7.01 -0.20 0.73
-7.06 -0.18 0.73
-6.97 -0.16 0.74
-7.31 -0.15 0.67
-7.93 -0.14 0.55
-6.87 -0.11 0.76
-6.86 -0.09 0.76
-7.24 -0.08 0.69
-6.89 -0.06 0.76
-6.96 -0.04 0.74
-6.75 -0.02 0.78
-3.75 -0.00 0.86
-3.76 0.01 0.86
-4.16 0.03 0.78
-3.71 0.04 0.87
-3.89 0.06 0.83
-5.40 0.11 0.52
-4.24 0.11 0.76
-5.11 0.20 0.58
-4.01 0.19 0.80
-5.36 0.25 0.52
-3.65 0.24 0.87
-3.57 0.25 0.89
-3.32 0.26 0.94
-4.90 0.32 1.10
-5.13 0.40 1.05
-5.27 0.42 1.02
-5.33 0.44 1.01
-5.30 0.45 1.02
-5.45 0.48 0.99
-5.58 0.50 0.96
-5.44 0.50 0.99
-5.29 0.50 1.02
-5.84 0.57 0.90
-5.63 0.56 0.94
-5.69 0.58 0.93
-5.56 0.61 0.96
-5.56 0.63 0.96
-5.61 0.65 0.95
-5.63 0.66 0.94
-5.58 0.67 0.95
-7.10 1.32 0.61
-1.33 -0.86 1.36
-1.90 -0.88 1.24
-5.88 -1.63 0.42
-5.80 -1.60 0.43
-1.69 -0.81 1.29
-5.60 -1.52 0.48
-5.93 -1.54 0.41
-1.82 -0.78 1.26
-6.15 -1.49 0.36
-1.59 -0.69 1.31
-1.77 -0.71 1.27
-1.96 -0.73 1.23
-1.71 -0.68 1.28
-1.64 -0.65 1.30
-1.24 -0.58 1.38
-1.41 -0.60 1.35
-1.63 -0.62 1.30
-2.10 -0.68 1.20
-1.94 -0.65 1.24
-1.25 -0.54 1.38
-1.31 -0.54 1.37
-1.76 -0.59 1.28
-5.71 -1.10 0.46
-1.86 -0.58 1.25
-1.15 -0.48 1.40
-5.42 -1.00 0.52
-2.30 -0.60 1.16
-2.03 -0.56 1.22
-2.92 -0.65 1.04
-3.14 -0.66 0.99
-3.34 -0.66 0.95
-3.35 -0.64 0.95
-3.04 -0.60 1.01
-3.40 -0.62 0.94
-3.10 -0.58 1.00
-3.01 -0.55 1.02
-1.94 -0.42 1.24
-2.22 -0.43 1.18
-2.33 -0.43 1.16
-2.31 -0.42 1.16
-2.08 -0.38 1.21
-4.90 -0.59 0.63
-2.91 -0.42 1.04
-6.14 -0.65 0.37
-5.97 -0.53 0.41
-5.81 -0.50 0.44
-3.96 -0.38 0.82
-5.53 -0.45 0.50
-5.39 -0.42 0.53
-5.75 -0.42 0.45
-5.37 -0.38 0.53
-5.41 -0.37 0.52
-1.90 -0.20 1.24
-1.82 -0.18 1.26
-1.94 -0.18 1.23
-1.88 -0.16 1.25
-1.80 -0.15 1.26
-3.18 -0.18 0.98
-1.94 -0.13 1.23
-5.39 -0.21 0.53
-3.30 -0.11 0.95
-3.42 -0.10 0.93
-4.15 -0.10 0.78
-3.87 -0.06 0.83
-4.02 -0.05 0.80
-3.68 -0.03 0.87
-3.72 -0.02 0.87
-7.33 -0.01 0.53
-7.70 0.01 0.45
-4.90 0.02 1.06
-5.32 0.08 0.96
-5.17 0.09 1.00
-4.98 0.10 1.04
-4.96 0.12 1.04
-5.11 0.14 1.01
-5.14 0.15 1.00
-5.20 0.17 0.99
-5.13 0.18 1.00
-5.18 0.19 0.99
-6.89 0.27 0.62
-6.50 0.27 0.70
-7.01 0.31 0.59
-5.36 0.25 0.95
-6.59 0.32 0.68
-5.55 0.29 0.91
-5.03 0.28 1.02
-5.13 0.30 1.00
-5.30 0.32 0.96
-5.35 0.33 0.95
-5.36 0.35 0.95
-5.68 0.38 0.88
-5.44 0.38 0.93
-5.48 0.40 0.92
-5.43 0.41 0.93
-5.54 0.43 0.91
-5.42 0.44 0.93
-5.34 0.44 0.95
-5.30 0.45 0.96
-5.49 0.48 0.91
-5.53 0.50 0.90
-5.71 0.53 0.87
-5.36 0.51 0.94
-5.23 0.52 0.97
-5.59 0.56 0.89
-5.58 0.58 0.89
-5.69 0.60 0.87
-5.75 0.62 0.85
-5.90 0.65 0.82
-6.03 0.68 0.79
-5.96 0.69 0.81
-6.05 0.72 0.78
-5.96 0.72 0.80
-5.65 0.70 0.87
-5.91 0.75 0.81
-7.30 0.93 0.51
-6.29 0.82 0.73
-6.67 0.89 0.64
-6.95 0.94 0.58
-7.32 1.01 0.50
-7.25 1.01 0.52
-6.82 0.97 0.61
-7.23 1.05 0.52
-7.34 1.08 0.49
-7.28 1.09 0.50
-7.54 1.15 0.45
-5.39 0.85 0.92
-5.35 0.86 0.92
-5.61 0.91 0.87
-7.23 1.18 0.51
-7.38 1.22 0.48
-5.80 0.99 0.82
-6.54 1.12 0.66
-6.31 1.10 0.71
-6.29 1.12 0.71
-5.57 1.01 0.87
-5.77 1.06 0.83
-6.94 1.32 0.57
-6.68 1.32 0.62
-6.80 1.38 0.59
-5.40 1.12 0.90
-5.61 1.20 0.85
-6.23 1.35 0.71
-5.95 1.33 0.77
-6.12 1.38 0.73
-5.96 1.36 0.77
-5.87 1.36 0.79
-6.01 1.40 0.76
-6.06 1.43 0.74
-6.01 1.44 0.75
-6.02 1.45 0.75
-6.05 1.48 0.74
-6.04 1.49 0.74
-5.94 1.49 0.76
-5.80 1.49 0.79
-5.86 1.55 0.78
-3.22 -1.52 0.89
-2.00 -1.19 1.16
-3.61 -1.58 0.81
-1.87 -1.10 1.19
-1.79 -1.07 1.21
-1.72 -1.04 1.23
-1.75 -1.04 1.22
-3.43 -1.42 0.85
-3.62 -1.45 0.81
-1.84 -1.03 1.20
-3.62 -1.42 0.81
-3.87 -1.46 0.76
-3.74 -1.42 0.79
-3.79 -1.41 0.78
-4.20 -1.49 0.69
-3.67 -1.34 0.80
-3.58 -1.31 0.82
-3.77 -1.33 0.78
-3.89 -1.34 0.76
-3.78 -1.30 0.78
-3.95 -1.32 0.75
-3.77 -1.27 0.78
-5.48 -1.59 0.41
-5.64 -1.60 0.38
-5.62 -1.57 0.38
-5.43 -1.52 0.42
-5.60 -1.53 0.39
-5.51 -1.49 0.41
-5.71 -1.51 0.37
-5.00 -1.36 0.52
-5.52 -1.43 0.41
-1.90 -0.78 1.19
-4.53 -1.21 0.62
-4.76 -1.19 0.57
-4.37 -1.11 0.66
-4.18 -1.07 0.70
-2.06 -0.73 1.16
-4.81 -1.13 0.56
-4.77 -1.11 0.57
-4.58 -1.06 0.62
-4.40 -1.02 0.65
-4.09 -0.96 0.72
-5.00 -1.07 0.52
-5.23 -1.08 0.48
-5.12 -1.04 0.50
-5.26 -1.03 0.47
-2.89 -0.71 0.98
-3.14 -0.72 0.93
-3.02 -0.70 0.95
-4.96 -0.91 0.54
-3.56 -0.73 0.84
-3.31 -0.69 0.89
-3.16 -0.66 0.92
-2.93 -0.62 0.97
-3.00 -0.61 0.96
-3.18 -0.62 0.92
-2.98 -0.58 0.96
-3.06 -0.58 0.94
-3.10 -0.57 0.94
-3.21 -0.56 0.91
-3.60 -0.59 0.83
-4.03 -0.61 0.74
-4.62 -0.65 0.61
-2.85 -0.48 0.99
-2.65 -0.45 1.03
-4.94 -0.62 0.54
-5.61 -0.65 0.40
-3.76 -0.49 0.79
-4.52 -0.53 0.63
-4.53 -0.52 0.63
-5.83 -0.55 0.35
-6.40 -0.39 0.74
-6.32 -0.37 0.75
-6.09 -0.34 0.80
-6.17 -0.33 0.79
-7.30 -0.37 0.54
-7.49 -0.36 0.50
-7.32 -0.33 0.54
-7.27 -0.31 0.55
-7.40 -0.30 0.52
-7.69 -0.29 0.46
-7.78 -0.27 0.44
-7.93 -0.26 0.40
-7.65 -0.23 0.47
-7.97 -0.22 0.40
-7.45 -0.19 0.51
-7.25 -0.17 0.55
-7.05 -0.14 0.59
-7.04 -0.13 0.60
-7.11 -0.11 0.58
-6.91 -0.09 0.62
-7.83 -0.08 0.42
-7.34 -0.06 0.53
-7.58 -0.04 0.48
-7.03 -0.02 0.59
-3.35 -0.00 0.82
-3.43 0.03 0.80
-4.56 0.04 1.08
-4.62 0.05 1.07
-4.52 0.08 1.09
-4.49 0.10 1.10
-4.61 0.11 1.07
-5.30 0.16 0.91
-5.10 0.16 0.96
-4.86 0.18 1.01
-4.80 0.19 1.03
-4.73 0.20 1.04
-4.58 0.21 1.07
-4.62 0.23 1.06
-4.90 0.28 1.00
-4.94 0.31 0.99
-5.24 0.34 0.92
-4.93 0.33 0.99
-5.52 0.39 0.86
-5.20 0.38 0.93
-5.45 0.42 0.87
-5.49 0.45 0.86
-5.59 0.48 0.84
-5.26 0.48 0.91
-5.23 0.50 0.92
-5.47 0.54 0.86
-5.63 0.58 0.82
-5.57 0.59 0.84
-5.70 0.63 0.81
-5.74 0.65 0.80
-5.93 0.70 0.75
-5.93 0.73 0.75
-6.09 0.76 0.71
-5.74 0.75 0.79
-6.36 0.84 0.65
-6.44 0.89 0.63
-6.25 0.88 0.67
-6.44 0.92 0.63
-6.46 0.94 0.62
-6.75 1.01 0.55
-6.58 1.01 0.59
-6.65 1.05 0.58
-6.75 1.10 0.55
-1.63 -0.85 1.21
-1.57 -0.82 1.23
-1.71 -0.84 1.19
-4.80 -1.38 0.49
-1.54 -0.75 1.23
-5.04 -1.35 0.44
-1.49 -0.71 1.25
-1.43 -0.68 1.26
-1.42 -0.67 1.26
-1.77 -0.71 1.18
-1.89 -0.72 1.16
-1.57 -0.66 1.23
-4.60 -1.11 0.54
-1.91 -0.68 1.15
-1.96 -0.67 1.14
-2.13 -0.68 1.10
-2.29 -0.69 1.07
-2.21 -0.66 1.08
-2.30 -0.66 1.06
-2.27 -0.65 1.07
-2.42 -0.66 1.04
-2.45 -0.65 1.03
-2.26 -0.60 1.07
-2.38 -0.60 1.05
-2.39 -0.59 1.04
-2.46 -0.59 1.03
-2.56 -0.59 1.01
-2.37 -0.55 1.05
-2.60 -0.55 1.00
-2.73 -0.55 0.97
-2.62 -0.52 0.99
-3.13 -0.55 0.88
-2.91 -0.51 0.93
-2.78 -0.48 0.96
-2.87 -0.48 0.94
-2.71 -0.45 0.97
-3.94 -0.52 0.69
-2.52 -0.40 1.01
-2.31 -0.36 1.06
-2.08 -0.33 1.11
-2.11 -0.31 1.10
-2.00 -0.28 1.13
-1.98 -0.27 1.13
-2.25 -0.26 1.07
-2.13 -0.24 1.10
-1.91 -0.21 1.15
-1.93 -0.19 1.15
-1.90 -0.18 1.15
-2.18 -0.16 1.09
-2.31 -0.16 1.06
-4.69 -0.19 0.52
-4.43 -0.15 0.58
-3.31 -0.04 0.83
-3.26 -0.02 0.84
-6.61 0.04 0.55
-6.70 0.06 0.53
-6.90 0.17 0.48
-6.77 0.18 0.51
-7.12 0.21 0.43
-4.73 0.28 0.99
-5.81 0.37 0.73
-6.39 0.47 0.59
-6.38 0.51 0.59
-6.08 0.50 0.67
-5.89 0.50 0.71
-5.83 0.51 0.72
-5.82 0.52 0.73
-6.00 0.55 0.68
-5.78 0.55 0.73
-6.05 0.59 0.67
-6.02 0.60 0.68
-6.25 0.64 0.62
-6.09 0.64 0.66
-6.08 0.65 0.66
-6.10 0.67 0.65
-6.21 0.70 0.63
-6.11 0.70 0.65
-6.32 0.74 0.60
-6.49 0.78 0.56
-6.53 0.80 0.55
-6.52 0.81 0.55
-6.53 0.83 0.55
-6.56 0.85 0.54
-5.50 0.74 0.79
-6.24 0.85 0.61
-6.56 0.90 0.54
-6.58 0.92 0.53
-6.41 0.92 0.57
-6.38 0.93 0.58
-6.58 0.97 0.53
-6.62 1.00 0.52
-6.65 1.02 0.51
-6.49 1.01 0.55
-6.46 1.02 0.55
-6.48 1.04 0.55
-6.60 1.08 0.52
-6.73 1.12 0.49
-6.66 1.12 0.50
-6.77 1.16 0.47
-6.42 1.12 0.56
-6.77 1.19 0.47
-4.68 -1.20 0.45
-4.81 -1.20 0.42
-4.94 -1.18 0.39
-4.80 -1.14 0.43
-4.83 -1.13 0.42
-4.82 -1.11 0.42
-4.69 -1.07 0.45
-2.88 -0.61 0.88
-3.96 -0.67 0.63
-4.04 -0.64 0.61
-4.27 -0.55 0.55
-4.38 -0.49 0.53
-4.82 -0.36 0.42
-6.76 -0.12 0.52
