# .PCD v0.7 - Point Cloud Data file format
VERSION 0.7
FIELDS x y z
SIZE 4 4 4
TYPE F F F
COUNT 1 1 1
WIDTH 2691
HEIGHT 1
VIEWPOINT 0 0 0 1 0 0 0
POINTS 2691
DATA ASCII
-11.42 0.74 2.32
-11.36 0.77 2.32
-6.73 -0.93 2.07
-10.21 1.24 1.90
-10.26 1.33 1.90
-3.40 -0.04 2.02
-6.39 -1.23 1.91
-6.31 -1.00 1.92
-15.21 -0.72 1.73
-7.67 -0.44 1.80
-7.73 -0.36 1.80
-7.69 -0.34 1.80
-7.75 -0.24 1.80
-10.34 1.13 1.75
-9.82 -1.66 1.68
-7.39 -0.52 1.78
-7.54 -0.48 1.77
-7.76 -0.39 1.76
-7.91 -0.32 1.75
-7.92 -0.30 1.75
-11.40 0.12 1.67
-11.40 0.15 1.67
-10.28 1.25 1.71
-10.01 1.42 1.72
-6.24 -0.99 1.79
-6.19 -0.92 1.79
-6.15 -0.77 1.79
-6.46 -0.78 1.78
-7.26 -0.68 1.74
-7.36 -0.59 1.74
-7.33 -0.57 1.74
-7.53 -0.55 1.73
-7.55 -0.53 1.73
-7.60 -0.48 1.73
-9.52 0.41 1.59
-9.69 -1.49 1.59
-9.73 -1.47 1.59
-7.61 -0.58 1.69
-7.57 -0.55 1.69
-7.86 -0.54 1.67
-8.07 -0.38 1.66
-11.10 0.77 1.58
-9.75 -1.53 1.53
-9.83 -1.51 1.52
-9.87 -1.43 1.52
-6.15 -0.84 1.72
-6.83 -0.83 1.68
-6.47 -0.78 1.70
-7.49 -0.70 1.65
-7.45 -0.67 1.65
-7.69 -0.66 1.63
-8.14 -0.66 1.61
-8.19 -0.64 1.61
-7.89 -0.60 1.62
-12.82 -0.30 1.50
-3.96 0.27 1.94
-4.07 0.42 1.93
-9.88 -1.55 1.47
-7.91 -0.62 1.58
-8.38 -0.60 1.55
-8.19 -0.56 1.56
-8.22 -0.46 1.56
-7.95 -0.42 1.58
-8.55 -0.37 1.54
-8.16 -0.30 1.56
-8.45 0.09 1.65
-11.60 0.29 1.46
-12.05 0.57 1.43
-11.82 1.29 1.43
-10.14 -1.58 1.40
-10.03 -1.54 1.40
-10.09 -1.51 1.40
-10.10 -1.48 1.40
-7.53 -0.82 1.55
-7.47 -0.74 1.56
-7.59 -0.73 1.55
-7.72 -0.71 1.54
-7.82 -0.69 1.54
-7.63 -0.66 1.55
-7.83 -0.65 1.54
-7.74 -0.61 1.54
-7.65 -0.58 1.55
-7.91 -0.57 1.53
-8.02 -0.55 1.52
-8.12 -0.53 1.52
-8.34 -0.52 1.50
-8.38 -0.49 1.50
-4.25 -0.29 1.76
-8.75 -0.46 1.48
-8.86 -0.43 1.47
-4.01 -0.22 1.77
-8.20 -0.31 1.51
-8.23 -0.28 1.51
-8.05 -0.25 1.52
-8.43 -0.21 1.50
-8.20 -0.18 1.51
-11.20 0.34 1.42
-12.03 1.07 1.36
-12.16 1.11 1.35
-12.02 1.13 1.36
-11.76 1.25 1.37
-12.02 1.31 1.35
-11.92 1.32 1.36
-10.60 -1.67 1.30
-10.38 -1.61 1.31
-10.47 -1.59 1.31
-9.88 -1.49 1.35
-10.75 -1.56 1.29
-10.60 -1.48 1.30
-10.47 -1.43 1.31
-7.49 -0.96 1.50
-7.61 -0.90 1.50
-7.47 -0.74 1.51
-7.51 -0.72 1.50
-7.60 -0.70 1.50
-7.84 -0.69 1.48
-7.95 -0.68 1.47
-7.70 -0.64 1.49
-8.05 -0.63 1.47
-7.80 -0.59 1.48
-7.84 -0.57 1.48
-7.96 -0.55 1.47
-7.94 -0.52 1.47
-7.76 -0.49 1.48
-8.11 -0.48 1.46
-9.00 -0.49 1.40
-8.63 -0.45 1.43
-8.88 -0.43 1.41
-8.98 -0.41 1.40
-9.04 -0.38 1.40
-8.87 -0.35 1.41
-8.23 -0.31 1.45
-7.89 -0.27 1.47
-4.10 -0.16 1.73
-8.05 -0.23 1.46
-8.01 -0.20 1.47
-8.28 0.01 1.57
-10.47 0.03 1.42
-8.72 0.14 1.54
-11.79 0.53 1.32
-11.50 0.57 1.34
-12.45 0.71 1.27
-11.88 0.79 1.31
-11.95 0.86 1.30
-11.77 0.87 1.31
-12.00 0.92 1.30
-12.11 0.96 1.29
-11.96 0.98 1.30
-12.27 1.03 1.28
-12.07 1.07 1.29
-12.06 1.10 1.29
-12.04 1.13 1.29
-11.79 1.14 1.31
-11.98 1.18 1.29
-11.96 1.21 1.29
-12.02 1.25 1.29
-11.79 1.25 1.31
-11.84 1.29 1.30
-11.78 1.31 1.31
-11.74 1.34 1.31
-11.75 1.37 1.31
-11.98 1.42 1.29
-11.16 1.41 1.35
-9.90 1.33 1.44
-9.87 1.45 1.44
-9.87 1.48 1.44
-9.77 1.49 1.44
-10.70 -1.65 1.22
-10.50 -1.60 1.24
-9.69 -1.47 1.29
-10.27 -1.51 1.25
-7.52 -1.02 1.45
-7.43 -0.98 1.46
-7.28 -0.94 1.47
-7.52 -0.92 1.45
-7.60 -0.90 1.44
-7.66 -0.88 1.44
-7.59 -0.85 1.44
-7.63 -0.83 1.44
-7.62 -0.81 1.44
-7.87 -0.80 1.42
-7.85 -0.77 1.43
-7.60 -0.73 1.44
-7.64 -0.71 1.44
-7.62 -0.68 1.44
-7.66 -0.66 1.44
-7.83 -0.65 1.43
-8.03 -0.63 1.41
-7.73 -0.59 1.43
-3.86 -0.36 1.71
-3.72 -0.33 1.72
-9.14 -0.59 1.33
-9.04 -0.55 1.34
-9.10 -0.53 1.33
-4.37 -0.30 1.67
-4.18 -0.28 1.69
-8.84 -0.43 1.35
-9.50 -0.32 1.49
-8.79 -0.27 1.54
-9.34 -0.27 1.50
-8.56 -0.22 1.55
-8.91 -0.21 1.53
-8.31 -0.18 1.57
-8.54 -0.16 1.56
-8.85 -0.14 1.53
-8.53 -0.12 1.56
-8.43 -0.03 1.56
-7.17 0.03 1.42
-9.92 0.30 1.20
-10.92 0.49 1.12
-10.83 0.52 1.13
-11.08 0.56 1.11
-12.31 0.85 1.21
-12.00 0.89 1.24
-12.32 0.94 1.21
-12.35 0.97 1.21
-12.50 1.02 1.20
-12.07 1.01 1.23
-12.26 1.15 1.21
-11.90 1.17 1.24
-12.06 1.22 1.23
-11.87 1.23 1.24
-11.93 1.26 1.23
-11.71 1.27 1.25
-11.70 1.30 1.25
-4.39 0.71 1.81
-9.94 -1.65 1.21
-10.12 -1.64 1.20
-9.75 -1.53 1.23
-7.48 -0.99 1.40
-7.41 -0.91 1.41
-7.56 -0.90 1.40
-7.53 -0.87 1.40
-7.84 -0.82 1.37
-7.74 -0.79 1.38
-7.96 -0.68 1.36
-8.08 -0.66 1.36
-8.32 -0.65 1.34
-8.62 -0.64 1.31
-8.84 -0.62 1.30
-7.93 -0.55 1.37
-8.42 -0.55 1.33
-8.92 -0.55 1.29
-9.09 -0.53 1.28
-7.86 -0.45 1.37
-8.06 -0.38 1.35
-8.18 -0.36 1.35
-7.65 -0.32 1.39
-7.83 -0.30 1.37
-7.65 -0.27 1.39
-8.46 0.05 1.46
-8.06 0.07 1.50
-9.57 0.12 1.37
-11.32 0.42 1.22
-11.43 0.48 1.22
-10.92 0.49 1.26
-11.18 0.56 1.23
-11.40 0.59 1.22
-11.78 0.73 1.18
-11.89 0.76 1.17
-12.07 0.81 1.16
-11.94 0.86 1.17
-4.10 0.32 1.82
-12.43 0.95 1.13
-12.64 1.00 1.11
-12.54 1.02 1.12
-11.96 1.00 1.16
-11.96 1.03 1.16
-12.16 1.08 1.15
-12.08 1.10 1.15
-12.01 1.13 1.16
-11.88 1.14 1.17
-12.13 1.20 1.15
-12.11 1.23 1.15
-12.16 1.26 1.14
-10.03 1.07 1.32
-11.77 1.34 1.17
-11.65 1.35 1.18
-4.26 0.55 1.80
-4.58 0.61 1.77
-4.13 0.61 1.81
-9.96 -1.62 1.14
-9.89 -1.58 1.14
-10.10 -1.58 1.13
-5.88 -1.02 1.48
-4.19 -0.72 1.62
-9.82 -1.19 1.15
-7.30 -0.90 1.36
-7.65 -0.88 1.33
-7.58 -0.85 1.33
-4.42 -0.56 1.60
-4.54 -0.55 1.59
-7.60 -0.76 1.33
-3.94 -0.47 1.64
-7.72 -0.72 1.32
-8.31 -0.73 1.27
-3.53 -0.40 1.67
-4.00 -0.41 1.63
-3.64 -0.38 1.66
-7.91 -0.60 1.31
-4.20 -0.24 1.82
-8.51 -0.45 1.46
-8.50 -0.43 1.46
-8.99 -0.41 1.42
-8.81 -0.38 1.44
-8.61 -0.35 1.45
-8.86 -0.34 1.43
-9.12 -0.33 1.41
-8.98 -0.30 1.42
-8.82 -0.28 1.44
-9.28 -0.24 1.40
-9.44 -0.22 1.39
-9.41 -0.20 1.39
-9.51 -0.18 1.38
-8.46 -0.14 1.47
-8.04 -0.11 1.50
-8.03 -0.09 1.50
-8.12 -0.05 1.49
-8.27 -0.03 1.48
-8.20 -0.01 1.49
-8.56 0.00 1.19
-8.87 0.03 1.16
-11.14 0.61 1.18
-11.88 0.79 1.11
-11.98 0.89 1.10
-11.75 0.90 1.12
-12.12 0.96 1.09
-12.23 0.99 1.08
-12.12 1.02 1.08
-11.88 1.03 1.11
-11.91 1.06 1.10
-11.71 1.10 1.12
-11.90 1.14 1.10
-11.98 1.18 1.09
-4.03 0.44 1.80
-4.42 0.54 1.76
-3.75 0.49 1.82
-3.94 0.57 1.80
-9.92 -1.62 1.07
-9.94 -1.59 1.07
-7.43 -0.91 1.29
-7.37 -0.88 1.30
-7.39 -0.86 1.30
-7.54 -0.85 1.28
-7.49 -0.82 1.29
-7.68 -0.81 1.27
-7.50 -0.77 1.29
-7.57 -0.75 1.28
-7.57 -0.70 1.28
-7.47 -0.67 1.29
-7.60 -0.66 1.28
-7.69 -0.64 1.27
-7.97 -0.60 1.24
-7.80 -0.54 1.26
-7.56 -0.51 1.28
-8.72 -0.51 1.18
-4.84 -0.28 1.52
-8.47 -0.39 1.20
-8.32 -0.36 1.21
-8.05 -0.30 1.23
-8.26 -0.28 1.22
-8.25 -0.26 1.22
-8.05 -0.20 1.23
-8.17 -0.18 1.22
-8.53 -0.08 1.19
-8.59 -0.05 1.18
-8.39 -0.02 1.20
-7.78 0.01 1.43
-7.89 0.03 1.42
-7.88 0.04 1.42
-8.71 0.07 1.34
-7.74 0.08 1.43
-7.64 0.10 1.44
-5.68 0.09 1.62
-7.60 0.14 1.44
-7.52 0.15 1.45
-7.81 0.18 1.42
-7.89 0.20 1.42
-7.85 0.22 1.42
-9.91 0.30 1.23
-10.01 0.33 1.22
-4.36 0.16 1.74
-9.16 0.34 1.30
-9.49 0.38 1.26
-9.33 0.40 1.28
-9.20 0.41 1.29
-11.48 0.54 1.08
-7.41 0.37 1.46
-9.55 0.52 1.26
-11.04 0.63 1.12
-7.72 0.47 1.43
-11.16 0.69 1.10
-11.44 0.74 1.08
-11.79 0.79 1.04
-11.70 0.81 1.05
-11.73 0.84 1.05
-12.05 0.92 1.02
-11.96 0.94 1.03
-11.71 0.95 1.05
-11.78 1.02 1.04
-11.96 1.06 1.02
-12.19 1.11 1.00
-12.09 1.13 1.01
-11.90 1.14 1.03
-12.40 1.22 0.98
-12.17 1.23 1.00
-3.88 0.52 1.78
-9.99 -1.69 0.99
-9.87 -1.64 1.00
-9.86 -1.61 1.00
-9.87 -1.55 1.00
-3.93 -0.74 1.56
-3.82 -0.71 1.57
-7.09 -1.00 1.26
-4.11 -0.65 1.55
-4.04 -0.61 1.55
-4.36 -0.62 1.52
-3.89 -0.56 1.57
-7.28 -0.83 1.25
-4.02 -0.54 1.55
-4.10 -0.53 1.55
-4.89 -0.58 1.47
-3.74 -0.47 1.58
-7.50 -0.72 1.22
-7.50 -0.70 1.22
-5.22 -0.52 1.44
-5.17 -0.50 1.44
-5.58 -0.51 1.41
-3.60 -0.37 1.59
-5.08 -0.42 1.45
-4.77 -0.39 1.48
-3.38 -0.30 1.61
-4.44 -0.34 1.51
-3.65 -0.29 1.59
-8.15 -0.46 1.16
-8.64 -0.43 1.11
-4.96 -0.27 1.46
-7.99 -0.35 1.18
-9.02 -0.36 1.08
-8.12 -0.31 1.16
-7.80 -0.27 1.19
-7.85 -0.25 1.19
-3.81 -0.12 1.57
-8.07 -0.18 1.17
-9.92 -0.14 1.23
-8.41 -0.10 1.37
-7.86 -0.07 1.42
-7.56 -0.05 1.45
-7.56 -0.03 1.45
-7.52 -0.01 1.45
-8.78 0.00 1.03
-8.83 0.06 1.02
-9.03 0.09 1.00
-9.30 0.12 0.98
-6.87 0.11 1.22
-6.79 0.14 1.23
-6.78 0.16 1.23
-6.65 0.18 1.24
-6.80 0.23 1.23
-7.76 0.22 1.38
-9.70 0.29 1.19
-10.16 0.33 1.14
-10.51 0.37 1.10
-10.44 0.39 1.11
-10.36 0.41 1.12
-10.05 0.42 1.15
-10.89 0.49 1.07
-9.58 0.45 1.20
-9.51 0.47 1.20
-9.76 0.51 1.18
-9.38 0.51 1.21
-9.38 0.54 1.21
-7.53 0.45 1.40
-7.87 0.49 1.36
-11.29 0.72 1.02
-4.17 0.29 1.73
-10.87 0.75 1.06
-8.95 0.65 1.25
-11.12 0.82 1.04
-12.26 0.94 0.92
-11.60 0.91 0.99
-12.07 0.98 0.94
-11.81 0.99 0.97
-11.79 1.02 0.97
-11.78 1.04 0.97
-11.86 1.08 0.96
-12.11 1.16 0.93
-12.10 1.19 0.93
-12.43 1.28 0.90
-12.19 1.29 0.92
-11.01 1.28 1.04
-10.09 1.20 1.13
-4.08 0.54 1.74
-6.26 -1.45 1.29
-5.97 -1.36 1.32
-10.04 -1.69 0.91
-9.98 -1.65 0.92
-9.80 -1.60 0.93
-9.65 -1.55 0.95
-3.57 -0.77 1.56
-9.65 -1.49 0.95
-3.82 -0.77 1.53
-3.80 -0.75 1.54
-3.98 -0.74 1.52
-4.06 -0.74 1.51
-3.46 -0.66 1.57
-6.61 -0.95 1.25
-4.43 -0.71 1.47
-5.92 -0.84 1.32
-5.08 -0.74 1.41
-3.76 -0.60 1.54
-3.75 -0.58 1.54
-3.57 -0.55 1.56
-3.80 -0.55 1.54
-3.97 -0.55 1.52
-5.33 -0.65 1.38
-4.91 -0.59 1.42
-4.72 -0.56 1.44
-4.82 -0.55 1.43
-3.77 -0.46 1.54
-4.62 -0.50 1.45
-4.18 -0.46 1.50
-3.86 -0.42 1.53
-4.91 -0.47 1.42
-4.64 -0.43 1.45
-3.71 -0.36 1.54
-3.86 -0.36 1.53
-8.11 -0.56 1.10
-7.80 -0.52 1.13
-3.54 -0.30 1.56
-4.10 -0.27 1.50
-4.26 -0.26 1.49
-8.11 -0.36 1.10
-7.89 -0.32 1.12
-7.99 -0.30 1.11
-7.36 -0.26 1.18
-7.49 -0.24 1.16
-4.15 -0.15 1.50
-7.76 -0.20 1.13
-7.42 -0.14 1.17
-7.80 -0.12 1.13
-7.86 -0.10 1.12
-8.52 -0.08 1.06
-8.47 -0.05 1.06
-8.52 -0.02 1.06
-7.46 0.00 1.36
-7.43 0.02 1.36
-7.78 0.04 1.33
-8.37 0.07 1.26
-7.58 0.08 1.35
-7.45 0.10 1.36
-7.48 0.13 1.36
-7.42 0.15 1.36
-7.40 0.17 1.36
-7.41 0.19 1.36
-7.34 0.20 1.37
-7.42 0.23 1.36
-9.02 0.29 1.19
-10.10 0.35 1.08
-10.24 0.41 1.06
-10.49 0.44 1.03
-10.35 0.46 1.05
-10.89 0.51 0.99
-7.58 0.38 1.34
-7.67 0.40 1.33
-9.37 0.54 1.15
-9.42 0.56 1.14
-10.85 0.67 0.99
-7.78 0.53 1.32
-10.83 0.75 0.99
-11.19 0.80 0.95
-11.33 0.87 0.94
-11.61 0.92 0.91
-10.96 0.89 0.98
-10.96 0.92 0.98
-11.65 1.01 0.90
-11.78 1.05 0.89
-12.07 1.10 0.86
-11.82 1.14 0.88
-4.64 0.52 1.65
-4.92 0.57 1.62
-4.36 0.59 1.68
-4.02 0.60 1.71
-6.32 0.98 1.46
-4.40 0.78 1.66
-4.40 0.81 1.66
-4.27 0.81 1.68
-4.43 0.88 1.66
-4.28 0.87 1.67
-6.22 -1.47 1.23
-1.21 -0.57 1.77
-4.03 -0.91 1.47
-9.65 -1.64 0.87
-3.71 -0.84 1.50
-3.76 -0.83 1.50
-3.85 -0.82 1.49
-9.66 -1.53 0.87
-3.91 -0.80 1.48
-3.61 -0.75 1.51
-3.59 -0.73 1.52
-4.05 -0.75 1.47
-3.79 -0.69 1.49
-3.85 -0.68 1.49
-4.05 -0.69 1.47
-3.94 -0.66 1.48
-3.65 -0.62 1.51
-3.68 -0.61 1.51
-3.69 -0.59 1.50
-3.47 -0.56 1.53
-3.95 -0.58 1.48
-6.95 -0.82 1.16
-6.96 -0.80 1.15
-6.76 -0.76 1.18
-7.55 -0.80 1.09
-7.11 -0.74 1.14
-5.44 -0.60 1.32
-5.48 -0.58 1.31
-4.41 -0.49 1.43
-4.32 -0.47 1.44
-4.38 -0.45 1.43
-4.86 -0.47 1.38
-4.61 -0.43 1.40
-4.92 -0.43 1.37
-7.25 -0.54 1.12
-7.34 -0.52 1.11
-3.55 -0.31 1.52
-7.05 -0.46 1.14
-6.58 -0.42 1.19
-6.89 -0.41 1.16
-3.66 -0.26 1.51
-6.76 -0.36 1.17
-8.53 -0.27 1.25
-7.78 -0.23 1.33
-7.23 -0.16 1.39
-7.28 -0.14 1.38
-7.31 -0.12 1.38
-7.40 -0.11 1.37
-7.38 -0.09 1.37
-7.67 -0.05 1.34
-7.43 -0.01 1.36
-6.83 0.00 1.10
-6.84 0.02 1.10
-6.56 0.04 1.13
-7.12 0.07 1.07
-7.35 0.10 1.04
-6.88 0.11 1.10
-6.74 0.13 1.11
-7.35 0.17 1.04
-6.61 0.18 1.13
-7.02 0.21 1.08
-7.13 0.23 1.07
-6.81 0.25 1.10
-6.70 0.27 1.11
-6.83 0.29 1.10
-7.21 0.33 1.06
-6.72 0.34 1.11
-6.62 0.35 1.12
-6.81 0.38 1.10
-6.75 0.40 1.11
-6.87 0.43 1.09
-10.52 0.55 0.96
-9.75 0.53 1.05
-9.41 0.54 1.09
-11.14 0.74 0.89
-11.12 0.77 0.89
-11.73 1.01 0.82
-11.95 1.09 0.79
-10.76 1.09 0.92
-3.68 0.47 1.73
-9.58 -1.60 0.80
-9.70 -1.59 0.78
-9.60 -1.52 0.79
-6.75 -0.92 1.12
-7.14 -0.91 1.07
-7.00 -0.87 1.09
-7.06 -0.85 1.08
-6.62 -0.71 1.13
-7.58 -0.73 1.02
-7.09 -0.67 1.08
-6.98 -0.64 1.09
-7.16 -0.63 1.07
-7.08 -0.60 1.08
-7.02 -0.57 1.09
-6.69 -0.53 1.12
-6.76 -0.51 1.12
-6.91 -0.50 1.10
-7.12 -0.49 1.07
-6.76 -0.45 1.11
-6.73 -0.42 1.12
-6.62 -0.40 1.13
-6.66 -0.38 1.13
-6.30 -0.34 1.17
-7.24 -0.35 1.06
-7.27 -0.33 1.06
-7.44 -0.31 1.04
-7.57 -0.29 1.02
-5.49 -0.21 1.26
-7.53 -0.24 1.03
-7.63 -0.22 1.01
-7.70 -0.20 1.01
-7.66 -0.17 1.01
-8.06 -0.15 0.96
-8.84 -0.11 0.88
-9.08 -0.08 0.85
-8.76 -0.05 0.88
-9.05 -0.03 0.85
-8.87 0.00 1.09
-9.70 0.03 0.99
-9.13 0.05 1.06
-9.66 0.08 0.99
-9.60 0.10 1.00
-9.71 0.12 0.99
-9.37 0.14 1.03
-9.68 0.17 0.99
-9.64 0.19 0.99
-9.47 0.21 1.01
-9.46 0.24 1.01
-10.46 0.29 0.89
-10.35 0.31 0.91
-10.38 0.34 0.90
-9.91 0.35 0.96
-10.13 0.38 0.93
-7.31 0.29 1.27
-10.23 0.43 0.92
-7.64 0.36 1.23
-7.57 0.38 1.24
-7.11 0.38 1.29
-7.40 0.41 1.26
-10.82 0.75 0.84
-11.10 0.82 0.81
-11.94 0.94 0.71
-11.74 0.95 0.73
-11.93 1.03 0.71
-12.06 1.07 0.69
-11.76 1.07 0.72
-11.91 1.12 0.71
-12.07 1.22 0.69
-11.78 1.28 0.72
-11.40 1.27 0.76
-9.98 -1.69 0.66
-9.83 -1.64 0.68
-9.94 -1.62 0.66
-9.70 -1.56 0.69
-7.03 -0.95 1.02
-6.90 -0.89 1.03
-6.92 -0.87 1.03
-6.34 -0.73 1.10
-6.32 -0.71 1.10
-6.24 -0.66 1.11
-6.21 -0.64 1.11
-6.42 -0.63 1.09
-6.79 -0.63 1.04
-7.03 -0.62 1.02
-7.03 -0.60 1.01
-7.31 -0.59 0.98
-7.17 -0.56 1.00
-9.02 -0.50 1.07
-8.94 -0.48 1.08
-8.67 -0.44 1.12
-9.16 -0.45 1.06
-8.71 -0.38 1.11
-7.91 -0.23 1.20
-8.09 -0.22 1.18
-7.89 -0.19 1.21
-7.96 -0.17 1.20
-7.85 -0.15 1.21
-8.06 -0.14 1.19
-8.02 -0.11 1.19
-8.42 -0.10 1.14
-7.97 -0.06 1.20
-8.22 -0.04 1.17
-6.45 -0.00 1.02
-6.67 0.02 0.99
-9.18 0.07 0.99
-9.08 0.09 1.00
-9.51 0.12 0.95
-9.23 0.14 0.98
-9.14 0.18 0.99
-9.07 0.20 1.00
-9.16 0.23 0.99
-7.16 0.20 1.24
-7.08 0.21 1.25
-7.05 0.23 1.25
-7.20 0.25 1.23
-7.27 0.29 1.22
-7.21 0.31 1.23
-7.29 0.33 1.22
-7.23 0.34 1.23
-7.39 0.37 1.21
-7.41 0.39 1.20
-7.17 0.40 1.23
-7.40 0.43 1.20
-7.22 0.43 1.23
-7.38 0.46 1.21
-7.32 0.48 1.21
-10.25 0.68 0.84
-10.61 0.76 0.79
-10.92 0.81 0.76
-11.47 0.87 0.68
-10.91 0.86 0.76
-11.02 0.90 0.74
-10.96 0.92 0.75
-11.09 0.96 0.73
-11.25 1.00 0.71
-11.61 1.06 0.66
-11.57 1.08 0.67
-11.76 1.13 0.64
-11.70 1.15 0.65
-11.94 1.20 0.62
-12.01 1.24 0.61
-4.15 0.46 1.61
-12.09 1.31 0.60
-4.33 0.53 1.59
-12.05 1.42 0.60
-3.87 0.59 1.64
-3.93 0.61 1.63
-3.68 0.65 1.66
-4.10 0.78 1.60
-4.14 0.82 1.60
-4.06 1.05 1.60
-2.49 -1.08 1.53
-5.50 -1.31 1.14
-9.82 -1.67 0.60
-9.95 -1.65 0.58
-9.96 -1.62 0.58
-9.76 -1.57 0.60
-9.83 -1.55 0.59
-9.54 -1.45 0.63
-5.73 -0.98 1.12
-5.73 -0.96 1.12
-5.51 -0.92 1.15
-3.44 -0.67 1.41
-3.71 -0.68 1.37
-3.62 -0.66 1.39
-5.16 -0.80 1.19
-6.78 -0.94 0.98
-6.86 -0.93 0.97
-6.77 -0.90 0.99
-6.67 -0.87 1.00
-6.45 -0.83 1.02
-4.72 -0.65 1.25
-4.55 -0.62 1.27
-6.49 -0.76 1.02
-6.25 -0.72 1.05
-6.08 -0.69 1.07
-5.96 -0.66 1.09
-6.08 -0.65 1.07
-6.14 -0.63 1.06
-6.19 -0.61 1.06
-6.20 -0.59 1.06
-6.30 -0.58 1.04
-6.64 -0.58 1.00
-6.94 -0.57 0.96
-6.97 -0.55 0.96
-6.75 -0.52 0.99
-6.64 -0.49 1.00
-6.60 -0.46 1.00
-6.85 -0.45 0.97
-6.47 -0.41 1.02
-6.58 -0.40 1.01
-6.47 -0.37 1.02
-6.42 -0.35 1.03
-6.53 -0.33 1.01
-6.38 -0.30 1.03
-6.86 -0.30 0.97
-6.60 -0.27 1.00
-6.53 -0.24 1.01
-6.47 -0.22 1.02
-6.71 -0.20 0.99
-6.58 -0.18 1.00
-6.79 -0.16 0.98
-6.47 -0.13 1.02
-6.48 -0.11 1.02
-6.92 -0.09 0.96
-7.04 -0.07 0.95
-6.86 -0.05 0.97
-6.64 -0.02 1.00
-8.66 0.00 0.99
-4.30 0.01 1.57
-8.64 0.05 0.99
-8.81 0.07 0.97
-8.62 0.09 0.99
-8.72 0.11 0.98
-9.51 0.14 0.87
-9.53 0.17 0.87
-9.66 0.19 0.85
-10.09 0.23 0.79
-10.13 0.25 0.79
-7.19 0.20 1.18
-9.95 0.30 0.81
-7.07 0.23 1.20
-9.95 0.35 0.81
-9.62 0.36 0.85
-7.33 0.29 1.16
-3.68 0.16 1.65
-7.29 0.33 1.16
-7.18 0.34 1.18
-7.06 0.35 1.19
-7.13 0.38 1.18
-7.25 0.40 1.17
-7.30 0.42 1.16
-7.62 0.46 1.12
-7.14 0.45 1.18
-7.32 0.48 1.16
-10.18 0.68 0.77
-7.32 0.51 1.16
-7.60 0.55 1.12
-10.81 0.80 0.69
-10.67 0.82 0.71
-10.83 0.85 0.68
-7.28 0.60 1.16
-11.35 0.95 0.61
-11.11 0.96 0.65
-11.41 1.01 0.60
-11.58 1.05 0.58
-11.66 1.09 0.57
-4.54 0.46 1.53
-11.66 1.15 0.57
-11.92 1.20 0.53
-12.11 1.25 0.50
-4.77 0.53 1.49
-12.00 1.30 0.52
-4.67 0.54 1.51
-12.03 1.36 0.51
-4.45 0.55 1.53
-11.72 1.41 0.55
-4.46 0.58 1.53
-4.75 0.63 1.49
-4.61 0.62 1.51
-4.65 0.64 1.51
-4.78 0.67 1.49
-4.23 0.61 1.56
-4.92 0.72 1.47
-4.37 0.70 1.54
-4.14 0.71 1.57
-3.96 0.71 1.59
-4.36 0.85 1.53
-4.08 0.81 1.57
-4.16 0.83 1.56
-4.02 0.82 1.58
-4.40 0.90 1.53
-4.32 0.91 1.54
-4.06 0.88 1.57
-4.26 0.93 1.54
-4.03 0.90 1.58
-4.31 0.97 1.54
-4.21 0.96 1.55
-4.18 0.96 1.55
-4.13 0.97 1.56
-4.09 0.99 1.56
-4.41 -1.00 1.23
-4.22 -0.95 1.26
-9.72 -1.69 0.52
-9.82 -1.67 0.50
-9.92 -1.65 0.49
-9.69 -1.59 0.52
-9.74 -1.57 0.52
-9.71 -1.54 0.52
-9.84 -1.52 0.50
-9.50 -1.45 0.55
-3.43 -0.71 1.36
-3.83 -0.74 1.31
-5.68 -0.94 1.06
-5.73 -0.90 1.05
-5.36 -0.84 1.10
-3.73 -0.66 1.32
-5.34 -0.80 1.11
-5.63 -0.81 1.07
-6.90 -0.91 0.90
-8.99 -1.08 0.62
-6.44 -0.83 0.96
-5.87 -0.75 1.04
-5.89 -0.73 1.03
-5.89 -0.71 1.03
-5.92 -0.70 1.03
-5.30 -0.63 1.11
-5.65 -0.63 1.07
-5.55 -0.61 1.08
-5.68 -0.60 1.06
-5.65 -0.58 1.07
-4.91 -0.51 1.17
-6.23 -0.57 0.99
-6.34 -0.56 0.97
-4.65 -0.44 1.20
-6.78 -0.54 0.91
-6.78 -0.52 0.91
-7.17 -0.52 0.86
-7.34 -0.50 0.84
-7.21 -0.47 0.85
-6.54 -0.42 0.94
-6.93 -0.41 0.89
-6.55 -0.37 0.94
-6.75 -0.36 0.92
-6.46 -0.33 0.95
-6.52 -0.31 0.95
-6.72 -0.29 0.92
-3.42 -0.18 1.36
-6.45 -0.24 0.96
-6.59 -0.22 0.94
-6.35 -0.19 0.97
-3.70 -0.12 1.32
-3.22 -0.10 1.39
-7.28 -0.10 1.17
-8.04 -0.10 1.07
-8.06 -0.08 1.07
-8.03 -0.06 1.07
-7.90 -0.04 1.09
-8.94 -0.02 0.95
-6.37 -0.00 0.90
-6.49 0.02 0.88
-2.61 0.02 1.43
-2.66 0.04 1.42
-6.56 0.09 0.87
-6.54 0.11 0.87
-3.19 0.08 1.35
-2.96 0.09 1.38
-6.51 0.17 0.88
-3.13 0.12 1.36
-2.96 0.13 1.38
-9.39 0.26 0.82
-6.74 0.20 1.19
-9.54 0.33 0.80
-6.97 0.26 1.16
-7.20 0.29 1.12
-7.34 0.31 1.10
-7.44 0.33 1.09
-7.20 0.34 1.12
-7.23 0.36 1.12
-7.23 0.40 1.12
-7.15 0.43 1.13
-7.22 0.45 1.12
-7.32 0.48 1.10
-7.30 0.49 1.11
-7.68 0.54 1.05
-7.42 0.56 1.09
-10.15 0.78 0.70
-10.44 0.82 0.66
-10.71 0.87 0.62
-10.84 0.91 0.60
-11.57 0.99 0.50
-7.50 0.67 1.07
-11.00 1.03 0.58
-11.48 1.10 0.51
-11.77 1.16 0.47
-12.05 1.21 0.43
-11.69 1.21 0.48
-11.57 1.22 0.49
-12.27 1.39 0.39
-12.11 1.40 0.41
-4.12 0.51 1.55
-4.43 0.60 1.50
-4.12 1.02 1.53
-4.19 1.05 1.52
-3.36 -0.99 1.33
-9.40 -1.64 0.47
-9.57 -1.63 0.45
-9.65 -1.61 0.44
-9.57 -1.58 0.45
-6.24 -1.12 0.92
-5.81 -1.05 0.98
-5.93 -1.04 0.97
-9.63 -1.46 0.44
-5.78 -0.99 0.99
-5.65 -0.95 1.01
-5.39 -0.90 1.04
-5.60 -0.89 1.02
-5.49 -0.86 1.03
-5.65 -0.85 1.01
-5.70 -0.84 1.00
-6.48 -0.89 0.89
-6.84 -0.91 0.84
-6.49 -0.85 0.89
-5.76 -0.76 0.99
-4.38 -0.62 1.19
-6.50 -0.79 0.89
-6.28 -0.75 0.92
-5.18 -0.64 1.07
-5.62 -0.65 1.01
-4.91 -0.58 1.11
-4.97 -0.56 1.10
-5.38 -0.57 1.05
-5.68 -0.58 1.00
-5.96 -0.58 0.96
-6.04 -0.56 0.95
-6.24 -0.55 0.92
-6.17 -0.53 0.93
-6.30 -0.51 0.91
-4.07 -0.37 1.23
-6.71 -0.49 0.86
-6.63 -0.47 0.87
-3.45 -0.29 1.32
-3.36 -0.27 1.33
-6.50 -0.39 0.89
-3.48 -0.25 1.31
-6.45 -0.35 0.89
-4.05 -0.24 1.23
-6.48 -0.31 0.89
-6.43 -0.28 0.89
-2.90 -0.16 1.39
-6.28 -0.24 0.92
-3.37 -0.15 1.33
-3.10 -0.13 1.37
-3.15 -0.11 1.36
-3.36 -0.10 1.33
-2.94 -0.08 1.39
-6.91 -0.12 0.82
-2.86 -0.05 1.40
-6.38 -0.07 0.90
-6.41 -0.04 0.89
-6.62 -0.02 0.86
-8.28 0.00 0.91
-8.40 0.02 0.89
-8.77 0.05 0.84
-8.71 0.07 0.84
-8.69 0.09 0.85
-8.95 0.11 0.81
-9.22 0.14 0.77
-9.13 0.16 0.78
-9.20 0.18 0.77
-7.49 0.17 1.02
-7.45 0.19 1.03
-9.83 0.27 0.68
-7.42 0.22 1.03
-7.60 0.25 1.01
-7.34 0.26 1.04
-7.23 0.27 1.06
-7.32 0.29 1.05
-7.31 0.31 1.05
-7.16 0.32 1.07
-8.51 0.40 0.87
-7.26 0.36 1.05
-7.15 0.38 1.07
-7.30 0.40 1.05
-7.45 0.43 1.02
-7.47 0.45 1.02
-7.07 0.44 1.08
-7.22 0.47 1.06
-7.31 0.49 1.04
-7.21 0.51 1.06
-7.31 0.53 1.04
-7.43 0.56 1.02
-7.52 0.58 1.01
-7.43 0.59 1.02
-7.51 0.62 1.01
-11.03 0.92 0.48
-10.48 0.90 0.57
-10.85 0.96 0.51
-11.12 1.01 0.47
-11.12 1.04 0.47
-7.75 0.76 0.97
-11.18 1.10 0.46
-11.54 1.16 0.40
-4.77 0.52 1.42
-4.66 0.52 1.43
-5.08 0.57 1.37
-4.68 0.54 1.43
-5.30 0.62 1.33
-4.61 0.56 1.44
-4.46 0.55 1.46
-4.63 0.59 1.43
-4.50 0.58 1.45
-4.75 0.63 1.41
-4.64 0.62 1.43
-4.42 0.61 1.46
-4.77 0.67 1.41
-4.90 0.69 1.39
-4.74 0.69 1.41
-4.38 0.65 1.47
-4.78 0.72 1.41
-4.49 0.69 1.45
-4.21 0.66 1.49
-4.33 0.70 1.47
-3.83 0.66 1.55
-4.21 0.75 1.49
-5.90 1.04 1.23
-4.28 0.95 1.47
-4.34 0.98 1.46
-4.35 1.02 1.46
-4.28 1.02 1.46
-4.44 1.07 1.44
-4.37 1.06 1.45
-4.50 -1.12 1.11
-9.11 -1.66 0.42
-9.39 -1.64 0.38
-3.61 -0.83 1.24
-3.67 -0.82 1.24
-5.96 -1.09 0.89
-3.58 -0.76 1.25
-3.35 -0.71 1.28
-5.42 -0.91 0.97
-5.39 -0.89 0.98
-4.04 -0.72 1.18
-5.31 -0.82 0.99
-5.12 -0.76 1.02
-3.75 -0.60 1.22
-5.41 -0.73 0.98
-5.05 -0.68 1.03
-4.87 -0.63 1.06
-4.81 -0.59 1.06
-4.64 -0.54 1.09
-4.86 -0.54 1.06
-4.85 -0.52 1.06
-6.25 -0.58 0.85
-6.46 -0.55 0.82
-6.80 -0.52 0.77
-4.15 -0.36 1.16
-3.70 -0.32 1.23
-3.53 -0.28 1.25
-3.33 -0.25 1.28
-3.24 -0.21 1.30
-7.65 -0.26 1.01
-7.92 -0.25 0.96
-7.77 -0.23 0.99
-8.12 -0.22 0.93
-7.71 -0.19 1.00
-7.68 -0.17 1.00
-8.00 -0.16 0.95
-7.89 -0.13 0.97
-7.77 -0.11 0.99
-7.87 -0.09 0.97
-7.99 -0.08 0.95
-7.92 -0.06 0.96
-7.92 -0.04 0.96
-7.83 -0.02 0.97
-6.89 -0.00 0.68
-6.44 0.02 0.75
-2.55 0.02 1.36
-6.63 0.06 0.72
-6.60 0.11 0.73
-6.87 0.13 0.68
-2.96 0.09 1.30
-3.07 0.11 1.28
-6.71 0.20 0.71
-6.78 0.22 0.70
-6.66 0.24 0.72
-2.92 0.16 1.30
-6.74 0.29 0.70
-2.83 0.18 1.32
-2.73 0.19 1.33
-2.75 0.20 1.33
-2.70 0.22 1.34
-2.61 0.23 1.35
-9.23 0.46 0.69
-7.29 0.40 1.00
-10.21 0.58 0.54
-9.85 0.58 0.60
-7.35 0.48 0.99
-7.45 0.50 0.97
-7.45 0.52 0.97
-7.48 0.54 0.97
-11.71 0.86 0.30
-11.06 0.84 0.40
-7.44 0.59 0.97
-11.06 0.90 0.40
-11.17 0.93 0.39
-11.14 0.96 0.39
-3.22 0.31 1.63
-10.99 1.00 0.41
-3.56 0.35 1.57
-11.17 1.07 0.38
-11.45 1.12 0.34
-11.50 1.16 0.33
-11.75 1.27 0.29
-11.53 1.27 0.32
-11.66 1.32 0.30
-4.15 0.52 1.48
-11.70 1.41 0.29
-4.15 0.54 1.48
-3.94 0.52 1.51
-4.16 0.56 1.47
-3.84 0.62 1.52
-3.73 0.64 1.54
-3.77 0.66 1.53
-3.86 0.69 1.51
-3.61 0.77 1.55
-3.70 0.84 1.53
-1.39 -0.90 1.55
-8.96 -1.69 0.36
-9.05 -1.65 0.35
-9.00 -1.61 0.36
-9.72 -1.68 0.24
-9.48 -1.59 0.28
-9.29 -1.54 0.31
-1.22 -0.49 1.58
-5.82 -1.03 0.86
-6.00 -1.03 0.83
-5.89 -0.98 0.85
-8.05 -1.02 0.51
-7.01 -0.90 0.67
-7.08 -0.88 0.66
-7.09 -0.86 0.66
-4.59 -0.61 1.05
-6.88 -0.77 0.69
-6.99 -0.62 0.67
-6.85 -0.59 0.70
-6.67 -0.56 0.72
-6.90 -0.55 0.69
-7.36 -0.55 0.62
-6.15 -0.46 0.81
-3.14 -0.29 1.28
-6.72 -0.43 0.72
-6.56 -0.40 0.74
-6.66 -0.38 0.72
-6.39 -0.35 0.77
-6.52 -0.33 0.75
-6.39 -0.30 0.77
-6.48 -0.28 0.75
-6.97 -0.25 0.67
-6.22 -0.21 0.79
-6.67 -0.20 0.72
-7.06 -0.19 0.66
-7.08 -0.16 0.66
-2.66 -0.08 1.35
-6.90 -0.12 0.68
-2.74 -0.05 1.34
-6.48 -0.07 0.75
-6.32 -0.05 0.77
-6.59 -0.02 0.73
-8.22 0.00 0.79
-8.33 0.02 0.77
-8.44 0.04 0.75
-8.33 0.06 0.77
-8.69 0.09 0.71
-8.48 0.11 0.74
-8.45 0.13 0.75
-8.53 0.15 0.73
-8.51 0.17 0.74
-7.90 0.18 0.84
-8.20 0.20 0.79
-7.90 0.22 0.83
-8.62 0.26 0.72
-8.73 0.28 0.70
-8.76 0.30 0.69
-8.94 0.33 0.66
-8.93 0.35 0.66
-7.46 0.32 0.90
-7.35 0.33 0.92
-7.40 0.35 0.91
-7.39 0.37 0.91
-7.54 0.39 0.89
-7.29 0.40 0.93
-7.34 0.42 0.92
-7.48 0.45 0.90
-7.40 0.46 0.91
-7.91 0.51 0.83
-7.30 0.49 0.93
-7.37 0.52 0.91
-7.43 0.54 0.90
-10.05 0.74 0.47
-10.86 0.83 0.34
-10.95 0.86 0.32
-7.54 0.62 0.88
-7.56 0.64 0.88
-7.64 0.67 0.87
-7.61 0.68 0.87
-7.56 0.70 0.88
-10.98 1.03 0.31
-11.26 1.08 0.27
-6.80 0.72 1.00
-4.39 0.55 1.40
-4.80 0.61 1.33
-4.46 0.58 1.38
-4.71 0.62 1.34
-4.45 0.60 1.38
-4.13 0.57 1.44
-3.93 0.56 1.47
-3.98 0.57 1.46
-4.16 0.61 1.43
-3.82 0.57 1.49
-4.15 0.69 1.43
-4.13 0.71 1.43
-3.82 0.68 1.48
-3.86 0.74 1.47
-4.03 0.78 1.44
-5.52 -1.49 0.83
-5.58 -1.48 0.82
-5.81 -1.44 0.78
-4.58 -1.18 0.98
-5.98 -1.35 0.75
-8.93 -1.69 0.27
-8.60 -1.62 0.32
-8.67 -1.60 0.31
-8.61 -1.57 0.32
-5.56 -1.06 0.82
-5.87 -1.08 0.77
-5.90 -1.07 0.77
-5.73 -1.03 0.80
-5.81 -1.01 0.78
-5.85 -1.00 0.78
-5.87 -0.98 0.77
-5.67 -0.94 0.81
-5.57 -0.91 0.82
-5.68 -0.90 0.81
-5.16 -0.83 0.89
-5.12 -0.80 0.90
-5.13 -0.78 0.90
-5.24 -0.78 0.88
-5.09 -0.74 0.90
-5.08 -0.72 0.90
-5.00 -0.70 0.92
-4.43 -0.63 1.01
-6.70 -0.81 0.64
-5.00 -0.64 0.92
-5.11 -0.63 0.90
-4.74 -0.59 0.96
-4.74 -0.57 0.96
-6.77 -0.70 0.63
-5.28 -0.57 0.87
-6.35 -0.63 0.70
-6.01 -0.58 0.75
-5.98 -0.56 0.76
-5.99 -0.54 0.75
-5.97 -0.52 0.76
-2.91 -0.32 1.26
-4.27 -0.24 1.44
-7.42 -0.38 0.92
-7.43 -0.37 0.92
-7.36 -0.34 0.93
-7.34 -0.33 0.93
-7.53 -0.32 0.90
-7.55 -0.30 0.90
-7.61 -0.28 0.89
-7.75 -0.27 0.87
-7.62 -0.24 0.89
-7.95 -0.23 0.83
-7.81 -0.21 0.86
-7.87 -0.19 0.85
-7.80 -0.17 0.86
-8.11 -0.16 0.81
-8.02 -0.14 0.82
-3.82 -0.06 1.51
-7.91 -0.10 0.84
-8.00 -0.08 0.82
-7.96 -0.06 0.83
-8.13 -0.04 0.80
-8.24 -0.02 0.78
-2.56 -0.00 1.28
-2.64 0.01 1.26
-2.71 0.02 1.25
-3.56 0.03 1.52
-8.45 0.08 0.68
-7.85 0.10 0.78
-7.65 0.11 0.82
-7.69 0.13 0.81
-7.55 0.15 0.83
-7.45 0.17 0.85
-7.42 0.18 0.86
-8.23 0.22 0.72
-7.41 0.22 0.86
-7.44 0.24 0.85
-3.52 0.13 1.52
-3.61 0.14 1.51
-3.60 0.15 1.51
-3.72 0.16 1.49
-3.88 0.18 1.46
-3.99 0.20 1.44
-3.99 0.21 1.44
-4.04 0.22 1.43
-4.04 0.23 1.43
-7.34 0.42 0.86
-3.81 0.24 1.47
-3.73 0.24 1.48
-3.93 0.26 1.45
-7.43 0.50 0.85
-3.78 0.28 1.47
-3.66 0.28 1.49
-3.85 0.30 1.46
-3.83 0.31 1.46
-3.88 0.32 1.46
-4.07 0.35 1.42
-4.04 0.36 1.43
-3.91 0.36 1.45
-4.04 0.38 1.43
-4.02 0.39 1.43
-4.17 0.41 1.40
-3.83 0.41 1.46
-4.31 0.47 1.38
-4.39 0.49 1.36
-4.43 0.50 1.36
-4.35 0.51 1.37
-4.31 0.51 1.38
-4.22 0.51 1.39
-4.18 0.52 1.40
-4.31 0.55 1.37
-4.18 0.54 1.40
-4.38 0.58 1.36
-4.17 0.56 1.40
-4.11 0.57 1.41
-4.09 0.57 1.41
-4.38 0.62 1.36
-4.02 0.59 1.42
-3.92 0.59 1.44
-3.96 0.61 1.43
-3.68 0.58 1.48
-3.92 0.67 1.43
-3.73 0.65 1.47
-4.30 0.75 1.37
-3.93 0.70 1.43
-4.08 0.75 1.40
-3.78 0.71 1.45
-3.86 0.73 1.44
-4.03 0.77 1.41
-4.03 0.78 1.41
-3.87 0.77 1.44
-3.97 0.80 1.42
-3.90 0.79 1.43
-3.98 0.82 1.42
-3.82 0.80 1.44
-3.88 0.82 1.43
-3.70 0.80 1.46
-3.62 0.79 1.48
-3.66 0.87 1.47
-3.79 0.91 1.44
-3.93 0.96 1.42
-4.00 0.99 1.40
-3.92 0.98 1.42
-4.26 1.09 1.35
-5.70 -1.56 0.73
-5.74 -1.55 0.72
-5.65 -1.49 0.74
-5.72 -1.48 0.73
-5.67 -1.44 0.74
-5.61 -1.41 0.75
-6.40 -1.47 0.61
-6.26 -1.43 0.64
-1.38 -0.64 1.49
-1.46 -0.64 1.47
-1.46 -0.63 1.47
-1.99 -0.70 1.38
-2.39 -0.75 1.31
-2.44 -0.74 1.30
-2.35 -0.72 1.32
-2.83 -0.77 1.24
-2.56 -0.72 1.28
-2.38 -0.69 1.31
-2.08 -0.64 1.36
-2.55 -0.69 1.28
-2.15 -0.62 1.35
-5.96 -1.09 0.69
-2.42 -0.63 1.31
-5.83 -1.04 0.71
-2.64 -0.63 1.27
-5.68 -0.98 0.74
-5.56 -0.94 0.76
-2.83 -0.62 1.23
-2.95 -0.62 1.21
-2.94 -0.60 1.22
-2.65 -0.56 1.27
-4.98 -0.79 0.86
-4.92 -0.76 0.87
-4.22 -0.68 0.99
-4.93 -0.73 0.87
-4.19 -0.64 1.00
-4.27 -0.63 0.99
-4.15 -0.60 1.01
-2.21 -0.42 1.34
-4.09 -0.57 1.02
-4.37 -0.57 0.97
-4.47 -0.56 0.95
-4.76 -0.57 0.90
-3.92 -0.49 1.05
-6.65 -0.67 0.57
-2.70 -0.37 1.26
-4.90 -0.51 0.88
-5.17 -0.51 0.83
-3.14 -0.36 1.18
-5.27 -0.48 0.81
-5.58 -0.47 0.76
-5.40 -0.44 0.79
-6.20 -0.47 0.65
-2.79 -0.28 1.24
-3.32 -0.29 1.15
-2.78 -0.25 1.24
-2.95 -0.24 1.21
-2.90 -0.23 1.22
-2.98 -0.22 1.21
-2.80 -0.20 1.24
-2.88 -0.19 1.22
-2.77 -0.17 1.24
-2.88 -0.16 1.22
-2.66 -0.14 1.26
-2.56 -0.13 1.28
-2.43 -0.11 1.30
-2.28 -0.10 1.32
-2.44 -0.09 1.30
-2.53 -0.08 1.28
-2.33 -0.06 1.32
-2.23 -0.05 1.33
-2.30 -0.04 1.32
-2.45 -0.03 1.29
-2.45 -0.01 1.29
-7.83 0.00 0.72
-7.24 0.02 0.83
-7.61 0.04 0.76
-7.69 0.06 0.74
-7.49 0.07 0.78
-7.59 0.09 0.76
-4.15 0.06 1.38
-7.52 0.13 0.77
-7.58 0.15 0.76
-7.51 0.17 0.77
-7.68 0.19 0.74
-7.66 0.21 0.75
-7.71 0.23 0.74
-7.70 0.25 0.74
-7.21 0.25 0.83
-7.36 0.27 0.80
-7.36 0.29 0.80
-9.44 0.39 0.42
-7.63 0.34 0.75
-7.75 0.37 0.73
-4.28 0.22 1.35
-7.72 0.40 0.73
-7.74 0.42 0.73
-7.69 0.44 0.74
-7.57 0.45 0.76
-4.80 0.31 1.26
-4.02 0.27 1.40
-7.39 0.50 0.79
-4.19 0.30 1.36
-4.21 0.31 1.36
-4.18 0.32 1.37
-4.06 0.33 1.39
-4.00 0.33 1.40
-4.11 0.35 1.38
-4.21 0.37 1.36
-4.06 0.37 1.39
-4.22 0.39 1.36
-4.55 0.43 1.30
-4.50 0.44 1.31
-6.70 0.66 0.91
-4.75 0.49 1.26
-4.75 0.50 1.26
-4.51 0.49 1.30
-4.71 0.52 1.26
-4.78 0.54 1.25
-4.93 0.57 1.22
-4.74 0.56 1.26
-4.85 0.59 1.24
-4.70 0.58 1.26
-4.84 0.61 1.24
-4.60 0.59 1.28
-4.88 0.64 1.23
-5.07 0.68 1.19
-4.81 0.66 1.24
-5.04 0.70 1.20
-4.75 0.67 1.25
-5.19 0.74 1.17
-5.14 0.75 1.18
-5.61 0.83 1.09
-5.32 0.80 1.14
-5.43 0.83 1.12
-5.46 0.85 1.12
-5.31 0.84 1.14
-5.70 0.92 1.07
-5.51 0.90 1.11
-5.84 0.97 1.05
-5.68 0.96 1.07
-4.50 0.80 1.29
-4.55 0.83 1.28
-5.89 1.07 1.03
-5.78 1.06 1.05
-4.12 0.79 1.36
-4.49 0.87 1.29
-4.35 0.85 1.31
-4.28 0.85 1.33
-4.26 0.86 1.33
-4.40 0.90 1.30
-4.36 0.90 1.31
-4.33 0.91 1.31
-4.65 0.98 1.25
-4.32 0.95 1.31
-4.39 0.98 1.30
-4.79 1.10 1.22
-6.39 1.46 0.93
-4.13 1.00 1.34
-4.12 1.01 1.34
-5.41 -1.69 0.71
-5.51 -1.67 0.69
-5.48 -1.64 0.70
-5.61 -1.65 0.68
-5.70 -1.65 0.66
-5.36 -1.56 0.72
-5.70 -1.61 0.66
-5.72 -1.59 0.66
-5.75 -1.57 0.65
-5.66 -1.54 0.67
-5.63 -1.51 0.68
-5.69 -1.50 0.66
-3.18 -1.04 1.12
-2.85 -0.96 1.18
-3.13 -1.00 1.13
-5.68 -1.42 0.67
-5.55 -1.38 0.69
-2.99 -0.93 1.16
-2.82 -0.89 1.19
-3.25 -0.95 1.11
-3.18 -0.92 1.12
-5.78 -1.31 0.65
-3.32 -0.92 1.10
-3.48 -0.93 1.07
-5.89 -1.27 0.63
-6.02 -1.27 0.61
-4.57 -1.04 0.87
-4.76 -1.05 0.84
-5.65 -1.15 0.68
-5.94 -1.17 0.62
-5.79 -1.13 0.65
-5.74 -1.11 0.66
-4.73 -0.96 0.84
-4.94 -0.96 0.81
-4.86 -0.94 0.82
-4.68 -0.90 0.85
-4.57 -0.87 0.87
-4.61 -0.85 0.87
-4.81 -0.86 0.83
-5.14 -0.88 0.77
-5.06 -0.85 0.78
-5.00 -0.83 0.80
-3.98 -0.70 0.98
-4.28 -0.71 0.93
-4.40 -0.71 0.90
-4.59 -0.71 0.87
-4.54 -0.69 0.88
-4.72 -0.69 0.85
-4.23 -0.63 0.93
-4.18 -0.61 0.94
-4.21 -0.59 0.94
-3.97 -0.56 0.98
-4.49 -0.58 0.89
-4.24 -0.55 0.93
-4.40 -0.54 0.90
-4.67 -0.55 0.85
-4.56 -0.52 0.87
-5.55 -0.57 0.70
-5.13 -0.52 0.77
-5.58 -0.53 0.69
-5.12 -0.49 0.77
-5.48 -0.49 0.71
-5.26 -0.46 0.75
-5.07 -0.43 0.78
-5.28 -0.42 0.74
-5.36 -0.41 0.73
-5.68 -0.40 0.67
-5.95 -0.39 0.62
-5.68 -0.36 0.67
-6.08 -0.36 0.60
-6.06 -0.34 0.60
-3.02 -0.21 1.15
-3.00 -0.19 1.16
-3.04 -0.18 1.15
-2.91 -0.16 1.17
-2.93 -0.15 1.17
-3.13 -0.14 1.13
-2.96 -0.12 1.16
-2.77 -0.11 1.20
-2.97 -0.10 1.16
-7.82 -0.11 0.72
-7.44 -0.09 0.79
-7.46 -0.07 0.79
-7.61 -0.06 0.76
-7.59 -0.04 0.76
-7.51 -0.02 0.78
-2.43 -0.00 1.21
-2.45 0.01 1.21
-2.45 0.02 1.21
-2.68 0.03 1.17
-2.54 0.05 1.19
-2.79 0.06 1.14
-2.10 0.07 1.27
-2.83 0.09 1.14
-3.01 0.10 1.10
-2.69 0.11 1.16
-2.82 0.13 1.14
-3.72 0.12 1.42
-3.73 0.13 1.42
-3.82 0.14 1.40
-3.95 0.16 1.38
-3.98 0.17 1.37
-4.09 0.19 1.35
-3.96 0.19 1.37
-4.99 0.25 1.18
-4.05 0.22 1.36
-3.77 0.21 1.41
-3.62 0.23 1.44
-3.78 0.24 1.41
-3.85 0.26 1.39
-3.90 0.27 1.38
-3.86 0.28 1.39
-4.06 0.30 1.35
-3.93 0.30 1.38
-3.91 0.32 1.38
-3.98 0.34 1.37
-4.05 0.36 1.35
-3.86 0.35 1.39
-4.06 0.38 1.35
-3.89 0.37 1.38
-4.25 0.42 1.31
-4.10 0.42 1.34
-4.14 0.44 1.33
-4.20 0.45 1.32
-4.51 0.50 1.26
-4.38 0.50 1.29
-4.77 0.55 1.21
-4.86 0.57 1.19
-4.68 0.58 1.23
-4.70 0.59 1.22
-4.68 0.60 1.22
-4.34 0.57 1.29
-4.36 0.59 1.29
-4.10 0.56 1.33
-4.18 0.59 1.32
-4.11 0.60 1.33
-4.17 0.62 1.32
-4.15 0.63 1.32
-3.98 0.61 1.35
-4.03 0.63 1.34
-4.13 0.65 1.32
-4.11 0.66 1.33
-4.10 0.68 1.33
-4.09 0.69 1.33
-4.10 0.71 1.33
-4.17 0.73 1.31
-3.84 0.69 1.38
-3.85 0.71 1.37
-4.05 0.77 1.33
-3.95 0.77 1.35
-4.14 0.81 1.31
-4.05 0.81 1.33
-4.21 0.85 1.30
-4.08 0.84 1.32
-4.04 0.85 1.33
-4.24 0.90 1.29
-3.85 0.84 1.37
-3.99 0.88 1.34
-3.88 0.87 1.36
-3.97 0.90 1.34
-4.10 0.95 1.31
-4.09 0.96 1.31
-3.89 0.94 1.35
-3.88 0.95 1.35
-4.24 1.04 1.28
-3.97 0.99 1.33
-4.01 1.02 1.33
-4.23 1.08 1.28
-3.98 1.04 1.33
-3.88 1.02 1.35
-5.37 -1.60 0.65
-5.52 -1.61 0.62
-5.48 -1.58 0.63
-5.75 -1.59 0.58
-5.71 -1.56 0.59
-5.86 -1.57 0.56
-5.72 -1.53 0.59
-5.70 -1.50 0.59
-5.64 -1.47 0.60
-5.60 -1.44 0.61
-5.81 -1.46 0.57
-5.65 -1.41 0.60
-5.54 -1.37 0.62
-5.56 -1.36 0.62
-5.54 -1.34 0.62
-1.60 -0.68 1.38
-1.89 -0.72 1.32
-1.70 -0.68 1.36
-1.49 -0.64 1.40
-1.54 -0.63 1.39
-1.69 -0.64 1.36
-2.92 -0.81 1.13
-1.57 -0.61 1.38
-1.60 -0.60 1.38
-1.80 -0.62 1.34
-1.91 -0.62 1.32
-2.61 -0.71 1.18
-2.66 -0.70 1.17
-4.19 -0.88 0.88
-3.45 -0.77 1.02
-3.86 -0.81 0.95
-3.87 -0.80 0.95
-3.85 -0.78 0.95
-4.10 -0.79 0.90
-4.19 -0.79 0.88
-4.12 -0.76 0.90
-4.16 -0.75 0.89
-4.30 -0.75 0.86
-4.04 -0.71 0.91
-4.39 -0.73 0.85
-4.15 -0.68 0.89
-4.38 -0.69 0.85
-4.09 -0.65 0.90
-4.33 -0.65 0.86
-4.15 -0.62 0.89
-4.38 -0.62 0.85
-4.38 -0.61 0.85
-4.50 -0.60 0.83
-4.74 -0.60 0.78
-4.28 -0.55 0.87
-4.42 -0.54 0.84
-4.92 -0.56 0.75
-5.05 -0.55 0.72
-4.88 -0.52 0.75
-4.51 -0.48 0.82
-4.81 -0.48 0.77
-5.05 -0.48 0.72
-5.35 -0.48 0.66
-5.88 -0.49 0.56
-5.59 -0.46 0.62
-2.75 -0.29 1.16
-2.85 -0.28 1.14
-5.87 -0.41 0.56
-2.64 -0.24 1.18
-2.53 -0.23 1.20
-2.82 -0.23 1.14
-2.88 -0.21 1.13
-2.80 -0.20 1.15
-2.84 -0.19 1.14
-2.53 -0.16 1.20
-2.72 -0.16 1.16
-2.53 -0.14 1.20
-2.65 -0.13 1.17
-2.65 -0.12 1.17
-2.64 -0.10 1.18
-2.75 -0.09 1.15
-2.69 -0.08 1.17
-2.57 -0.07 1.19
-2.41 -0.05 1.22
-2.32 -0.04 1.23
-2.33 -0.03 1.23
-2.35 -0.02 1.23
-7.00 0.02 0.74
-7.17 0.05 0.71
-7.17 0.07 0.71
-7.69 0.09 0.60
-7.89 0.14 0.56
-7.29 0.16 0.68
-7.44 0.20 0.65
-7.48 0.24 0.64
-7.38 0.27 0.66
-7.33 0.31 0.67
-4.34 0.21 1.26
-7.66 0.40 0.60
-7.64 0.44 0.60
-7.48 0.46 0.64
-7.50 0.50 0.63
-4.60 0.34 1.20
-7.32 0.55 0.66
-7.62 0.59 0.60
-5.47 0.46 1.03
-4.84 0.43 1.15
-4.69 0.44 1.18
-4.82 0.48 1.15
-4.77 0.50 1.16
-4.91 0.54 1.13
-5.04 0.58 1.11
-4.88 0.59 1.14
-4.91 0.62 1.13
-5.06 0.66 1.10
-5.07 0.68 1.10
-5.13 0.70 1.08
-5.31 0.75 1.05
-5.48 0.80 1.01
-5.19 0.79 1.07
-5.19 0.81 1.07
-5.77 0.93 0.95
-5.82 0.96 0.94
-5.63 0.96 0.98
-5.47 0.97 1.00
-5.55 1.01 0.99
-5.23 0.98 1.05
-4.94 0.96 1.11
-5.07 1.04 1.08
-4.84 1.02 1.12
-4.68 1.02 1.15
-4.82 1.07 1.12
-4.79 1.09 1.13
-4.67 1.09 1.15
-4.40 1.06 1.20
-4.43 1.11 1.19
-4.52 1.16 1.18
-4.14 1.11 1.25
-4.74 1.34 1.12
-5.36 1.68 0.98
-5.24 -1.69 0.60
-5.11 -1.65 0.63
-5.11 -1.63 0.63
-5.07 -1.60 0.64
-5.12 -1.59 0.63
-5.26 -1.60 0.60
-1.96 -0.92 1.26
-5.51 -1.61 0.55
-5.60 -1.61 0.53
-5.44 -1.56 0.56
-5.54 -1.56 0.54
-5.55 -1.54 0.54
-5.63 -1.53 0.53
-5.65 -1.52 0.52
-5.48 -1.47 0.56
-5.59 -1.47 0.54
-3.46 -1.07 0.96
-5.57 -1.42 0.54
-5.47 -1.39 0.56
-5.32 -1.34 0.59
-5.52 -1.35 0.55
-5.43 -1.32 0.57
-5.41 -1.30 0.57
-5.35 -1.27 0.59
-4.04 -1.05 0.85
-5.29 -1.22 0.60
-5.26 -1.20 0.61
-5.40 -1.20 0.58
-5.75 -1.23 0.51
-5.66 -1.20 0.53
-5.44 -1.15 0.57
-5.80 -1.18 0.50
-3.63 -0.86 0.93
-3.44 -0.82 0.97
-3.87 -0.86 0.88
-3.77 -0.83 0.90
-4.09 -0.86 0.84
-4.30 -0.87 0.80
-4.54 -0.88 0.75
-4.42 -0.85 0.77
-3.93 -0.78 0.87
-4.06 -0.77 0.85
-3.98 -0.75 0.86
-4.02 -0.74 0.85
-4.22 -0.74 0.81
-3.90 -0.69 0.88
-3.81 -0.67 0.90
-4.13 -0.68 0.83
-3.96 -0.65 0.87
-3.91 -0.63 0.88
-4.00 -0.62 0.86
-4.16 -0.62 0.83
-4.09 -0.60 0.84
-4.21 -0.59 0.82
-4.15 -0.57 0.83
-4.27 -0.57 0.80
-4.26 -0.55 0.81
-4.30 -0.54 0.80
-4.28 -0.52 0.80
-4.49 -0.52 0.76
-4.34 -0.49 0.79
-4.43 -0.48 0.77
-4.57 -0.47 0.74
-4.84 -0.47 0.69
-4.47 -0.43 0.76
-4.29 -0.40 0.80
-4.50 -0.40 0.76
-4.98 -0.41 0.66
-5.13 -0.40 0.63
-5.49 -0.39 0.56
-5.95 -0.40 0.47
-6.08 -0.38 0.44
-5.92 -0.35 0.48
-5.77 -0.33 0.51
-7.11 -0.26 0.72
-7.17 -0.23 0.71
-7.27 -0.20 0.69
-7.27 -0.16 0.69
-7.19 -0.13 0.70
-7.08 -0.09 0.73
-7.14 -0.05 0.71
-7.38 -0.02 0.66
-2.02 -0.00 1.21
-1.93 0.01 1.23
-1.94 0.02 1.23
-1.74 0.03 1.27
-1.90 0.04 1.23
-1.84 0.05 1.25
-1.99 0.06 1.22
-2.02 0.07 1.21
-2.26 0.09 1.16
-2.64 0.11 1.08
-2.60 0.12 1.09
-2.07 0.12 1.20
-2.01 0.13 1.21
-2.18 0.15 1.17
-2.38 0.17 1.13
-2.27 0.17 1.16
-2.52 0.19 1.10
-2.55 0.21 1.10
-2.52 0.22 1.10
-2.51 0.23 1.10
-3.56 0.18 1.39
-3.49 0.19 1.40
-3.59 0.20 1.38
-3.59 0.21 1.38
-3.65 0.23 1.37
-3.52 0.23 1.39
-3.93 0.26 1.31
-3.50 0.25 1.39
-3.90 0.28 1.31
-3.77 0.28 1.34
-3.70 0.29 1.35
-3.66 0.29 1.36
-3.44 0.29 1.40
-3.40 0.29 1.41
-3.59 0.32 1.37
-3.72 0.34 1.35
-3.36 0.32 1.42
-3.63 0.35 1.36
-4.31 0.42 1.22
-3.65 0.37 1.36
-3.88 0.40 1.31
-4.62 0.48 1.16
-4.44 0.48 1.19
-4.66 0.51 1.15
-4.64 0.52 1.15
-4.57 0.53 1.17
-4.72 0.55 1.13
-4.64 0.56 1.15
-4.63 0.57 1.15
-4.71 0.59 1.13
-4.86 0.62 1.10
-4.79 0.62 1.12
-4.94 0.66 1.08
-4.77 0.65 1.12
-5.21 0.72 1.03
-5.00 0.71 1.07
-5.16 0.75 1.04
-5.39 0.80 0.99
-5.06 0.78 1.06
-5.37 0.85 0.99
-4.32 0.71 1.21
-4.44 0.73 1.18
-4.12 0.71 1.25
-4.17 0.73 1.24
-3.94 0.70 1.28
-3.86 0.70 1.30
-4.31 0.80 1.20
-4.16 0.78 1.24
-4.37 0.83 1.19
-4.28 0.82 1.21
-4.62 0.92 1.14
-4.27 0.87 1.21
-4.48 0.92 1.16
-4.21 0.88 1.22
-4.09 0.88 1.24
-4.23 0.92 1.21
-4.29 0.94 1.20
-4.35 1.02 1.18
-4.08 1.00 1.24
-4.21 1.05 1.21
-3.99 1.01 1.25
-3.79 1.01 1.29
-3.87 1.05 1.28
-4.15 1.13 1.21
-3.10 -1.59 0.98
-0.73 -0.73 1.48
-5.17 -1.69 0.55
-5.21 -1.64 0.55
-5.30 -1.64 0.53
-5.07 -1.57 0.58
-5.27 -1.60 0.53
-5.48 -1.62 0.49
-5.50 -1.60 0.49
-5.45 -1.57 0.50
-5.50 -1.56 0.49
-5.73 -1.57 0.44
-5.73 -1.55 0.44
-5.63 -1.51 0.46
-5.50 -1.47 0.49
-5.54 -1.45 0.48
-5.38 -1.41 0.52
-1.34 -0.69 1.36
-3.08 -0.97 1.00
-5.44 -1.36 0.51
-3.34 -0.99 0.94
-4.29 -1.11 0.74
-1.51 -0.66 1.32
-3.62 -0.98 0.88
-1.79 -0.68 1.27
-1.82 -0.67 1.26
-1.58 -0.63 1.31
-1.74 -0.64 1.28
-1.61 -0.61 1.30
-1.61 -0.60 1.30
-2.19 -0.67 1.18
-2.37 -0.68 1.15
-2.04 -0.63 1.21
-2.08 -0.62 1.21
-2.18 -0.62 1.19
-2.27 -0.62 1.17
-2.19 -0.60 1.18
-2.09 -0.58 1.20
-2.18 -0.58 1.18
-2.51 -0.61 1.12
-2.73 -0.62 1.07
-2.83 -0.62 1.05
-3.15 -0.64 0.98
-2.77 -0.58 1.06
-3.88 -0.69 0.83
-2.46 -0.53 1.13
-2.84 -0.55 1.05
-2.13 -0.47 1.20
-3.57 -0.60 0.90
-4.56 -0.67 0.69
-4.86 -0.68 0.63
-3.41 -0.54 0.93
-4.49 -0.62 0.71
-4.68 -0.62 0.67
-4.51 -0.58 0.70
-4.39 -0.56 0.73
-4.32 -0.54 0.74
-4.36 -0.52 0.73
-4.40 -0.51 0.73
-4.31 -0.49 0.74
-4.55 -0.48 0.69
-4.21 -0.45 0.76
-4.13 -0.42 0.78
-4.14 -0.41 0.78
-4.41 -0.41 0.72
-4.38 -0.39 0.73
-5.38 -0.43 0.52
-2.49 -0.26 1.12
-2.64 -0.26 1.09
-2.21 -0.22 1.18
-2.43 -0.22 1.13
-2.46 -0.21 1.12
-2.64 -0.21 1.09
-2.55 -0.19 1.11
-2.38 -0.17 1.14
-2.52 -0.16 1.11
-2.57 -0.15 1.10
-2.52 -0.14 1.11
-2.62 -0.13 1.09
-2.36 -0.11 1.14
-2.37 -0.10 1.14
-2.28 -0.09 1.16
-2.20 -0.07 1.18
-2.33 -0.06 1.15
-2.14 -0.05 1.19
-2.03 -0.04 1.21
-1.98 -0.03 1.22
-1.78 -0.01 1.26
-7.12 -0.00 0.58
-6.95 0.02 0.62
-7.06 0.03 0.59
-7.12 0.05 0.58
-7.03 0.07 0.60
-7.11 0.09 0.58
-7.24 0.11 0.55
-4.01 0.07 1.25
-7.31 0.14 0.54
-7.71 0.17 0.45
-7.54 0.19 0.49
-7.61 0.21 0.47
-3.80 0.12 1.29
-3.80 0.13 1.29
-3.88 0.14 1.27
-3.77 0.15 1.30
-3.74 0.16 1.30
-3.58 0.16 1.34
-3.57 0.17 1.34
-4.19 0.20 1.21
-3.88 0.20 1.27
-3.72 0.20 1.31
-3.81 0.22 1.29
-7.68 0.44 0.45
-4.18 0.26 1.21
-4.94 0.31 1.04
-4.83 0.32 1.06
-5.10 0.35 1.01
-4.77 0.34 1.08
-4.82 0.36 1.07
-5.05 0.39 1.01
-4.53 0.36 1.13
-5.69 0.46 0.88
-5.11 0.43 1.00
-4.86 0.42 1.05
-4.92 0.44 1.04
-5.10 0.47 1.00
-5.21 0.49 0.98
-4.82 0.47 1.06
-4.81 0.48 1.06
-4.91 0.50 1.04
-4.88 0.51 1.05
-5.15 0.55 0.99
-4.84 0.53 1.05
-4.86 0.55 1.05
-5.00 0.58 1.02
-4.93 0.58 1.03
-4.90 0.59 1.04
-5.04 0.62 1.01
-4.99 0.63 1.02
-5.09 0.65 1.00
-5.23 0.68 0.96
-5.32 0.71 0.94
-5.25 0.71 0.96
-5.35 0.74 0.94
-5.26 0.74 0.95
-5.30 0.76 0.95
-5.43 0.79 0.92
-5.31 0.79 0.94
-5.48 0.83 0.90
-5.53 0.85 0.89
-5.53 0.86 0.89
-5.42 0.86 0.91
-5.29 0.86 0.94
-5.21 0.86 0.96
-5.20 0.87 0.96
-5.07 0.86 0.99
-4.90 0.85 1.02
-4.69 0.83 1.07
-4.71 0.84 1.07
-4.85 0.88 1.03
-4.61 0.85 1.09
-4.71 0.88 1.06
-4.59 0.87 1.09
-4.64 0.89 1.08
-4.68 0.91 1.07
-4.99 0.98 1.00
-4.90 0.98 1.02
-4.78 0.97 1.04
-4.83 0.99 1.03
-4.68 0.98 1.06
-4.92 1.04 1.01
-4.77 1.02 1.04
-4.91 1.06 1.01
-5.37 1.17 0.91
-4.74 1.05 1.05
-5.00 1.12 0.99
-5.19 1.17 0.94
-5.17 1.18 0.95
-5.22 1.21 0.94
-5.27 1.23 0.92
-4.88 1.16 1.01
-4.85 1.17 1.02
-4.96 1.21 0.99
-4.84 1.19 1.01
-4.52 1.13 1.09
-4.50 1.14 1.09
-4.22 1.09 1.15
-4.04 1.06 1.19
-4.29 1.13 1.13
-4.10 1.10 1.17
-4.12 1.11 1.17
-4.12 1.12 1.17
-4.04 1.11 1.19
-4.34 1.20 1.12
-4.33 1.21 1.12
-4.40 1.24 1.10
-4.32 1.23 1.12
-4.69 1.34 1.03
-4.48 1.30 1.08
-4.86 -1.67 0.54
-4.88 -1.66 0.53
-2.04 -1.02 1.16
-1.75 -0.95 1.22
-4.92 -1.61 0.52
-1.96 -0.97 1.17
-1.94 -0.95 1.18
-5.05 -1.58 0.50
-3.09 -1.16 0.93
-3.02 -1.14 0.94
-2.71 -1.06 1.01
-2.93 -1.09 0.96
-2.99 -1.09 0.95
-2.98 -1.07 0.95
-3.16 -1.09 0.91
-3.03 -1.06 0.94
-3.17 -1.07 0.91
-3.29 -1.07 0.89
-2.99 -1.01 0.95
-3.09 -1.01 0.93
-3.44 -1.06 0.86
-3.07 -0.98 0.94
-3.01 -0.96 0.95
-3.07 -0.95 0.94
-2.75 -0.89 1.00
-2.96 -0.91 0.96
-3.24 -0.94 0.90
-3.19 -0.92 0.91
-3.01 -0.87 0.95
-2.88 -0.84 0.98
-2.90 -0.83 0.97
-3.07 -0.84 0.94
-3.97 -0.96 0.74
-4.75 -1.05 0.57
-3.30 -0.83 0.89
-4.14 -0.93 0.70
-4.41 -0.95 0.65
-3.14 -0.77 0.92
-3.19 -0.76 0.91
-3.12 -0.74 0.93
-3.31 -0.75 0.88
-3.16 -0.72 0.92
-2.99 -0.68 0.96
-4.22 -0.81 0.69
-3.26 -0.68 0.90
-4.10 -0.77 0.71
-3.68 -0.70 0.81
-3.04 -0.62 0.94
-2.94 -0.59 0.97
-4.53 -0.74 0.62
-4.82 -0.76 0.56
-4.75 -0.73 0.57
-4.39 -0.68 0.65
-4.30 -0.65 0.67
-4.46 -0.65 0.64
-3.67 -0.55 0.81
-4.69 -0.62 0.59
-4.57 -0.59 0.61
-4.57 -0.56 0.61
-4.56 -0.54 0.62
-4.65 -0.53 0.60
-4.47 -0.50 0.64
-4.66 -0.49 0.59
-4.54 -0.47 0.62
-4.46 -0.45 0.64
-4.50 -0.42 0.63
-7.20 -0.41 0.57
-6.96 -0.38 0.62
-7.28 -0.38 0.55
-7.13 -0.35 0.59
-7.01 -0.33 0.61
-7.08 -0.32 0.59
-7.13 -0.30 0.58
-7.09 -0.28 0.59
-6.96 -0.26 0.62
-6.93 -0.24 0.63
-6.88 -0.22 0.64
-6.89 -0.21 0.64
-6.89 -0.19 0.63
-6.79 -0.17 0.66
-6.67 -0.15 0.68
-7.05 -0.14 0.60
-6.98 -0.12 0.62
-7.12 -0.11 0.58
-6.81 -0.09 0.65
-7.00 -0.07 0.61
-6.97 -0.05 0.62
-6.77 -0.03 0.66
-7.19 -0.02 0.57
-1.97 -0.00 1.13
-1.91 0.01 1.14
-2.16 0.02 1.09
-6.68 0.05 0.61
-6.84 0.07 0.58
-6.89 0.08 0.56
-6.85 0.10 0.57
-7.02 0.12 0.53
-3.71 0.08 1.28
-7.28 0.16 0.47
-3.39 0.09 1.35
-3.29 0.09 1.37
-3.41 0.11 1.34
-3.41 0.12 1.34
-3.30 0.12 1.37
-3.90 0.15 1.23
-3.73 0.15 1.27
-3.55 0.16 1.31
-3.98 0.18 1.21
-3.85 0.19 1.24
-3.26 0.17 1.37
-3.27 0.18 1.37
-5.08 0.28 0.96
-3.43 0.21 1.33
-4.84 0.29 1.02
-5.00 0.32 0.98
-4.17 0.28 1.17
-4.67 0.32 1.05
-4.59 0.33 1.07
-4.39 0.33 1.12
-3.88 0.30 1.23
-3.94 0.31 1.22
-4.22 0.35 1.15
-4.33 0.37 1.13
-4.46 0.39 1.10
-4.40 0.39 1.11
-4.44 0.41 1.10
-4.55 0.43 1.08
-4.46 0.43 1.10
-4.16 0.42 1.16
-4.84 0.49 1.01
-4.63 0.48 1.06
-4.84 0.52 1.01
-4.93 0.54 0.99
-4.71 0.53 1.04
-4.79 0.55 1.02
-4.77 0.56 1.02
-4.89 0.59 0.99
-4.77 0.59 1.02
-4.94 0.62 0.98
-5.09 0.65 0.95
-4.51 0.59 1.08
-5.18 0.69 0.92
-5.06 0.68 0.95
-4.86 0.67 0.99
-5.15 0.72 0.93
-4.95 0.71 0.97
-5.18 0.75 0.92
-5.19 0.77 0.92
-5.36 0.81 0.88
-5.11 0.78 0.93
-5.37 0.84 0.87
-4.97 0.79 0.97
-4.65 0.75 1.04
-4.37 0.73 1.10
-4.78 0.80 1.01
-4.44 0.76 1.08
-4.40 0.77 1.09
-4.33 0.76 1.11
-4.43 0.79 1.08
-4.49 0.82 1.07
-3.99 0.74 1.18
-4.24 0.80 1.12
-4.39 0.83 1.09
-4.28 0.83 1.11
-4.28 0.84 1.11
-4.37 0.87 1.09
-4.27 0.86 1.11
-4.49 0.91 1.06
-4.38 0.90 1.09
-4.32 0.90 1.10
-4.13 0.88 1.14
-4.55 0.97 1.05
-4.17 0.91 1.13
-4.48 0.98 1.06
-4.31 0.96 1.10
-4.43 1.00 1.07
-4.78 -1.56 0.49
-1.74 -0.91 1.18
-1.71 -0.89 1.19
-1.77 -0.89 1.18
-1.96 -0.92 1.13
-4.06 -1.32 0.65
-4.65 -1.42 0.52
-3.36 -1.16 0.81
-3.05 -1.08 0.89
-2.83 -1.01 0.94
-2.87 -1.01 0.93
-3.65 -1.14 0.75
-2.94 -1.00 0.91
-3.00 -0.99 0.90
-2.91 -0.96 0.92
-2.68 -0.91 0.97
-2.88 -0.93 0.93
-2.41 -0.84 1.03
-2.73 -0.88 0.96
-2.76 -0.87 0.95
-2.74 -0.85 0.96
-2.65 -0.83 0.98
-2.51 -0.79 1.01
-2.66 -0.80 0.98
-2.78 -0.81 0.95
-2.75 -0.79 0.96
-2.55 -0.75 1.00
-2.36 -0.71 1.05
-2.44 -0.71 1.03
-2.84 -0.75 0.94
-2.78 -0.73 0.95
-2.82 -0.72 0.94
-2.74 -0.70 0.96
-2.90 -0.71 0.92
-2.51 -0.65 1.01
-2.49 -0.63 1.02
-2.64 -0.64 0.98
-2.33 -0.59 1.05
-2.66 -0.61 0.98
-2.54 -0.59 1.01
-2.61 -0.58 0.99
-2.52 -0.56 1.01
-2.48 -0.54 1.02
-2.64 -0.55 0.98
-2.64 -0.54 0.98
-2.79 -0.54 0.95
-3.04 -0.55 0.89
-2.99 -0.53 0.90
-3.16 -0.53 0.87
-3.24 -0.53 0.85
-4.84 -0.65 0.49
-4.87 -0.63 0.48
-4.59 -0.59 0.54
-4.54 -0.57 0.55
-4.49 -0.55 0.57
-4.50 -0.53 0.56
-4.55 -0.52 0.55
-4.50 -0.50 0.56
-4.67 -0.49 0.52
-4.59 -0.47 0.54
-4.70 -0.46 0.52
-4.55 -0.44 0.55
-4.67 -0.42 0.52
-5.25 -0.44 0.39
-5.01 -0.41 0.45
-2.44 -0.26 1.03
-5.18 -0.38 0.41
-5.22 -0.36 0.40
-5.04 -0.34 0.44
-5.02 -0.32 0.44
-5.14 -0.30 0.42
-5.06 -0.28 0.43
-2.38 -0.16 1.04
-2.19 -0.14 1.08
-2.25 -0.13 1.07
-2.22 -0.12 1.08
-1.99 -0.10 1.13
-1.99 -0.09 1.13
-6.02 -0.15 0.22
-2.02 -0.02 1.12
-6.80 0.03 0.52
-6.88 0.05 0.50
-6.83 0.07 0.51
-7.14 0.09 0.44
-7.25 0.11 0.41
-7.23 0.12 0.41
-7.16 0.16 0.43
-7.21 0.18 0.42
-5.75 0.48 0.75
-5.80 0.60 0.73
-5.31 0.58 0.84
-5.41 0.60 0.82
-5.49 0.63 0.80
-5.85 0.68 0.72
-5.94 0.70 0.69
-5.84 0.71 0.72
-5.66 0.70 0.76
-5.65 0.71 0.76
-5.71 0.74 0.74
-5.49 0.73 0.80
-5.05 0.68 0.90
-5.34 0.73 0.83
-5.16 0.72 0.87
-5.19 0.74 0.86
-5.35 0.78 0.83
-5.40 0.80 0.81
-5.44 0.82 0.80
-5.43 0.83 0.81
-5.49 0.85 0.79
-5.39 0.85 0.81
-5.27 0.85 0.84
-5.35 0.88 0.82
-5.17 0.86 0.86
-5.22 0.88 0.85
-5.01 0.86 0.90
-4.90 0.86 0.93
-5.11 0.91 0.87
-5.03 0.91 0.89
-5.25 0.96 0.84
-4.82 0.90 0.94
-4.58 0.87 1.00
-4.78 0.92 0.95
-4.66 0.91 0.98
-4.46 0.88 1.02
-4.67 -1.43 0.44
-4.68 -1.38 0.44
-4.75 -1.36 0.42
-4.82 -1.35 0.41
-3.31 -1.00 0.77
-2.99 -0.94 0.85
-2.94 -0.92 0.86
-3.21 -0.95 0.79
-3.09 -0.91 0.82
-2.99 -0.88 0.85
-3.35 -0.92 0.76
-3.29 -0.90 0.78
-3.22 -0.88 0.79
-3.36 -0.88 0.76
-3.39 -0.87 0.75
-3.38 -0.86 0.76
-2.81 -0.75 0.89
-2.85 -0.74 0.88
-3.21 -0.78 0.80
-2.48 -0.67 0.97
-2.85 -0.70 0.88
-4.82 -0.93 0.42
-4.79 -0.91 0.42
-4.86 -0.90 0.41
-3.10 -0.65 0.82
-2.89 -0.61 0.87
-2.88 -0.60 0.88
-3.43 -0.63 0.75
-3.29 -0.60 0.78
-3.36 -0.58 0.76
-5.05 -0.72 0.36
-4.66 -0.67 0.46
-4.12 -0.60 0.58
-4.12 -0.59 0.58
-4.44 -0.60 0.51
-4.54 -0.59 0.48
-4.52 -0.57 0.49
-4.69 -0.55 0.45
-4.58 -0.52 0.48
-4.58 -0.51 0.48
-4.78 -0.50 0.43
-5.00 -0.50 0.37
-4.93 -0.24 0.39
-6.59 -0.08 0.57
-1.95 0.85 0.27
