# .PCD v0.7 - Point Cloud Data file format
VERSION 0.7
FIELDS x y z
SIZE 4 4 4
TYPE F F F
COUNT 1 1 1
WIDTH 218
HEIGHT 1
VIEWPOINT 0 0 0 1 0 0 0
POINTS 218
DATA ASCII
-10.79 -0.78 0.82
-10.76 -0.72 0.82
-10.95 -0.70 0.80
-8.71 0.00 0.97
-8.68 0.03 0.97
-8.66 0.05 0.98
-8.63 0.08 0.98
-8.59 0.10 0.98
-8.55 0.13 0.99
-8.50 0.15 0.99
-8.48 0.18 0.99
-8.46 0.20 1.00
-8.45 0.23 1.00
-8.43 0.25 1.00
-8.44 0.28 1.00
-8.43 0.30 1.00
-8.42 0.32 1.00
-8.42 0.35 1.00
-8.42 0.37 1.00
-8.41 0.40 1.00
-8.41 0.42 1.00
-8.40 0.45 1.00
-8.41 0.47 1.00
-8.96 -0.13 0.94
-8.86 -0.10 0.95
-8.79 -0.07 0.96
-8.76 -0.05 0.97
-8.74 -0.02 0.97
-8.43 0.00 0.86
-8.41 0.03 0.86
-11.20 -0.69 0.51
-11.21 -0.65 0.51
-9.63 -0.33 0.71
-9.43 -0.24 0.73
-9.31 -0.21 0.75
-9.34 -0.19 0.74
-8.85 -0.15 0.81
-8.53 -0.12 0.85
-8.48 -0.10 0.85
-8.46 -0.07 0.86
-8.46 -0.05 0.85
-8.43 -0.02 0.86
-12.34 -0.92 0.26
-12.31 -0.85 0.27
-12.12 -0.80 0.29
-11.54 -0.74 0.37
-11.60 -0.71 0.36
-11.75 -0.68 0.34
-9.63 -0.33 0.62
-9.55 -0.30 0.64
-9.40 -0.27 0.66
-9.40 -0.24 0.66
-9.34 -0.21 0.66
-9.29 -0.18 0.67
-8.45 0.00 0.71
-8.45 0.03 0.71
-8.44 0.05 0.71
-8.41 0.08 0.71
-8.40 0.10 0.71
-8.39 0.12 0.71
-8.39 0.15 0.71
-8.36 0.17 0.72
-8.32 0.20 0.72
-8.27 0.22 0.73
-8.26 0.24 0.73
-11.40 -0.70 0.29
-11.33 -0.66 0.30
-9.95 -0.48 0.50
-9.86 -0.42 0.51
-9.78 -0.39 0.52
-9.37 -0.32 0.58
-9.30 -0.29 0.59
-9.28 -0.27 0.59
-9.26 -0.24 0.59
-9.12 -0.21 0.61
-9.14 -0.18 0.61
-9.25 -0.16 0.59
-8.60 -0.12 0.69
-8.55 -0.10 0.69
-8.51 -0.07 0.70
-8.48 -0.05 0.70
-8.45 -0.02 0.71
-8.33 0.02 0.57
-8.32 0.07 0.57
-8.32 0.10 0.57
-8.30 0.12 0.57
-8.29 0.15 0.57
-8.30 0.17 0.57
-8.29 0.22 0.57
-8.27 0.27 0.57
-8.27 0.29 0.57
-8.26 0.32 0.58
-8.25 0.34 0.58
-8.23 0.36 0.58
-8.24 0.41 0.58
-8.24 0.46 0.58
-8.72 -0.13 0.51
-8.52 -0.10 0.54
-8.41 -0.07 0.56
-8.38 -0.05 0.56
-8.35 -0.02 0.57
-8.44 -0.00 0.38
-8.40 0.02 0.39
-8.39 0.05 0.39
-8.88 -0.16 0.31
-8.78 -0.13 0.32
-8.79 -0.10 0.32
-8.74 -0.08 0.33
-8.62 -0.05 0.35
-8.48 -0.03 0.38
-3.18 -0.49 1.16
-1.69 0.88 0.60
-1.72 0.92 0.58
-2.34 0.82 0.57
-1.59 1.09 0.56
-2.95 0.34 0.57
-2.90 0.65 0.57
-2.74 0.67 0.54
-1.76 0.92 0.52
-2.72 0.66 0.51
-2.43 0.88 0.51
-4.33 0.20 0.51
-2.79 0.69 0.46
-2.30 0.72 0.47
-2.39 0.86 0.47
-1.76 -0.70 0.48
-2.62 0.62 0.42
-2.45 0.90 0.42
-2.13 0.88 0.43
-2.90 0.65 0.39
-2.26 0.91 0.41
-1.91 1.14 0.41
-1.56 0.83 0.43
-2.78 0.76 0.36
-2.47 0.69 0.38
-2.39 0.86 0.38
-2.11 0.79 0.40
-1.91 0.74 0.41
-1.80 0.89 0.41
-3.66 0.48 0.29
-2.87 0.64 0.34
-2.87 0.90 0.33
-2.39 0.86 0.36
-2.20 0.80 0.37
-1.88 0.77 0.39
-3.45 0.54 0.27
-2.83 0.55 0.32
-2.72 0.66 0.32
-2.82 0.78 0.31
-1.30 -0.88 0.42
-2.22 -0.81 0.37
-3.30 0.41 0.25
-2.98 0.68 0.27
-2.77 0.76 0.29
-2.60 0.83 0.30
-2.31 0.74 0.33
-1.75 1.20 0.34
-3.14 0.38 0.24
-2.83 0.79 0.26
-2.60 0.92 0.27
-2.42 0.88 0.29
-2.17 0.92 0.31
-1.90 0.80 0.35
-1.07 -0.98 0.39
-2.92 0.66 0.23
-3.01 0.78 0.21
-2.84 0.79 0.23
-2.81 0.87 0.23
-2.57 0.82 0.26
-2.30 0.87 0.28
-2.02 0.85 0.32
-2.51 1.03 0.23
-2.07 0.82 0.29
-2.66 0.79 0.20
-2.31 0.80 0.25
-2.34 0.98 0.23
-2.01 0.77 0.29
-1.96 0.79 0.29
-1.93 0.83 0.29
-1.58 1.09 0.29
-2.39 0.71 0.22
-2.30 0.87 0.22
-1.88 0.84 0.28
-1.58 0.86 0.31
-2.29 0.79 0.21
-2.22 0.81 0.22
-2.20 0.87 0.22
-2.11 0.94 0.22
-1.81 0.99 0.25
-1.61 0.83 0.30
-1.44 0.83 0.31
-1.37 -1.06 0.30
-2.22 0.81 0.20
-2.12 0.88 0.21
-2.07 0.90 0.21
-1.99 0.98 0.21
-1.04 -0.86 0.33
-2.09 0.84 0.20
-2.03 0.86 0.21
-1.84 0.80 0.25
-1.67 1.06 0.22
-1.08 -0.82 0.32
-1.39 -0.79 0.31
-1.88 0.85 0.22
-1.83 0.86 0.22
-1.74 0.81 0.23
-1.62 0.85 0.24
-1.57 0.84 0.25
-1.55 -0.90 0.25
-2.02 -0.51 0.23
-1.66 0.84 0.22
-1.56 0.84 0.22
-1.30 -0.88 0.23
-1.43 -0.82 0.23
-1.02 -0.76 0.24
-1.07 -0.89 0.21
-1.25 -0.78 0.22
-1.12 -0.79 0.21
