# .PCD v0.7 - Point Cloud Data file format
VERSION 0.7
FIELDS x y z
SIZE 4 4 4
TYPE F F F
COUNT 1 1 1
WIDTH 2349
HEIGHT 1
VIEWPOINT 0 0 0 1 0 0 0
POINTS 2349
DATA ASCII
-1.85 -1.41 2.30
-1.48 -0.90 2.24
-2.05 -0.95 2.25
-2.20 -0.87 2.25
-1.99 -1.11 2.22
-2.14 -1.06 2.22
-2.11 -1.04 2.22
-2.17 -1.02 2.22
-2.12 -0.99 2.22
-1.99 -0.86 2.22
-1.79 -0.77 2.21
-4.78 -1.06 2.23
-2.05 -1.62 2.14
-2.23 -1.55 2.14
-2.06 -1.43 2.14
-2.03 -1.31 2.14
-2.22 -1.30 2.13
-2.19 -1.25 2.13
-2.44 -1.28 2.13
-2.28 -1.22 2.13
-2.25 -1.19 2.13
-2.10 -1.08 2.13
-2.33 -1.05 2.13
-2.50 -1.06 2.13
-3.10 -0.96 2.12
-1.83 -0.54 2.13
-1.82 -0.50 2.13
-9.16 -0.89 1.91
-9.34 -0.79 1.91
-8.23 0.68 1.91
-1.83 -1.44 2.06
-2.06 -1.34 2.05
-1.99 -1.28 2.05
-2.06 -1.10 2.05
-9.72 -0.61 1.74
-15.99 -0.18 1.58
-15.98 -0.14 1.58
-9.70 -0.81 1.69
-9.81 -0.79 1.69
-9.90 -0.76 1.68
-9.48 -0.65 1.70
-9.71 -0.55 1.69
-9.01 0.41 1.76
-15.97 0.75 1.45
-2.25 -1.68 1.97
-2.68 -1.33 1.95
-9.10 -0.94 1.67
-9.38 -0.91 1.66
-9.50 -0.86 1.65
-9.66 -0.72 1.64
-9.63 -0.69 1.65
-9.64 -0.63 1.65
-1.99 -1.27 1.97
-9.61 -0.75 1.60
-15.85 0.01 1.32
-15.87 0.05 1.32
-8.20 0.41 1.72
-8.39 0.49 1.71
-1.99 -1.55 1.94
-2.31 -1.64 1.93
-2.16 -1.56 1.93
-2.28 -1.58 1.93
-2.28 -1.56 1.93
-2.23 -1.46 1.93
-2.42 -1.48 1.92
-1.99 -1.33 1.94
-2.11 -1.34 1.94
-2.54 -1.42 1.92
-2.17 -1.31 1.93
-2.04 -1.26 1.94
-2.24 -1.28 1.93
-2.32 -1.26 1.93
-2.35 -1.26 1.93
-2.15 -1.16 1.94
-2.35 -1.17 1.93
-2.49 -1.19 1.92
-2.54 -1.19 1.92
-2.42 -1.15 1.92
-2.43 -1.14 1.92
-2.33 -1.03 1.93
-3.91 -1.32 1.84
-3.83 -1.08 1.85
-4.03 -1.10 1.84
-3.88 -1.06 1.85
-3.94 -1.05 1.84
-3.85 -1.02 1.85
-3.81 -1.00 1.85
-1.76 -0.67 1.96
-4.08 -0.99 1.84
-4.14 -0.98 1.83
-3.82 -0.91 1.85
-2.43 -0.65 1.92
-2.62 -0.64 1.91
-2.26 -0.54 1.93
-9.34 -0.99 1.56
-9.44 -0.97 1.55
-1.86 -0.33 1.95
-9.62 -0.87 1.54
-9.52 -0.83 1.55
-9.29 -0.79 1.56
-9.30 -0.76 1.56
-9.44 -0.68 1.55
-9.79 -0.54 1.64
-9.86 -0.52 1.64
-9.94 -0.50 1.64
-9.84 -0.48 1.64
-9.94 -0.43 1.64
-5.04 -0.09 1.90
-6.54 -0.03 1.82
-15.59 0.20 1.27
-8.54 0.47 1.67
-1.58 -1.66 1.95
-1.84 -1.43 1.93
-1.93 -1.44 1.93
-2.19 -1.43 1.91
-2.27 -1.41 1.91
-2.08 -1.32 1.92
-2.27 -1.34 1.91
-2.02 -1.26 1.92
-2.26 -1.31 1.91
-1.99 -1.23 1.93
-1.82 -1.14 1.94
-2.16 -1.10 1.92
-2.27 -1.07 1.91
-0.98 -0.60 1.98
-2.03 -0.66 1.92
-9.51 -0.74 1.50
-15.85 0.01 1.18
-15.97 0.09 1.17
-15.70 0.13 1.19
-15.81 0.16 1.18
-15.65 0.20 1.19
-15.96 0.24 1.17
-15.71 0.28 1.19
-15.72 0.32 1.18
-8.44 0.34 1.63
-8.47 0.36 1.63
-8.36 0.38 1.64
-8.38 0.40 1.64
-8.34 0.44 1.64
-8.35 0.46 1.64
-8.48 0.49 1.63
-8.31 0.50 1.64
-4.13 -1.32 1.77
-4.37 -1.34 1.76
-3.94 -1.11 1.78
-3.64 -1.05 1.80
-3.70 -1.02 1.80
-3.85 -1.03 1.79
-3.65 -0.99 1.80
-3.81 -1.00 1.79
-9.80 -1.03 1.43
-9.62 -0.95 1.44
-9.62 -0.84 1.44
-9.48 -0.80 1.44
-9.52 -0.77 1.44
-9.51 -0.74 1.44
-9.28 -0.70 1.46
-9.40 -0.42 1.45
-15.57 -0.06 1.20
-15.65 -0.03 1.19
-4.95 0.01 1.68
-5.80 0.21 1.62
-6.91 0.28 1.69
-8.27 0.50 1.60
-1.62 -1.67 1.90
-1.64 -1.67 1.90
-1.84 -1.64 1.89
-1.78 -1.60 1.89
-1.81 -1.33 1.89
-1.82 -1.31 1.89
-1.67 -1.26 1.90
-3.74 -1.12 1.76
-3.66 -1.05 1.77
-3.80 -1.02 1.76
-0.96 -0.53 1.95
-1.68 -0.59 1.90
-1.89 -0.58 1.89
-10.24 -1.25 1.33
-9.80 -1.06 1.36
-9.54 -0.83 1.38
-9.63 -0.81 1.37
-9.27 -0.76 1.39
-9.28 -0.73 1.39
-9.33 -0.70 1.39
-9.28 -0.67 1.39
-15.45 0.01 1.04
-15.38 0.05 1.05
-6.30 0.04 1.70
-15.17 0.12 1.06
-6.58 0.07 1.68
-5.56 0.07 1.75
-6.75 0.11 1.67
-6.88 0.12 1.66
-15.18 0.30 1.06
-15.06 0.34 1.07
-6.90 0.21 1.66
-6.39 0.21 1.69
-8.44 0.30 1.54
-8.25 0.31 1.56
-9.09 0.39 1.50
-9.19 0.41 1.49
-7.35 0.35 1.62
-7.15 0.36 1.64
-7.93 0.42 1.58
-8.50 0.47 1.54
-8.44 0.49 1.54
-7.12 0.81 1.63
-2.29 -1.62 1.83
-2.28 -1.47 1.83
-2.53 -1.44 1.81
-2.42 -1.33 1.82
-2.60 -1.32 1.81
-3.87 -1.23 1.72
-4.06 -1.25 1.71
-4.13 -1.24 1.70
-4.17 -1.23 1.70
-3.81 -1.15 1.73
-3.95 -1.15 1.71
-3.79 -1.10 1.73
-3.84 -1.10 1.72
-3.88 -1.09 1.72
-3.67 -1.04 1.73
-3.83 -1.05 1.72
-3.78 -1.02 1.73
-3.64 -0.99 1.74
-3.82 -1.00 1.72
-3.93 -1.00 1.72
-1.97 -0.59 1.86
-2.04 -0.59 1.85
-1.83 -0.55 1.87
-1.83 -0.53 1.87
-4.98 -0.74 1.64
-10.02 -1.20 1.28
-9.78 -1.00 1.30
-10.53 -1.03 1.24
-9.46 -0.77 1.32
-9.57 -0.75 1.31
-9.54 -0.66 1.31
-9.03 -0.44 1.35
-6.01 -0.22 1.72
-9.97 -0.34 1.44
-10.01 -0.31 1.44
-5.40 -0.16 1.77
-5.24 -0.13 1.78
-10.05 -0.21 1.43
-5.79 -0.11 1.74
-10.00 -0.16 1.44
-5.67 -0.08 1.75
-9.95 -0.12 1.44
-15.33 -0.14 1.05
-6.15 0.13 1.51
-6.10 0.15 1.51
-5.93 0.21 1.52
-5.85 0.25 1.53
-5.94 0.27 1.52
-6.11 0.30 1.51
-5.96 0.31 1.52
-6.04 0.34 1.51
-5.92 0.37 1.52
-5.69 0.38 1.54
-1.54 -1.68 1.86
-1.75 -1.68 1.85
-1.62 -1.62 1.86
-1.74 -1.48 1.85
-1.73 -0.57 1.85
-1.73 -0.51 1.85
-2.03 -0.49 1.83
-5.74 0.00 1.68
-5.66 0.03 1.68
-14.98 0.23 0.91
-15.44 0.31 0.87
-6.27 0.18 1.63
-8.57 0.26 1.44
-8.54 0.28 1.44
-8.93 0.31 1.41
-5.77 0.22 1.67
-5.23 0.23 1.71
-6.86 0.36 1.58
-6.53 0.43 1.60
-6.41 0.55 1.61
-6.68 0.78 1.59
-6.29 0.79 1.62
-2.09 -1.65 1.79
-2.06 -1.63 1.79
-2.15 -1.63 1.79
-2.13 -1.59 1.79
-2.44 -1.68 1.76
-1.86 -1.45 1.81
-1.77 -1.36 1.82
-2.42 -1.53 1.76
-2.20 -1.45 1.78
-2.30 -1.46 1.77
-2.75 -1.53 1.74
-2.10 -1.33 1.79
-2.22 -1.33 1.78
-2.20 -1.32 1.78
-1.81 -1.20 1.82
-2.51 -1.36 1.76
-2.48 -1.33 1.76
-2.41 -1.30 1.77
-2.42 -1.29 1.77
-2.69 -1.34 1.74
-2.22 -1.19 1.78
-2.20 -1.11 1.79
-3.44 -1.37 1.68
-2.85 -1.16 1.73
-2.45 -1.06 1.77
-3.90 -1.30 1.65
-4.21 -1.33 1.62
-3.88 -1.25 1.65
-4.02 -1.26 1.64
-3.81 -1.20 1.65
-3.55 -1.12 1.68
-3.70 -1.14 1.66
-3.69 -1.12 1.66
-3.99 -1.16 1.64
-3.96 -1.13 1.64
-3.63 -1.06 1.67
-3.72 -1.02 1.66
-3.83 -1.02 1.65
-3.83 -1.00 1.65
-3.80 -0.95 1.66
-2.19 -0.70 1.79
-2.22 -0.67 1.79
-2.04 -0.62 1.80
-10.34 -1.45 1.12
-2.36 -0.55 1.77
-2.08 -0.46 1.80
-2.06 -0.44 1.80
-7.76 -0.84 1.33
-10.79 -1.02 1.08
-10.42 -0.89 1.11
-4.66 -0.27 1.77
-9.64 -0.52 1.36
-4.95 -0.25 1.74
-9.74 -0.45 1.35
-6.46 -0.29 1.62
-9.87 -0.41 1.34
-9.71 -0.38 1.35
-9.93 -0.36 1.33
-5.67 -0.20 1.68
-10.15 -0.32 1.31
-5.52 -0.16 1.70
-5.47 -0.15 1.70
-5.77 -0.14 1.67
-10.25 -0.22 1.30
-5.15 -0.10 1.73
-5.35 -0.09 1.71
-10.37 -0.12 1.29
-13.52 -0.02 1.03
-4.19 0.00 1.58
-5.04 0.02 1.51
-8.90 0.27 1.36
-8.55 0.36 1.39
-0.74 -1.60 1.88
-1.70 -1.60 1.80
-2.32 -1.68 1.74
-1.83 -1.42 1.79
-1.88 -1.18 1.79
-4.07 -1.31 1.60
-1.90 -0.52 1.79
-2.24 -0.52 1.76
-10.32 -0.79 1.05
-10.49 -0.77 1.03
-4.92 -0.41 1.52
-4.70 -0.15 1.54
-4.80 -0.07 1.53
-4.77 -0.05 1.53
-4.84 -0.01 1.52
-5.59 0.06 1.62
-6.08 0.11 1.57
-5.62 0.12 1.62
-8.74 0.20 1.32
-6.55 0.20 1.53
-6.39 0.24 1.54
-6.44 0.26 1.54
-6.50 0.30 1.53
-6.61 0.32 1.52
-6.42 0.33 1.54
-5.57 0.31 1.62
-9.78 0.56 1.22
-6.26 0.40 1.55
-7.10 0.48 1.47
-7.36 0.70 1.44
-5.85 0.61 1.59
-0.96 -1.69 1.84
-2.07 -1.61 1.74
-2.39 -1.58 1.71
-2.16 -1.48 1.73
-2.40 -1.54 1.71
-2.43 -1.52 1.71
-1.92 -1.34 1.75
-2.35 -1.44 1.71
-2.92 -1.58 1.66
-2.27 -1.36 1.72
-2.45 -1.34 1.71
-2.52 -1.35 1.70
-3.84 -1.38 1.58
-3.84 -1.35 1.58
-3.85 -1.29 1.58
-4.01 -1.30 1.56
-4.03 -1.27 1.56
-3.73 -1.20 1.59
-3.89 -1.21 1.57
-3.84 -1.19 1.58
-3.82 -1.17 1.58
-3.93 -1.17 1.57
-3.63 -1.11 1.60
-3.84 -1.11 1.58
-3.75 -1.07 1.59
-9.96 -1.28 1.01
-10.09 -1.27 0.99
-10.11 -1.24 0.99
-2.31 -0.44 1.72
-4.54 -0.61 1.51
-5.12 -0.48 1.46
-10.35 -0.77 0.97
-10.30 -0.70 0.97
-10.31 -0.67 0.97
-5.08 -0.35 1.46
-4.83 -0.32 1.48
-7.09 -0.37 1.27
-4.51 -0.25 1.51
-4.68 -0.22 1.50
-4.58 -0.20 1.51
-4.64 -0.19 1.50
-4.53 -0.17 1.51
-4.65 -0.15 1.50
-4.79 -0.14 1.49
-9.90 -0.14 1.22
-12.79 -0.02 0.94
-4.66 0.00 1.45
-5.27 0.02 1.39
-5.73 0.06 1.34
-5.86 0.08 1.33
-1.59 0.05 1.76
-5.33 0.12 1.38
-5.38 0.14 1.38
-5.65 0.16 1.35
-5.35 0.18 1.38
-9.42 0.24 1.20
-9.02 0.25 1.24
-9.47 0.28 1.19
-9.18 0.32 1.22
-8.93 0.36 1.25
-8.90 0.38 1.25
-5.13 0.24 1.63
-9.47 0.45 1.19
-6.06 0.31 1.54
-6.40 0.34 1.50
-6.16 0.34 1.52
-6.11 0.36 1.53
-6.01 0.37 1.54
-6.09 0.39 1.53
-6.01 0.40 1.54
-6.52 0.44 1.49
-8.48 0.59 1.29
-14.92 1.17 0.63
-8.60 0.75 1.27
-8.49 0.76 1.28
-5.61 0.56 1.58
-4.66 0.59 1.67
-3.85 0.80 1.74
-1.45 -1.65 1.77
-1.82 -1.68 1.73
-1.82 -1.66 1.73
-1.53 -1.47 1.76
-1.81 -1.56 1.74
-1.66 -1.49 1.75
-1.71 -1.49 1.75
-1.95 -1.55 1.72
-1.93 -1.53 1.72
-1.78 -1.44 1.74
-2.09 -1.48 1.71
-1.90 -1.36 1.73
-2.27 -1.46 1.69
-1.84 -1.32 1.74
-1.81 -1.27 1.74
-2.24 -1.37 1.70
-1.91 -1.24 1.73
-2.41 -1.37 1.68
-1.72 -1.17 1.75
-2.19 -1.26 1.70
-2.60 -1.35 1.66
-1.79 -1.04 1.74
-2.14 -1.11 1.71
-2.47 -1.13 1.68
-2.13 -1.05 1.71
-3.69 -1.34 1.55
-1.87 -0.89 1.74
-3.49 -1.14 1.57
-3.59 -1.14 1.56
-3.89 -1.18 1.53
-1.39 -0.60 1.78
-1.66 -0.60 1.76
-2.26 -0.55 1.70
-2.67 -0.58 1.66
-1.86 -0.46 1.74
-2.14 -0.48 1.71
-1.98 -0.44 1.73
-6.25 -0.78 1.30
-6.30 -0.76 1.29
-9.98 -0.92 0.93
-5.25 -0.54 1.40
-10.50 -0.87 0.88
-5.13 -0.50 1.41
-10.44 -0.80 0.88
-10.47 -0.77 0.88
-10.18 -0.73 0.91
-5.48 -0.44 1.37
-5.02 -0.38 1.42
-5.01 -0.36 1.42
-5.18 -0.35 1.40
-4.81 -0.32 1.44
-4.68 -0.29 1.45
-4.67 -0.28 1.45
-4.67 -0.26 1.45
-4.60 -0.22 1.46
-4.74 -0.21 1.45
-4.62 -0.19 1.46
-4.69 -0.17 1.45
-4.70 -0.15 1.45
-4.77 -0.14 1.44
-4.77 -0.12 1.44
-4.62 -0.08 1.46
-4.65 -0.07 1.45
-4.63 -0.05 1.46
-4.68 -0.03 1.45
-4.74 -0.01 1.44
-5.71 0.00 1.53
-9.36 0.03 1.14
-9.45 0.05 1.13
-9.37 0.07 1.14
-9.33 0.10 1.15
-9.20 0.12 1.16
-9.26 0.14 1.15
-9.20 0.16 1.16
-9.21 0.19 1.16
-6.41 0.15 1.46
-6.45 0.16 1.45
-9.07 0.25 1.17
-6.51 0.20 1.45
-7.53 0.25 1.34
-7.92 0.28 1.29
-5.65 0.22 1.54
-6.21 0.25 1.48
-6.40 0.28 1.46
-6.45 0.29 1.45
-6.58 0.32 1.44
-6.32 0.32 1.46
-6.37 0.34 1.46
-7.04 0.39 1.39
-6.44 0.37 1.45
-6.06 0.37 1.49
-6.65 0.42 1.43
-7.13 0.47 1.38
-8.57 0.58 1.22
-6.42 0.45 1.45
-6.16 0.45 1.48
-6.01 0.46 1.49
-8.40 0.65 1.24
-8.28 0.66 1.25
-8.51 0.70 1.22
-5.94 0.53 1.50
-5.77 0.53 1.52
-6.10 0.59 1.48
-6.11 0.65 1.48
-5.64 0.62 1.53
-13.99 1.55 0.63
-6.18 0.74 1.47
-5.89 0.74 1.50
-5.59 0.74 1.53
-4.93 0.68 1.60
-5.36 0.76 1.56
-5.05 0.74 1.59
-5.14 0.77 1.58
-5.28 0.80 1.56
-5.12 0.82 1.58
-4.91 0.80 1.60
-5.17 0.86 1.57
-5.28 0.90 1.56
-4.73 0.83 1.62
-3.98 1.57 1.67
-1.55 -1.65 1.73
-2.14 -1.61 1.67
-2.29 -1.60 1.65
-2.44 -1.61 1.64
-2.65 -1.66 1.61
-2.46 -1.58 1.64
-2.84 -1.68 1.59
-2.43 -1.53 1.64
-2.29 -1.43 1.66
-2.50 -1.47 1.63
-1.79 -1.25 1.71
-1.97 -1.29 1.69
-2.42 -1.37 1.64
-2.47 -1.38 1.64
-2.36 -1.31 1.65
-2.21 -1.23 1.67
-2.45 -1.27 1.64
-3.56 -1.52 1.52
-3.09 -1.28 1.57
-3.46 -1.30 1.53
-3.48 -1.29 1.53
-3.35 -1.25 1.55
-3.58 -1.27 1.52
-3.62 -1.21 1.52
-3.79 -1.23 1.50
-3.50 -1.16 1.53
-3.32 -1.11 1.55
-3.66 -1.16 1.51
-3.62 -1.14 1.52
-3.80 -1.15 1.50
-3.94 -1.16 1.48
-3.83 -1.13 1.50
-4.05 -1.13 1.47
-3.65 -1.05 1.52
-3.57 -1.02 1.52
-3.66 -1.02 1.52
-1.65 -0.65 1.73
-3.52 -0.88 1.53
-3.35 -0.80 1.55
-3.85 -0.83 1.49
-4.21 -0.85 1.46
-3.01 -0.66 1.58
-3.21 -0.67 1.56
-2.82 -0.61 1.60
-10.02 -1.38 0.84
-9.92 -1.31 0.85
-9.64 -1.25 0.88
-2.26 -0.49 1.66
-2.48 -0.50 1.64
-2.15 -0.45 1.67
-2.68 -0.47 1.62
-2.12 -0.41 1.68
-6.23 -0.74 1.24
-4.88 -0.57 1.38
-4.67 -0.49 1.41
-5.31 -0.51 1.34
-2.30 -0.31 1.66
-4.75 -0.42 1.40
-5.14 -0.42 1.36
-4.50 -0.37 1.42
-4.64 -0.36 1.41
-4.57 -0.34 1.42
-4.74 -0.33 1.40
-4.61 -0.31 1.41
-4.70 -0.30 1.40
-4.59 -0.27 1.41
-5.36 -0.20 1.57
-5.37 -0.19 1.57
-5.44 -0.18 1.56
-5.27 -0.16 1.58
-7.51 -0.20 1.34
-9.28 -0.22 1.15
-7.80 -0.17 1.31
-7.75 -0.15 1.32
-7.61 -0.13 1.33
-7.69 -0.11 1.32
-7.58 -0.09 1.34
-7.65 -0.07 1.33
-9.13 -0.06 1.17
-5.99 -0.03 1.50
-5.44 -0.01 1.56
-4.93 0.00 1.33
-5.70 0.06 1.24
-5.98 0.09 1.21
-5.56 0.14 1.25
-5.58 0.16 1.25
-5.32 0.19 1.28
-5.52 0.22 1.26
-5.32 0.25 1.28
-5.49 0.27 1.26
-5.54 0.33 1.25
-6.04 0.38 1.20
-5.85 0.39 1.22
-8.57 0.57 1.16
-8.39 0.58 1.18
-8.65 0.67 1.15
-8.37 0.71 1.18
-8.68 0.78 1.15
-1.36 -1.16 1.73
-1.09 -1.06 1.76
-1.65 -1.21 1.70
-10.12 -1.45 0.75
-9.69 -1.29 0.80
-9.91 -1.25 0.77
-1.63 -0.41 1.71
-8.94 -0.74 0.88
-10.70 -0.72 0.68
-5.26 -0.37 1.29
-10.60 -0.56 0.69
-4.83 -0.19 1.34
-4.61 -0.17 1.37
-8.60 -0.18 0.91
-8.51 -0.16 0.92
-8.55 -0.02 0.92
-9.18 0.00 1.03
-9.39 0.03 1.01
-9.40 0.05 1.01
-9.34 0.07 1.02
-6.19 0.22 1.39
-6.30 0.32 1.38
-6.79 0.36 1.32
-7.89 0.59 1.18
-8.17 0.63 1.15
-14.07 1.14 0.43
-1.42 -0.98 1.70
-9.80 -1.36 0.70
-9.44 -0.53 1.01
-9.43 -0.51 1.01
-10.94 -0.56 0.83
-9.72 -0.47 0.97
-9.99 -0.46 0.94
-11.13 -0.49 0.80
-11.10 -0.46 0.81
-9.30 -0.34 1.02
-8.97 -0.28 1.06
-9.06 -0.26 1.05
-8.95 -0.24 1.06
-8.90 -0.22 1.07
-9.26 -0.20 1.03
-9.41 -0.18 1.01
-9.15 -0.15 1.04
-9.37 -0.14 1.01
-9.26 -0.11 1.03
-9.40 -0.09 1.01
-9.32 -0.07 1.02
-9.18 -0.04 1.03
-9.35 -0.02 1.01
-4.51 0.00 1.28
-4.73 0.02 1.25
-9.29 0.05 0.96
-9.22 0.07 0.97
-9.19 0.09 0.97
-9.20 0.12 0.97
-6.54 0.10 1.31
-6.70 0.12 1.29
-6.26 0.13 1.34
-6.13 0.14 1.36
-6.61 0.17 1.30
-5.54 0.16 1.43
-6.09 0.19 1.36
-6.16 0.20 1.35
-6.19 0.22 1.35
-6.53 0.25 1.30
-6.17 0.25 1.35
-6.53 0.28 1.30
-6.80 0.31 1.27
-6.74 0.32 1.28
-6.63 0.33 1.29
-6.71 0.35 1.28
-7.21 0.40 1.22
-7.13 0.41 1.23
-7.28 0.44 1.21
-6.43 0.40 1.31
-6.78 0.44 1.27
-8.07 0.54 1.10
-7.71 0.54 1.15
-7.75 0.56 1.14
-7.74 0.58 1.15
-7.78 0.60 1.14
-7.70 0.62 1.15
-8.13 0.67 1.09
-7.90 0.67 1.12
-7.88 0.69 1.12
-8.03 0.72 1.11
-7.89 0.73 1.12
-7.92 0.75 1.12
-7.92 0.77 1.12
-7.85 0.78 1.13
-8.03 0.82 1.10
-8.03 0.84 1.10
-7.94 0.85 1.11
-7.99 0.94 1.10
-1.41 -1.69 1.65
-1.67 -1.68 1.62
-1.49 -1.56 1.65
-1.70 -1.39 1.63
-1.69 -1.34 1.63
-1.29 -1.21 1.68
-1.55 -1.22 1.65
-1.66 -1.17 1.64
-1.73 -1.15 1.63
-1.84 -1.07 1.62
-1.44 -0.95 1.67
-1.78 -0.91 1.62
-2.18 -0.68 1.58
-2.02 -0.64 1.60
-9.85 -1.69 0.60
-10.48 -1.69 0.52
-2.16 -0.60 1.58
-4.51 -0.87 1.28
-1.97 -0.55 1.60
-2.01 -0.54 1.60
-9.83 -1.42 0.61
-1.92 -0.51 1.61
-4.75 -0.81 1.25
-9.72 -1.32 0.62
-2.00 -0.48 1.60
-5.78 -0.76 1.12
-5.80 -0.70 1.12
-5.67 -0.67 1.13
-6.44 -0.71 1.04
-6.41 -0.56 1.04
-6.46 -0.54 1.03
-6.51 -0.52 1.03
-4.17 -0.31 1.32
-4.36 -0.22 1.30
-4.64 -0.21 1.26
-4.38 -0.18 1.29
-4.43 -0.17 1.29
-4.34 -0.15 1.30
-4.39 -0.13 1.29
-4.33 -0.11 1.30
-4.22 -0.10 1.31
-4.41 -0.08 1.29
-4.50 -0.07 1.28
-4.49 -0.05 1.28
-4.38 -0.03 1.29
-4.31 -0.02 1.30
-6.92 0.00 1.21
-5.17 0.01 1.44
-5.42 0.03 1.41
-6.31 0.05 1.29
-5.26 0.05 1.43
-5.14 0.07 1.44
-5.50 0.08 1.40
-6.92 0.12 1.20
-5.21 0.11 1.43
-5.20 0.12 1.43
-6.29 0.16 1.29
-6.86 0.19 1.21
-6.70 0.20 1.23
-6.82 0.22 1.22
-6.05 0.21 1.32
-6.18 0.23 1.30
-6.49 0.26 1.26
-6.24 0.27 1.29
-6.27 0.28 1.29
-6.44 0.31 1.27
-6.03 0.30 1.32
-6.18 0.33 1.30
-7.08 0.39 1.18
-7.41 0.43 1.13
-7.08 0.43 1.18
-7.39 0.46 1.13
-7.23 0.47 1.16
-7.34 0.50 1.14
-7.20 0.51 1.16
-8.33 0.60 1.01
-8.35 0.62 1.00
-8.14 0.63 1.03
-8.25 0.66 1.02
-7.73 0.64 1.09
-8.00 0.68 1.05
-8.34 0.73 1.00
-7.59 0.68 1.10
-7.46 0.69 1.12
-4.73 0.47 1.49
-7.57 0.76 1.10
-7.56 0.78 1.11
-7.51 0.79 1.11
-7.39 0.80 1.13
-7.70 0.85 1.08
-7.45 0.84 1.12
-7.74 0.89 1.08
-7.96 0.94 1.05
-8.04 0.97 1.04
-8.10 0.99 1.03
-8.06 1.01 1.03
-8.13 1.04 1.02
-7.97 1.06 1.04
-4.20 0.59 1.56
-4.48 0.64 1.52
-4.38 0.64 1.53
-4.92 0.78 1.45
-4.14 0.70 1.56
-4.81 0.95 1.46
-1.76 -1.64 1.58
-1.92 -1.52 1.56
-1.62 -1.28 1.61
-1.66 -1.21 1.60
-1.88 -1.16 1.58
-3.42 -1.47 1.37
-3.43 -1.43 1.37
-3.70 -1.47 1.33
-3.52 -1.18 1.36
-3.69 -1.18 1.34
-4.27 -1.27 1.26
-4.08 -1.16 1.28
-2.60 -0.80 1.48
-2.59 -0.70 1.48
-10.06 -1.63 0.48
-2.15 -0.61 1.54
-4.64 -0.90 1.21
-10.38 -1.58 0.44
-4.70 -0.87 1.20
-4.60 -0.84 1.22
-4.78 -0.85 1.19
-4.84 -0.84 1.18
-4.61 -0.79 1.21
-5.15 -0.83 1.14
-9.55 -1.28 0.55
-2.86 -0.55 1.45
-1.81 -0.43 1.59
-5.21 -0.75 1.13
-5.09 -0.72 1.15
-5.57 -0.74 1.09
-5.95 -0.73 1.04
-6.83 -0.76 0.92
-6.68 -0.73 0.94
-6.64 -0.71 0.94
-6.40 -0.67 0.97
-6.39 -0.62 0.98
-9.26 -0.79 0.59
-9.57 -0.78 0.55
-6.28 -0.55 0.99
-6.77 -0.54 0.92
-4.13 -0.37 1.28
-6.83 -0.47 0.92
-7.60 -0.49 0.81
-4.22 -0.31 1.26
-4.27 -0.30 1.26
-4.23 -0.28 1.26
-4.07 -0.26 1.28
-4.23 -0.24 1.26
-4.21 -0.23 1.27
-4.33 -0.22 1.25
-4.19 -0.19 1.27
-4.26 -0.18 1.26
-4.26 -0.16 1.26
-4.31 -0.15 1.25
-4.35 -0.13 1.25
-4.30 -0.11 1.25
-5.27 -0.08 1.43
-9.03 -0.11 0.92
-9.21 -0.09 0.90
-6.67 -0.05 1.24
-5.75 -0.03 1.36
-5.28 -0.01 1.43
-4.39 0.00 1.19
-4.37 0.02 1.19
-4.50 0.03 1.17
-4.59 0.05 1.16
-4.63 0.07 1.15
-4.66 0.09 1.15
-4.73 0.11 1.14
-4.65 0.12 1.15
-4.73 0.14 1.14
-4.90 0.16 1.11
-5.02 0.18 1.10
-6.72 0.19 1.18
-6.85 0.21 1.16
-6.64 0.22 1.19
-6.86 0.24 1.16
-6.92 0.26 1.15
-6.94 0.28 1.15
-6.53 0.28 1.21
-6.72 0.30 1.18
-6.96 0.33 1.14
-6.80 0.34 1.17
-6.68 0.35 1.18
-6.56 0.36 1.20
-7.16 0.41 1.11
-6.97 0.42 1.14
-7.42 0.46 1.08
-6.78 0.44 1.17
-6.92 0.47 1.15
-7.18 0.50 1.11
-7.14 0.52 1.12
-5.21 0.40 1.39
-7.11 0.55 1.12
-4.84 0.40 1.44
-8.09 0.66 0.98
-7.80 0.66 1.02
-8.20 0.71 0.96
-7.61 0.68 1.04
-7.96 0.73 0.99
-7.35 0.70 1.08
-7.56 0.74 1.05
-7.32 0.73 1.08
-7.29 0.75 1.09
-7.28 0.77 1.09
-7.37 0.79 1.07
-7.50 0.83 1.06
-7.50 0.84 1.06
-7.79 0.90 1.01
-7.75 0.91 1.02
-7.99 0.96 0.98
-8.00 0.98 0.98
-7.92 0.99 0.99
-7.68 0.98 1.03
-7.87 1.02 1.00
-3.46 -1.13 1.32
-4.44 -0.89 1.19
-4.52 -0.89 1.18
-1.78 -0.54 1.56
-4.52 -0.85 1.18
-2.08 -0.55 1.52
-4.71 -0.84 1.15
-4.86 -0.84 1.13
-4.96 -0.83 1.11
-5.00 -0.82 1.11
-5.23 -0.82 1.08
-5.23 -0.80 1.08
-9.98 -1.26 0.41
-5.26 -0.77 1.07
-5.05 -0.73 1.10
-5.18 -0.72 1.08
-4.96 -0.69 1.11
-5.06 -0.68 1.10
-4.72 -0.63 1.15
-5.42 -0.67 1.05
-4.93 -0.61 1.12
-4.57 -0.57 1.17
-6.57 -0.70 0.89
-6.66 -0.68 0.87
-6.59 -0.66 0.88
-9.43 -0.83 0.48
-9.46 -0.80 0.48
-6.39 -0.58 0.91
-9.60 -0.75 0.46
-7.25 -0.49 0.79
-5.23 -0.37 1.07
-9.11 -0.47 0.53
-8.17 -0.41 0.66
-4.27 -0.25 1.21
-4.27 -0.23 1.21
-4.19 -0.21 1.22
-4.10 -0.19 1.23
-4.16 -0.18 1.22
-4.17 -0.16 1.22
-4.31 -0.15 1.20
-4.18 -0.13 1.22
-4.18 -0.11 1.22
-4.09 -0.10 1.23
-4.23 -0.08 1.21
-4.19 -0.06 1.22
-4.27 -0.05 1.21
-4.39 -0.03 1.19
-4.35 -0.02 1.20
-6.87 0.02 1.10
-5.15 0.03 1.36
-5.35 0.04 1.33
-6.87 0.09 1.10
-6.76 0.10 1.12
-6.86 0.12 1.10
-6.69 0.15 1.13
-6.63 0.18 1.14
-6.71 0.22 1.12
-6.28 0.24 1.19
-6.25 0.25 1.19
-6.75 0.29 1.12
-6.51 0.31 1.15
-6.98 0.35 1.08
-6.54 0.35 1.15
-6.15 0.36 1.20
-6.07 0.37 1.22
-6.07 0.38 1.22
-6.23 0.42 1.19
-6.36 0.45 1.17
-6.42 0.49 1.16
-6.10 0.48 1.21
-6.67 0.54 1.12
-6.64 0.55 1.13
-7.13 0.61 1.05
-6.81 0.60 1.10
-6.25 0.58 1.18
-7.92 0.75 0.93
-7.57 0.74 0.98
-7.65 0.79 0.97
-7.94 0.83 0.93
-7.72 0.83 0.96
-7.67 0.86 0.97
-7.63 0.88 0.97
-7.68 0.90 0.96
-7.59 0.91 0.98
-7.64 0.94 0.97
-7.51 0.94 0.99
-7.65 0.98 0.97
-7.61 0.99 0.97
-7.57 1.01 0.98
-5.56 0.77 1.28
-5.25 0.85 1.32
-5.42 0.89 1.30
-5.22 0.88 1.33
-5.51 0.98 1.28
-4.93 0.97 1.36
-5.23 1.04 1.32
-0.77 -1.55 1.65
-1.48 -1.39 1.56
-1.74 -1.42 1.52
-1.92 -1.41 1.49
-2.44 -1.56 1.41
-2.53 -1.55 1.40
-2.68 -1.45 1.38
-1.92 -1.18 1.50
-3.63 -1.41 1.24
-3.44 -1.25 1.28
-3.36 -1.22 1.29
-3.17 -1.17 1.31
-3.23 -1.15 1.31
-3.58 -1.19 1.25
-3.75 -1.13 1.23
-4.02 -1.11 1.19
-3.62 -1.03 1.25
-2.85 -0.84 1.37
-2.75 -0.79 1.38
-3.84 -0.93 1.22
-4.92 -1.05 1.06
-4.83 -1.00 1.07
-3.08 -0.74 1.33
-2.87 -0.70 1.36
-2.61 -0.65 1.40
-4.75 -0.88 1.08
-4.73 -0.84 1.09
-3.25 -0.65 1.31
-4.83 -0.80 1.07
-5.05 -0.81 1.04
-4.96 -0.76 1.05
-4.75 -0.70 1.08
-4.78 -0.67 1.08
-5.00 -0.67 1.05
-4.92 -0.65 1.06
-4.69 -0.59 1.09
-4.73 -0.56 1.09
-5.15 -0.56 1.02
-4.98 -0.53 1.05
-4.97 -0.51 1.05
-5.91 -0.49 0.91
-7.02 -0.48 0.75
-4.20 -0.29 1.16
-4.05 -0.26 1.19
-7.11 -0.26 1.07
-4.89 -0.16 1.40
-4.81 -0.13 1.41
-9.03 -0.22 0.78
-6.89 -0.15 1.10
-8.83 -0.15 0.81
-4.80 -0.07 1.41
-7.00 -0.09 1.09
-6.78 -0.05 1.12
-6.80 -0.03 1.11
-4.92 -0.01 1.39
-4.31 -0.00 1.10
-4.61 0.02 1.05
-4.44 0.03 1.08
-4.47 0.05 1.07
-4.63 0.07 1.05
-4.52 0.09 1.06
-4.60 0.10 1.05
-4.38 0.12 1.08
-4.60 0.14 1.05
-4.70 0.16 1.03
-4.62 0.17 1.05
-5.04 0.20 0.98
-5.21 0.22 0.95
-5.11 0.24 0.97
-5.17 0.26 0.96
-5.23 0.28 0.95
-5.01 0.29 0.98
-5.12 0.31 0.97
-5.19 0.34 0.95
-5.70 0.29 1.23
-5.82 0.31 1.21
-5.96 0.33 1.19
-5.79 0.34 1.22
-5.59 0.34 1.25
-6.21 0.44 1.15
-6.04 0.44 1.18
-6.69 0.50 1.07
-6.36 0.49 1.13
-6.07 0.49 1.17
-6.38 0.53 1.12
-6.38 0.54 1.12
-6.38 0.56 1.12
-6.42 0.58 1.11
-6.33 0.59 1.13
-7.61 0.72 0.92
-6.79 0.66 1.05
-8.02 0.80 0.86
-7.88 0.80 0.88
-7.62 0.80 0.92
-7.65 0.82 0.92
-8.00 0.88 0.86
-7.87 0.88 0.88
-7.82 0.90 0.89
-7.66 0.90 0.91
-7.57 0.91 0.93
-7.78 0.95 0.89
-7.40 0.94 0.95
-7.65 0.99 0.91
-7.43 0.99 0.94
-1.26 -1.57 1.56
-1.18 -1.03 1.59
-9.44 -1.32 0.30
-6.87 -0.75 0.70
-5.18 -0.54 0.97
-8.55 -0.48 0.44
-4.21 -0.16 1.11
-8.33 -0.23 0.47
-4.35 -0.13 1.09
-8.25 -0.18 0.49
-4.13 -0.10 1.13
-4.30 -0.08 1.10
-4.15 -0.06 1.12
-4.21 -0.05 1.11
-4.26 -0.03 1.11
-4.12 -0.02 1.13
-5.00 0.00 1.30
-4.85 0.01 1.33
-5.10 0.03 1.28
-4.93 0.04 1.31
-4.75 0.05 1.34
-5.14 0.07 1.28
-6.53 0.10 1.05
-6.67 0.12 1.02
-6.95 0.14 0.98
-6.31 0.14 1.08
-6.40 0.16 1.07
-6.21 0.17 1.10
-6.41 0.19 1.07
-5.97 0.20 1.14
-6.23 0.22 1.09
-6.29 0.24 1.08
-6.12 0.25 1.11
-6.45 0.28 1.06
-6.05 0.27 1.12
-5.98 0.29 1.13
-6.13 0.31 1.11
-6.10 0.32 1.11
-6.19 0.34 1.10
-6.09 0.35 1.11
-6.17 0.37 1.10
-6.60 0.41 1.03
-6.70 0.44 1.01
-6.72 0.46 1.01
-8.11 0.57 0.78
-6.62 0.48 1.02
-7.26 0.54 0.92
-6.71 0.52 1.01
-6.81 0.55 0.99
-6.86 0.57 0.98
-6.67 0.57 1.01
-6.54 0.58 1.03
-6.65 0.60 1.02
-6.65 0.62 1.02
-6.67 0.64 1.01
-6.77 0.66 0.99
-7.01 0.70 0.95
-7.09 0.73 0.94
-6.96 0.74 0.96
-7.14 0.77 0.93
-7.38 0.81 0.89
-7.31 0.83 0.90
-7.48 0.86 0.87
-7.47 0.88 0.87
-7.47 0.90 0.87
-7.46 0.92 0.87
-7.58 0.95 0.85
-7.49 0.96 0.87
-7.37 0.96 0.89
-7.25 0.97 0.91
-7.24 0.99 0.91
-7.43 1.03 0.87
-3.46 -1.20 1.18
-2.41 -0.76 1.35
-4.44 -0.86 1.02
-4.36 -0.82 1.03
-4.37 -0.79 1.03
-5.45 -0.83 0.85
-5.25 -0.77 0.89
-5.24 -0.75 0.89
-5.37 -0.75 0.87
-4.83 -0.68 0.96
-4.74 -0.65 0.97
-4.71 -0.63 0.98
-4.82 -0.62 0.96
-4.62 -0.59 0.99
-4.83 -0.59 0.96
-4.50 -0.55 1.01
-4.51 -0.53 1.01
-4.84 -0.54 0.95
-4.80 -0.52 0.96
-6.75 -0.63 0.64
-4.75 -0.48 0.97
-4.84 -0.47 0.95
-4.84 -0.45 0.95
-5.15 -0.45 0.90
-9.87 -0.56 0.50
-9.95 -0.54 0.49
-8.24 -0.43 0.77
-9.02 -0.44 0.64
-8.51 -0.40 0.73
-10.11 -0.45 0.46
-8.67 -0.36 0.70
-10.27 -0.40 0.44
-10.25 -0.38 0.44
-7.20 -0.25 0.94
-9.63 -0.31 0.54
-9.44 -0.28 0.57
-9.06 -0.25 0.64
-4.96 -0.13 1.31
-9.10 -0.20 0.63
-4.53 -0.09 1.38
-4.61 -0.08 1.37
-4.46 -0.07 1.39
-4.52 -0.06 1.38
-4.70 -0.05 1.35
-5.31 -0.04 1.25
-6.78 -0.03 1.01
-4.97 -0.01 1.31
-4.13 -0.00 1.01
-4.17 0.02 1.01
-4.20 0.03 1.00
-6.45 0.06 1.01
-6.61 0.08 0.98
-6.05 0.09 1.08
-6.04 0.11 1.08
-4.97 0.10 1.26
-4.77 0.11 1.30
-5.16 0.13 1.23
-6.25 0.17 1.04
-5.44 0.16 1.18
-5.76 0.19 1.13
-5.52 0.19 1.17
-5.88 0.22 1.10
-5.68 0.23 1.14
-5.53 0.24 1.17
-5.59 0.25 1.15
-5.68 0.27 1.14
-5.61 0.28 1.15
-5.66 0.30 1.14
-5.85 0.32 1.11
-5.54 0.32 1.16
-5.46 0.33 1.17
-5.41 0.34 1.18
-5.35 0.35 1.19
-5.07 0.35 1.24
-5.07 0.36 1.24
-5.88 0.43 1.10
-6.11 0.46 1.06
-6.23 0.49 1.04
-6.59 0.53 0.97
-6.63 0.55 0.97
-6.93 0.59 0.91
-5.49 0.49 1.16
-6.69 0.60 0.95
-6.78 0.63 0.94
-6.96 0.66 0.91
-6.85 0.67 0.93
-6.95 0.70 0.91
-6.87 0.71 0.92
-6.93 0.73 0.91
-7.39 0.79 0.83
-7.39 0.81 0.83
-7.10 0.80 0.88
-7.05 0.81 0.89
-7.14 0.84 0.87
-7.22 0.87 0.86
-7.21 0.89 0.86
-7.32 0.92 0.84
-7.01 0.90 0.89
-7.09 0.93 0.88
-7.20 0.96 0.86
-7.18 0.97 0.86
-7.01 0.97 0.89
-4.32 0.67 1.36
-4.26 0.70 1.37
-4.33 0.79 1.35
-4.29 0.82 1.35
-1.39 -1.42 1.48
-1.51 -1.30 1.46
-1.18 -1.18 1.52
-1.42 -1.21 1.48
-1.58 -1.12 1.45
-1.23 -1.01 1.51
-2.12 -1.12 1.36
-2.22 -0.99 1.35
-1.63 -0.80 1.45
-1.14 -0.68 1.53
-3.11 -0.89 1.19
-1.71 -0.64 1.44
-2.60 -0.75 1.28
-3.04 -0.80 1.21
-2.63 -0.73 1.28
-2.79 -0.73 1.25
-3.26 -0.77 1.17
-3.07 -0.73 1.20
-3.24 -0.74 1.17
-3.46 -0.76 1.13
-3.38 -0.73 1.15
-3.25 -0.70 1.17
-2.98 -0.66 1.22
-4.33 -0.78 0.99
-4.23 -0.75 1.00
-4.33 -0.75 0.98
-4.21 -0.72 1.01
-2.16 -0.49 1.36
-4.78 -0.74 0.91
-1.94 -0.45 1.40
-1.94 -0.44 1.40
-1.67 -0.40 1.44
-1.69 -0.39 1.44
-4.97 -0.67 0.87
-4.71 -0.63 0.92
-4.66 -0.61 0.93
-4.51 -0.58 0.95
-4.98 -0.60 0.87
-4.83 -0.57 0.90
-5.09 -0.57 0.85
-5.55 -0.59 0.77
-5.05 -0.53 0.86
-5.18 -0.52 0.84
-5.18 -0.50 0.84
-4.64 -0.45 0.93
-4.56 -0.43 0.94
-4.70 -0.42 0.92
-4.85 -0.41 0.89
-5.01 -0.40 0.87
-5.31 -0.40 0.81
-6.86 -0.45 0.55
-4.94 -0.34 0.88
-5.20 -0.34 0.83
-4.89 -0.31 0.89
-4.64 -0.28 0.93
-4.31 -0.25 0.99
-4.41 -0.24 0.97
-4.35 -0.22 0.98
-4.34 -0.20 0.98
-4.25 -0.18 0.99
-4.21 -0.16 1.00
-4.10 -0.15 1.02
-4.13 -0.13 1.02
-4.22 -0.12 1.00
-4.09 -0.10 1.02
-4.04 -0.08 1.03
-4.08 -0.06 1.02
-4.16 -0.05 1.01
-4.07 -0.03 1.02
-4.08 -0.02 1.02
-6.62 0.02 0.92
-8.56 0.04 0.57
-6.43 0.05 0.96
-6.61 0.08 0.92
-6.48 0.10 0.95
-6.49 0.11 0.94
-6.49 0.13 0.94
-5.81 0.15 1.07
-5.27 0.16 1.16
-5.80 0.19 1.07
-5.54 0.20 1.11
-5.94 0.22 1.04
-6.17 0.25 1.00
-6.27 0.27 0.98
-6.27 0.28 0.98
-6.17 0.31 1.00
-6.02 0.32 1.03
-5.96 0.33 1.04
-6.34 0.37 0.97
-6.35 0.38 0.96
-6.42 0.42 0.95
-6.03 0.41 1.02
-6.63 0.46 0.91
-6.94 0.50 0.85
-6.76 0.51 0.89
-6.81 0.53 0.88
-6.91 0.57 0.86
-6.76 0.58 0.88
-6.85 0.62 0.87
-6.96 0.64 0.85
-7.03 0.67 0.83
-6.77 0.66 0.88
-6.65 0.67 0.90
-6.77 0.71 0.88
-6.92 0.76 0.85
-6.95 0.78 0.84
-7.04 0.81 0.83
-7.02 0.83 0.83
-7.10 0.87 0.81
-7.03 0.88 0.83
-6.94 0.91 0.84
-7.18 0.96 0.80
-7.23 0.98 0.79
-7.16 0.99 0.80
-7.28 1.02 0.78
-7.25 1.06 0.78
-5.28 0.81 1.14
-5.17 0.81 1.16
-5.24 0.85 1.15
-5.45 0.91 1.11
-4.90 0.94 1.20
-4.51 0.91 1.27
-5.14 1.04 1.15
-3.25 -1.62 1.11
-4.20 -1.69 0.94
-3.42 -1.47 1.08
-3.79 -1.53 1.01
-3.31 -1.39 1.10
-3.39 -1.38 1.09
-3.51 -1.30 1.07
-3.77 -1.29 1.02
-3.84 -1.27 1.01
-3.84 -1.26 1.01
-3.53 -1.18 1.07
-3.58 -1.18 1.06
-3.67 -1.18 1.04
-3.54 -1.14 1.07
-3.73 -1.16 1.03
-3.87 -1.17 1.01
-3.76 -1.13 1.03
-3.78 -1.12 1.02
-3.29 -1.02 1.11
-3.64 -1.07 1.05
-3.82 -1.08 1.02
-4.16 -1.02 0.95
-3.32 -0.88 1.11
-3.73 -0.91 1.03
-3.45 -0.86 1.08
-3.48 -0.85 1.08
-3.73 -0.87 1.03
-3.79 -0.86 1.02
-3.33 -0.79 1.11
-3.73 -0.82 1.03
-3.73 -0.81 1.03
-3.72 -0.79 1.04
-3.73 -0.78 1.03
-4.37 -0.84 0.92
-4.47 -0.83 0.90
-4.47 -0.81 0.90
-4.37 -0.79 0.92
-4.41 -0.77 0.91
-4.48 -0.76 0.90
-4.42 -0.74 0.91
-4.40 -0.72 0.91
-5.21 -0.79 0.77
-4.77 -0.73 0.85
-4.46 -0.68 0.90
-4.52 -0.67 0.89
-4.52 -0.65 0.89
-4.74 -0.65 0.85
-4.79 -0.64 0.84
-4.65 -0.61 0.87
-4.75 -0.60 0.85
-1.93 -0.36 1.36
-4.73 -0.56 0.85
-4.81 -0.55 0.84
-4.85 -0.54 0.83
-5.05 -0.53 0.80
-5.09 -0.52 0.79
-4.92 -0.49 0.82
-4.82 -0.46 0.84
-4.94 -0.45 0.82
-5.20 -0.45 0.77
-4.96 -0.42 0.81
-4.76 -0.39 0.85
-5.03 -0.39 0.80
-4.95 -0.36 0.81
-4.78 -0.34 0.84
-4.71 -0.32 0.86
-4.62 -0.30 0.87
-4.51 -0.27 0.89
-4.49 -0.26 0.90
-4.53 -0.24 0.89
-4.43 -0.22 0.91
-4.35 -0.20 0.92
-4.20 -0.18 0.95
-4.35 -0.17 0.92
-4.28 -0.15 0.93
-4.16 -0.13 0.95
-4.34 -0.12 0.92
-6.93 -0.10 0.87
-7.01 -0.07 0.85
-6.55 -0.05 0.94
-6.42 -0.03 0.96
-5.13 -0.01 1.19
-4.41 -0.00 0.85
-4.33 0.01 0.86
-4.48 0.03 0.83
-4.51 0.05 0.83
-4.44 0.07 0.84
-4.59 0.08 0.81
-4.51 0.10 0.83
-2.30 0.08 1.24
-4.85 0.14 0.76
-4.59 0.15 0.81
-4.60 0.17 0.81
-5.27 0.15 1.12
-5.10 0.15 1.15
-5.16 0.17 1.14
-5.17 0.18 1.13
-5.26 0.20 1.12
-5.37 0.22 1.10
-5.56 0.24 1.06
-5.32 0.24 1.11
-5.65 0.27 1.04
-6.09 0.30 0.96
-5.69 0.30 1.04
-5.86 0.32 1.00
-5.89 0.34 1.00
-6.14 0.37 0.95
-6.45 0.40 0.89
-6.33 0.41 0.91
-6.66 0.45 0.85
-4.26 0.31 1.30
-4.07 0.30 1.34
-6.70 0.50 0.84
-4.15 0.33 1.32
-4.16 0.34 1.32
-4.16 0.35 1.32
-4.17 0.37 1.32
-4.25 0.38 1.30
-4.35 0.40 1.28
-6.71 0.62 0.83
-6.87 0.65 0.80
-6.82 0.66 0.81
-6.77 0.68 0.82
-6.70 0.69 0.83
-6.59 0.69 0.85
-6.62 0.71 0.85
-6.83 0.75 0.81
-6.89 0.78 0.79
-7.04 0.81 0.76
-7.14 0.84 0.74
-7.12 0.86 0.75
-7.17 0.88 0.74
-7.31 0.91 0.71
-7.15 0.91 0.74
-7.11 0.93 0.75
-7.17 0.95 0.73
-6.97 0.94 0.77
-7.08 0.98 0.75
-6.95 0.98 0.77
-6.88 0.99 0.79
-6.82 1.00 0.80
-6.88 1.02 0.79
-3.87 0.68 1.36
-3.60 0.65 1.41
-3.67 0.78 1.39
-3.17 0.87 1.48
-3.45 1.10 1.41
-0.86 -1.59 1.49
-1.02 -1.30 1.48
-1.04 -1.30 1.47
-1.32 -1.24 1.43
-1.42 -1.26 1.41
-1.43 -1.20 1.41
-1.53 -1.20 1.39
-1.07 -0.98 1.48
-1.82 -0.98 1.34
-1.84 -0.96 1.34
-1.81 -0.95 1.34
-2.04 -0.98 1.30
-2.06 -0.98 1.29
-2.18 -0.99 1.27
-2.04 -0.94 1.30
-2.05 -0.93 1.30
-1.81 -0.86 1.34
-3.50 -1.13 1.02
-1.70 -0.71 1.36
-3.57 -0.92 1.01
-1.73 -0.60 1.36
-1.58 -0.57 1.39
-1.86 -0.59 1.33
-3.46 -0.76 1.03
-3.45 -0.74 1.03
-3.83 -0.77 0.96
-3.98 -0.77 0.93
-3.74 -0.73 0.98
-3.72 -0.71 0.98
-3.69 -0.69 0.99
-3.67 -0.68 0.99
-2.04 -0.49 1.30
-1.99 -0.47 1.31
-4.24 -0.69 0.88
-4.17 -0.67 0.90
-4.36 -0.67 0.86
-4.67 -0.68 0.80
-4.74 -0.67 0.79
-5.10 -0.68 0.72
-4.66 -0.63 0.81
-4.88 -0.63 0.76
-1.40 -0.33 1.42
-4.74 -0.58 0.79
-4.95 -0.58 0.75
-1.49 -0.31 1.40
-1.72 -0.31 1.36
-5.29 -0.55 0.69
-5.48 -0.54 0.65
-1.28 -0.25 1.44
-1.43 -0.25 1.41
-5.58 -0.49 0.63
-5.52 -0.47 0.64
-5.21 -0.43 0.70
-5.28 -0.42 0.69
-5.17 -0.39 0.71
-4.87 -0.36 0.76
-4.52 -0.33 0.83
-4.49 -0.31 0.84
-4.40 -0.29 0.85
-4.38 -0.27 0.86
-4.40 -0.25 0.85
-4.48 -0.24 0.84
-4.51 -0.22 0.83
-4.21 -0.20 0.89
-4.30 -0.18 0.87
-4.24 -0.17 0.88
-4.37 -0.15 0.86
-4.46 -0.14 0.84
-4.48 -0.12 0.84
-4.46 -0.10 0.84
-4.66 -0.09 0.80
-4.58 -0.07 0.82
-4.62 -0.05 0.81
-4.63 -0.04 0.81
-1.33 -0.01 1.43
-5.15 -0.00 1.09
-5.00 0.01 1.12
-6.57 0.03 0.81
-6.13 0.04 0.90
-5.65 0.06 0.99
-5.74 0.07 0.97
-5.99 0.09 0.92
-5.93 0.10 0.93
-5.83 0.12 0.95
-5.32 0.12 1.06
-5.29 0.13 1.06
-5.36 0.15 1.05
-5.38 0.16 1.04
-5.26 0.17 1.07
-5.22 0.18 1.07
-5.31 0.20 1.05
-5.34 0.22 1.05
-5.35 0.23 1.05
-5.45 0.25 1.03
-5.82 0.28 0.95
-6.04 0.30 0.91
-6.08 0.32 0.90
-6.04 0.33 0.91
-6.09 0.35 0.90
-6.28 0.38 0.86
-6.33 0.40 0.85
-6.41 0.42 0.83
-6.43 0.43 0.83
-6.66 0.47 0.78
-6.61 0.48 0.79
-6.76 0.51 0.76
-6.69 0.52 0.77
-6.87 0.55 0.74
-6.69 0.55 0.77
-6.64 0.57 0.78
-6.59 0.58 0.79
-6.88 0.62 0.73
-7.45 0.69 0.62
-6.98 0.66 0.71
-6.74 0.66 0.76
-6.89 0.69 0.73
-6.75 0.69 0.76
-6.75 0.71 0.76
-6.63 0.72 0.78
-6.69 0.74 0.77
-6.75 0.76 0.75
-6.87 0.79 0.73
-6.93 0.82 0.72
-5.00 0.62 1.10
-6.95 0.86 0.71
-6.91 0.87 0.72
-6.88 0.88 0.72
-6.91 0.90 0.72
-7.17 0.95 0.66
-4.76 0.66 1.15
-7.08 0.98 0.68
-7.13 1.00 0.67
-7.06 1.01 0.68
-7.03 1.03 0.69
-7.04 1.05 0.69
-6.96 1.05 0.70
-7.11 1.09 0.67
-5.50 0.95 0.99
-5.35 0.95 1.02
-4.68 0.86 1.15
-4.66 0.91 1.15
-4.36 0.87 1.21
-4.40 0.89 1.20
-4.35 0.89 1.22
-4.02 0.85 1.28
-3.98 0.85 1.29
-3.96 0.88 1.29
-4.19 -1.64 0.82
-3.36 -1.43 0.98
-4.37 -1.65 0.78
-3.83 -1.50 0.89
-3.82 -1.46 0.89
-3.47 -1.37 0.96
-3.77 -1.42 0.90
-3.95 -1.44 0.87
-3.59 -1.35 0.94
-3.64 -1.34 0.93
-3.79 -1.36 0.90
-3.49 -1.28 0.96
-3.92 -1.36 0.88
-3.96 -1.35 0.87
-3.96 -1.33 0.87
-3.82 -1.29 0.90
-3.14 -1.12 1.03
-3.41 -1.16 0.98
-3.64 -1.19 0.93
-3.33 -1.12 1.00
-3.45 -1.13 0.97
-3.61 -1.14 0.94
-3.64 -1.13 0.94
-3.35 -1.06 0.99
-3.45 -1.07 0.97
-3.60 -1.08 0.94
-3.15 -0.97 1.03
-3.12 -0.95 1.04
-3.19 -0.95 1.03
-3.23 -0.91 1.02
-3.55 -0.95 0.96
-3.58 -0.94 0.95
-3.74 -0.95 0.92
-3.71 -0.93 0.92
-3.84 -0.93 0.90
-3.84 -0.92 0.90
-4.05 -0.93 0.86
-3.83 -0.88 0.90
-3.87 -0.87 0.89
-4.01 -0.88 0.87
-3.84 -0.84 0.90
-3.83 -0.82 0.90
-3.61 -0.78 0.94
-3.65 -0.77 0.94
-3.74 -0.76 0.92
-3.54 -0.72 0.96
-3.86 -0.75 0.89
-3.60 -0.70 0.95
-3.77 -0.71 0.91
-4.17 -0.73 0.83
-4.06 -0.71 0.86
-4.17 -0.70 0.83
-4.35 -0.70 0.80
-4.30 -0.68 0.81
-4.65 -0.70 0.74
-4.52 -0.67 0.76
-4.60 -0.66 0.75
-4.61 -0.64 0.75
-4.52 -0.62 0.77
-4.67 -0.61 0.74
-4.40 -0.57 0.79
-4.60 -0.57 0.75
-4.78 -0.57 0.71
-4.74 -0.55 0.72
-4.86 -0.54 0.70
-5.83 -0.59 0.51
-5.57 -0.55 0.56
-5.43 -0.52 0.58
-5.58 -0.51 0.55
-5.40 -0.48 0.59
-5.80 -0.49 0.51
-5.74 -0.46 0.52
-5.63 -0.44 0.54
-5.47 -0.41 0.58
-5.33 -0.38 0.60
-5.31 -0.36 0.61
-4.66 -0.32 0.74
-5.56 -0.34 0.56
-5.68 -0.32 0.53
-5.77 -0.22 0.97
-5.57 -0.20 1.01
-5.41 -0.18 1.04
-5.24 -0.16 1.08
-5.20 -0.15 1.08
-5.52 -0.14 1.02
-6.57 -0.15 0.81
-5.31 -0.11 1.06
-7.87 -0.14 0.56
-7.55 -0.11 0.62
-5.20 -0.07 1.08
-5.23 -0.05 1.08
-5.17 -0.04 1.09
-5.16 -0.03 1.09
-5.07 -0.01 1.11
-2.07 -0.00 1.21
-4.53 0.01 0.70
-1.97 0.02 1.23
-2.43 0.03 1.14
-2.06 0.04 1.21
-2.34 0.06 1.15
-2.27 0.07 1.17
-2.74 0.09 1.07
-2.58 0.10 1.10
-2.73 0.11 1.07
-4.39 0.16 0.73
-1.78 0.11 1.27
-4.72 0.21 0.66
-5.24 0.24 0.55
-4.88 0.25 0.63
-5.13 0.27 0.57
-5.72 0.32 0.45
-4.54 0.29 0.69
-3.67 0.27 0.87
-4.03 0.30 0.80
-5.46 0.27 0.98
-5.60 0.29 0.95
-5.13 0.28 1.05
-5.58 0.32 0.95
-5.31 0.32 1.01
-6.34 0.39 0.80
-6.33 0.41 0.80
-6.64 0.45 0.73
-6.56 0.46 0.75
-6.74 0.49 0.71
-6.65 0.50 0.73
-6.42 0.50 0.78
-6.56 0.52 0.75
-3.91 0.33 1.30
-6.49 0.55 0.76
-6.64 0.58 0.73
-6.51 0.59 0.76
-6.72 0.62 0.71
-7.31 0.69 0.59
-6.86 0.67 0.68
-6.99 0.70 0.65
-6.84 0.70 0.68
-8.01 0.83 0.44
-6.76 0.73 0.70
-6.82 0.75 0.69
-6.76 0.76 0.70
-6.62 0.76 0.73
-7.00 0.82 0.65
-6.86 0.82 0.68
-6.76 0.83 0.69
-6.67 0.85 0.71
-6.89 0.91 0.67
-7.11 0.96 0.62
-7.10 0.98 0.62
-7.12 1.00 0.61
-7.13 1.02 0.61
-7.18 1.04 0.60
-7.05 1.04 0.63
-7.63 1.16 0.50
-3.72 0.63 1.32
-3.69 0.64 1.33
-3.65 0.64 1.34
-3.47 0.64 1.37
-3.75 0.75 1.31
-3.43 0.71 1.37
-3.59 0.76 1.34
-3.37 0.73 1.39
-3.08 0.81 1.44
-1.15 -1.09 1.40
-1.61 -1.20 1.30
-1.35 -0.71 1.36
-1.71 -0.77 1.29
-1.24 -0.67 1.39
-1.54 -0.72 1.33
-3.76 -0.84 0.87
-3.64 -0.81 0.89
-3.48 -0.77 0.92
-3.34 -0.74 0.95
-3.59 -0.76 0.90
-3.59 -0.73 0.90
-3.44 -0.67 0.93
-3.18 -0.62 0.99
-4.68 -0.72 0.68
-4.68 -0.70 0.68
-4.65 -0.68 0.68
-4.39 -0.64 0.74
-0.95 -0.32 1.45
-4.72 -0.63 0.67
-4.82 -0.62 0.65
-4.47 -0.58 0.72
-4.69 -0.58 0.68
-4.43 -0.54 0.73
-5.02 -0.57 0.61
-5.12 -0.56 0.59
-1.07 -0.26 1.42
-5.69 -0.56 0.47
-5.98 -0.56 0.41
-5.87 -0.53 0.43
-5.67 -0.50 0.47
-5.69 -0.48 0.47
-5.72 -0.46 0.46
-5.72 -0.44 0.46
-5.55 -0.41 0.50
-5.40 -0.39 0.53
-5.58 -0.37 0.49
-4.81 -0.32 0.65
-5.92 -0.35 0.42
-6.11 -0.34 0.38
-6.11 -0.32 0.38
-5.71 -0.28 0.46
-5.75 -0.26 0.46
-5.75 -0.24 0.46
-5.75 -0.22 0.46
-1.42 -0.10 1.35
-5.71 -0.18 0.46
-1.87 -0.09 1.25
-1.97 -0.08 1.23
-2.08 -0.07 1.21
-1.97 -0.06 1.23
-4.06 -0.07 0.80
-4.44 -0.05 0.72
-1.89 -0.02 1.25
-4.76 -0.02 0.65
-5.50 -0.00 0.92
-5.47 0.01 0.92
-5.27 0.03 0.97
-5.34 0.05 0.95
-5.11 0.08 1.00
-5.16 0.10 0.99
-5.19 0.12 0.98
-5.31 0.13 0.95
-5.41 0.16 0.93
-5.62 0.18 0.89
-5.66 0.20 0.88
-5.61 0.23 0.89
-5.50 0.24 0.91
-5.71 0.26 0.86
-5.90 0.30 0.82
-5.75 0.30 0.86
-5.80 0.32 0.84
-5.95 0.36 0.81
-6.17 0.39 0.76
-6.03 0.39 0.79
-6.11 0.43 0.77
-6.10 0.44 0.77
-6.13 0.46 0.77
-6.02 0.48 0.79
-6.15 0.51 0.76
-6.07 0.52 0.78
-6.05 0.55 0.78
-6.31 0.59 0.72
-6.45 0.62 0.69
-6.27 0.63 0.73
-6.42 0.66 0.70
-6.73 0.71 0.63
-7.22 0.80 0.52
-6.64 0.75 0.65
-6.75 0.78 0.62
-6.67 0.81 0.64
-6.72 0.83 0.63
-6.84 0.86 0.60
-7.04 0.92 0.56
-7.19 0.96 0.52
-7.32 0.99 0.49
-7.35 1.03 0.49
-7.42 1.06 0.47
-7.50 1.09 0.45
-5.56 0.88 0.87
-5.16 0.85 0.96
-5.28 0.90 0.93
-5.01 0.88 0.99
-4.21 0.76 1.16
-4.52 0.83 1.09
-4.41 0.89 1.11
-4.33 0.97 1.12
-3.65 0.85 1.27
-3.93 0.98 1.21
-4.23 -1.69 0.68
-1.81 -1.07 1.21
-3.87 -1.54 0.76
-3.63 -1.47 0.81
-3.73 -1.47 0.79
-3.72 -1.46 0.80
-3.70 -1.44 0.80
-3.59 -1.40 0.83
-3.47 -1.35 0.85
-3.61 -1.37 0.82
-3.48 -1.33 0.85
-3.26 -1.26 0.90
-3.18 -1.23 0.92
-3.31 -1.25 0.89
-3.73 -1.32 0.80
-3.91 -1.34 0.76
-3.77 -1.30 0.79
-3.86 -1.30 0.77
-4.05 -1.32 0.73
-4.08 -1.31 0.72
-4.07 -1.29 0.72
-4.22 -1.30 0.69
-3.84 -1.21 0.78
-4.04 -1.24 0.73
-4.05 -1.22 0.73
-3.83 -1.17 0.78
-3.61 -1.11 0.83
-3.47 -1.07 0.86
-3.67 -1.08 0.82
-3.41 -1.02 0.87
-1.82 -0.74 1.22
-4.27 -1.13 0.69
-4.24 -1.07 0.69
-4.09 -1.03 0.73
-3.84 -0.98 0.78
-1.78 -0.66 1.23
-3.67 -0.92 0.82
-3.88 -0.94 0.77
-3.70 -0.90 0.81
-3.78 -0.89 0.79
-3.48 -0.84 0.86
-3.50 -0.83 0.85
-3.46 -0.81 0.86
-3.47 -0.79 0.86
-3.49 -0.78 0.86
-3.57 -0.76 0.84
-5.02 -0.92 0.53
-5.17 -0.92 0.50
-5.20 -0.88 0.49
-5.18 -0.86 0.49
-5.06 -0.83 0.52
-4.00 -0.69 0.75
-3.71 -0.64 0.81
-5.45 -0.80 0.44
-5.32 -0.74 0.46
-5.05 -0.70 0.52
-5.16 -0.69 0.50
-4.55 -0.60 0.63
-5.41 -0.66 0.44
-4.63 -0.58 0.61
-5.08 -0.57 0.51
-5.13 -0.56 0.50
-5.15 -0.54 0.50
-4.88 -0.49 0.56
-5.36 -0.50 0.45
-5.84 -0.51 0.35
-7.38 -0.42 0.51
-7.32 -0.40 0.53
-5.36 -0.26 0.95
-5.33 -0.24 0.96
-5.53 -0.22 0.91
-5.24 -0.20 0.98
-5.35 -0.19 0.95
-5.41 -0.17 0.94
-5.28 -0.14 0.97
-5.60 -0.11 0.90
-5.72 -0.10 0.87
-5.42 -0.08 0.94
-5.54 -0.06 0.91
-5.51 -0.03 0.92
-3.48 -0.00 0.80
-4.18 0.01 0.64
-4.11 0.03 0.66
-5.29 0.04 0.91
-5.48 0.05 0.87
-5.60 0.07 0.84
-5.33 0.08 0.90
-5.21 0.09 0.93
-5.19 0.10 0.93
-5.20 0.12 0.93
-5.22 0.13 0.92
-5.26 0.14 0.92
-5.23 0.16 0.92
-5.47 0.18 0.87
-5.41 0.19 0.88
-5.43 0.20 0.87
-5.43 0.22 0.87
-5.47 0.23 0.87
-5.62 0.25 0.83
-5.70 0.27 0.81
-5.57 0.28 0.84
-5.59 0.29 0.84
-5.56 0.31 0.84
-5.60 0.32 0.83
-5.62 0.34 0.83
-5.62 0.35 0.83
-5.58 0.36 0.84
-5.70 0.39 0.81
-5.76 0.40 0.79
-5.62 0.41 0.83
-5.77 0.43 0.79
-5.66 0.44 0.82
-5.96 0.48 0.75
-6.02 0.50 0.73
-5.99 0.51 0.74
-6.05 0.53 0.72
-5.95 0.54 0.75
-5.89 0.55 0.76
-5.91 0.56 0.76
-6.44 0.63 0.63
-6.76 0.68 0.56
-6.95 0.71 0.52
-7.34 0.77 0.43
-7.33 0.79 0.43
-7.25 0.80 0.45
-7.06 0.79 0.49
-6.71 0.77 0.57
-6.90 0.81 0.52
-6.83 0.82 0.54
-6.99 0.86 0.50
-7.10 0.89 0.47
-7.05 0.90 0.49
-7.13 0.93 0.47
-3.62 0.50 1.27
-3.87 0.55 1.21
-3.44 0.52 1.31
-3.61 0.56 1.27
-3.58 0.57 1.27
-3.38 0.55 1.32
-3.80 0.62 1.22
-3.60 0.60 1.27
-3.96 0.66 1.18
-3.67 0.63 1.25
-3.79 0.67 1.22
-3.52 0.63 1.28
-2.20 -1.00 1.09
-2.10 -0.93 1.11
-2.39 -0.97 1.05
-2.02 -0.89 1.13
-2.76 -0.99 0.96
-4.06 -1.19 0.67
-3.40 -1.06 0.82
-1.58 -0.73 1.23
-1.79 -0.75 1.18
-1.92 -0.76 1.15
-1.36 -0.66 1.28
-1.73 -0.71 1.20
-1.95 -0.74 1.15
-2.09 -0.74 1.12
-1.90 -0.70 1.16
-2.07 -0.69 1.12
-3.21 -0.84 0.86
-3.80 -0.86 0.73
-3.36 -0.79 0.83
-4.99 -0.99 0.46
-3.20 -0.74 0.87
-5.26 -0.98 0.40
-3.27 -0.72 0.85
-3.26 -0.71 0.85
-3.16 -0.68 0.87
-5.14 -0.89 0.43
-5.28 -0.89 0.40
-5.02 -0.84 0.46
-5.13 -0.84 0.43
-5.07 -0.81 0.45
-4.99 -0.79 0.46
-4.94 -0.76 0.47
-4.81 -0.73 0.50
-4.84 -0.72 0.50
-4.98 -0.71 0.47
-5.01 -0.70 0.46
-4.33 -0.62 0.61
-4.82 -0.64 0.50
-4.41 -0.59 0.59
-4.98 -0.62 0.46
-4.20 -0.54 0.64
-4.67 -0.56 0.54
-4.51 -0.53 0.57
-5.08 -0.56 0.44
-4.92 -0.53 0.48
-4.87 -0.50 0.49
-4.78 -0.48 0.51
-5.04 -0.48 0.45
-4.04 -0.37 0.68
-3.98 -0.30 0.69
-2.38 -0.16 1.05
-2.85 -0.15 0.94
-4.77 -0.18 0.51
-2.52 -0.11 1.02
-2.34 -0.10 1.06
-2.05 -0.08 1.12
-2.96 -0.02 0.91
-6.04 0.03 0.68
-6.26 0.04 0.63
-5.81 0.06 0.73
-5.84 0.07 0.73
-5.86 0.09 0.72
-5.86 0.10 0.72
-6.01 0.12 0.68
-5.82 0.13 0.73
-5.81 0.14 0.73
-5.50 0.15 0.80
-5.47 0.16 0.81
-5.54 0.18 0.79
-5.72 0.20 0.75
-5.74 0.21 0.75
-6.02 0.24 0.68
-5.67 0.24 0.76
-5.95 0.27 0.69
-5.76 0.27 0.74
-5.75 0.29 0.74
-5.92 0.31 0.70
-5.92 0.33 0.70
-5.79 0.33 0.73
-5.71 0.34 0.75
-5.77 0.36 0.73
-5.82 0.38 0.72
-6.03 0.41 0.67
-6.14 0.43 0.65
-6.22 0.45 0.63
-6.19 0.46 0.63
-6.30 0.49 0.61
-6.24 0.50 0.62
-6.21 0.51 0.63
-6.32 0.54 0.60
-6.52 0.57 0.55
-6.49 0.58 0.56
-6.26 0.58 0.61
-6.31 0.60 0.60
-6.84 0.67 0.47
-7.10 0.71 0.41
-7.05 0.74 0.42
-6.82 0.73 0.47
-6.17 0.84 0.62
-5.97 0.83 0.67
-5.86 0.83 0.69
-5.72 0.83 0.72
-5.68 0.84 0.73
-5.56 0.84 0.76
-5.80 0.89 0.70
-5.68 0.88 0.73
-4.27 -1.26 0.55
-3.80 -1.16 0.66
-3.94 -1.17 0.63
-4.02 -1.17 0.61
-3.93 -1.13 0.63
-4.03 -1.14 0.61
-4.22 -1.15 0.57
-4.38 -1.16 0.53
-4.74 -1.20 0.44
-4.44 -1.14 0.51
-4.36 -1.11 0.53
-4.89 -1.16 0.41
-4.88 -1.14 0.41
-4.85 -1.11 0.42
-4.81 -1.05 0.43
-4.87 -1.01 0.42
-4.82 -0.98 0.43
-4.96 -0.98 0.40
-4.93 -0.73 0.40
-4.98 -0.71 0.39
-4.85 -0.68 0.42
-4.77 -0.66 0.44
-4.60 -0.63 0.48
-4.45 -0.60 0.52
-4.54 -0.59 0.50
-4.39 -0.56 0.53
-4.49 -0.55 0.51
-4.78 -0.54 0.44
-4.80 -0.45 0.43
-4.48 -0.39 0.51
-0.49 -1.43 1.17
-2.35 0.56 0.28
-2.34 0.62 0.28
-2.31 0.67 0.28
-2.59 0.47 0.23
-2.64 0.48 0.20
-1.96 0.73 0.27
