# .PCD v0.7 - Point Cloud Data file format
VERSION 0.7
FIELDS x y z
SIZE 4 4 4
TYPE F F F
COUNT 1 1 1
WIDTH 2205
HEIGHT 1
VIEWPOINT 0 0 0 1 0 0 0
POINTS 2205
DATA ASCII
-6.07 1.55 2.29
-4.93 0.27 2.21
-12.60 0.32 1.75
-12.46 0.32 1.71
-12.54 0.35 1.71
-12.48 0.38 1.71
-12.75 0.42 1.70
-13.03 0.91 1.68
-12.88 0.83 1.64
-13.28 0.92 1.62
-12.46 0.01 1.62
-13.07 1.30 1.57
-5.26 1.06 1.92
-12.04 0.10 1.53
-11.97 0.19 1.53
-9.89 0.23 1.64
-10.80 0.36 1.59
-11.91 0.45 1.53
-4.82 0.72 1.90
-11.43 -0.52 1.56
-11.19 -0.48 1.58
-11.17 -0.45 1.58
-11.07 -0.39 1.58
-11.09 -0.31 1.58
-12.12 -0.16 1.53
-11.04 0.01 1.48
-11.19 0.04 1.47
-11.21 0.09 1.47
-9.38 0.12 1.58
-5.67 0.09 1.81
-11.70 0.21 1.44
-11.50 0.24 1.45
-11.52 0.27 1.45
-11.61 0.30 1.45
-9.61 0.29 1.57
-9.23 0.31 1.59
-13.11 1.36 1.34
-6.28 0.93 1.76
-11.00 -0.45 1.34
-11.91 -0.13 1.43
-11.21 -0.07 1.47
-11.41 -0.04 1.46
-11.39 -0.02 1.46
-10.61 0.01 1.29
-8.90 0.28 1.41
-9.07 0.28 1.55
-9.19 0.30 1.54
-9.27 0.33 1.54
-11.82 0.44 1.37
-8.46 0.76 1.59
-13.21 1.40 1.26
-10.57 -0.59 1.30
-10.93 -0.35 1.27
-8.86 -0.08 1.41
-8.84 0.03 1.52
-11.22 0.07 1.35
-11.12 0.09 1.36
-11.04 0.15 1.36
-9.42 0.15 1.48
-9.17 0.17 1.50
-9.25 0.21 1.49
-9.20 0.24 1.49
-9.39 0.29 1.48
-9.46 0.31 1.47
-9.98 0.35 1.44
-9.57 0.36 1.47
-9.62 0.41 1.46
-9.19 0.42 1.49
-12.75 0.82 1.23
-13.04 1.10 1.21
-13.56 1.21 1.17
-13.27 1.28 1.19
-13.04 1.42 1.20
-4.41 0.53 1.83
-4.29 0.55 1.84
-3.40 -1.13 1.75
-3.30 -1.09 1.76
-3.81 -0.38 1.72
-3.80 -0.37 1.72
-10.94 -0.51 1.20
-11.01 -0.37 1.37
-11.06 -0.31 1.37
-10.77 -0.25 1.39
-10.91 -0.23 1.38
-10.98 -0.18 1.37
-11.47 -0.16 1.33
-11.38 -0.10 1.34
-11.40 -0.07 1.34
-11.21 -0.04 1.35
-11.36 -0.02 1.34
-1.66 0.00 1.85
-9.60 0.27 1.23
-9.20 0.32 1.26
-9.11 0.34 1.27
-9.07 0.37 1.27
-9.02 0.39 1.28
-9.15 0.43 1.27
-9.08 0.45 1.27
-9.07 0.48 1.27
-4.52 0.35 1.80
-4.53 0.36 1.80
-13.38 1.06 1.12
-13.01 1.25 1.14
-8.75 -0.81 1.31
-10.40 -0.02 1.18
-10.91 0.01 1.25
-8.80 0.03 1.43
-10.89 0.06 1.25
-10.53 0.09 1.28
-10.57 0.11 1.28
-10.89 0.14 1.25
-9.17 0.14 1.39
-9.13 0.17 1.40
-9.23 0.19 1.39
-8.94 0.21 1.41
-9.31 0.24 1.38
-9.49 0.27 1.37
-9.39 0.29 1.37
-8.94 0.30 1.41
-9.24 0.33 1.39
-9.24 0.35 1.39
-9.20 0.37 1.39
-9.42 0.40 1.37
-9.67 0.44 1.35
-9.83 0.47 1.34
-9.81 0.49 1.34
-9.73 0.51 1.34
-10.31 0.57 1.29
-4.75 0.31 1.76
-13.92 1.00 0.99
-12.87 0.99 1.08
-9.99 0.82 1.32
-13.21 1.11 1.05
-4.18 0.39 1.80
-13.34 1.22 1.04
-13.85 1.30 0.99
-4.09 0.42 1.81
-4.52 0.47 1.77
-4.50 0.48 1.77
-4.33 0.49 1.79
-4.25 0.50 1.79
-4.22 0.51 1.80
-4.23 0.52 1.79
-4.21 0.53 1.80
-4.46 0.57 1.77
-3.99 0.53 1.81
-4.58 0.61 1.76
-4.33 0.59 1.78
-4.47 0.62 1.77
-4.73 0.67 1.75
-4.83 0.69 1.74
-4.86 0.71 1.74
-5.14 0.76 1.71
-5.20 0.78 1.71
-5.14 0.79 1.71
-4.85 0.93 1.73
-4.63 1.00 1.75
-3.35 -1.12 1.69
-3.42 -1.12 1.68
-3.17 -1.06 1.70
-3.48 -1.08 1.68
-4.06 -0.65 1.63
-4.20 -0.62 1.62
-4.09 -0.58 1.63
-3.99 -0.50 1.63
-2.60 -0.30 1.75
-10.76 -0.49 1.27
-10.74 -0.46 1.27
-10.71 -0.41 1.27
-10.71 -0.39 1.27
-10.74 -0.36 1.27
-10.98 -0.31 1.25
-10.64 -0.28 1.28
-11.05 -0.26 1.24
-10.89 -0.23 1.26
-10.96 -0.20 1.25
-11.23 -0.18 1.23
-11.33 -0.16 1.22
-11.00 -0.12 1.25
-8.51 -0.08 1.45
-11.00 -0.07 1.25
-10.95 -0.04 1.25
-10.85 -0.02 1.26
-10.95 0.06 1.19
-10.41 0.14 1.23
-10.81 0.22 1.20
-10.37 0.24 1.24
-10.02 0.25 1.27
-9.60 0.27 1.30
-9.91 0.32 1.28
-10.23 0.36 1.25
-9.58 0.38 1.30
-9.78 0.42 1.29
-9.44 0.45 1.32
-9.82 0.52 1.28
-9.76 0.54 1.29
-10.06 0.60 1.26
-9.85 0.66 1.28
-13.45 0.96 0.96
-4.04 0.49 1.79
-10.39 -0.52 1.03
-10.42 -0.40 1.03
-10.47 -0.27 1.03
-10.55 0.01 1.16
-10.59 0.03 1.15
-10.66 0.06 1.15
-10.63 0.09 1.15
-9.28 0.10 1.28
-10.51 0.14 1.16
-10.62 0.16 1.15
-10.68 0.19 1.14
-10.59 0.22 1.15
-10.00 0.23 1.21
-10.07 0.26 1.20
-9.66 0.27 1.24
-9.96 0.30 1.21
-9.88 0.32 1.22
-9.84 0.35 1.22
-9.69 0.37 1.23
-9.67 0.39 1.24
-9.71 0.41 1.23
-9.45 0.43 1.26
-9.53 0.45 1.25
-9.33 0.47 1.27
-8.93 0.47 1.30
-8.94 0.49 1.30
-9.97 0.57 1.21
-9.95 0.60 1.21
-9.97 0.62 1.21
-9.87 0.64 1.21
-10.03 0.68 1.20
-9.46 0.71 1.25
-9.70 0.75 1.23
-4.53 0.43 1.72
-4.51 0.44 1.72
-4.55 0.45 1.71
-4.27 0.51 1.74
-4.53 0.58 1.71
-4.67 0.61 1.70
-4.50 0.60 1.72
-4.78 0.65 1.69
-4.82 0.68 1.68
-4.72 0.69 1.69
-4.93 0.73 1.67
-5.23 0.78 1.64
-5.18 0.79 1.65
-5.10 0.79 1.66
-5.26 0.83 1.64
-5.10 0.82 1.65
-5.01 0.82 1.66
-5.04 0.84 1.66
-3.42 -1.04 1.61
-10.27 -1.69 0.97
-7.08 -1.22 1.27
-7.18 -1.21 1.26
-7.14 -1.16 1.26
-10.39 -0.52 0.95
-10.57 -0.47 0.94
-0.64 -0.11 1.87
-10.31 -0.33 0.96
-10.22 -0.24 0.97
-10.69 -0.22 0.93
-10.72 -0.15 1.14
-10.79 -0.12 1.14
-10.60 -0.10 1.15
-10.72 -0.07 1.14
-10.62 -0.04 1.15
-10.59 -0.02 1.15
-9.76 0.00 0.94
-3.23 0.01 1.59
-3.09 0.03 1.61
-3.17 0.04 1.60
-3.17 0.06 1.60
-3.40 0.07 1.57
-3.14 0.08 1.60
-3.32 0.10 1.58
-3.20 0.11 1.59
-3.22 0.13 1.59
-3.30 0.14 1.58
-10.44 0.29 1.10
-9.84 0.30 1.16
-10.12 0.33 1.13
-10.05 0.35 1.14
-9.82 0.37 1.16
-9.93 0.40 1.15
-9.85 0.42 1.16
-9.91 0.45 1.15
-10.11 0.48 1.13
-10.20 0.51 1.12
-10.21 0.53 1.12
-8.51 0.47 1.29
-8.48 0.49 1.29
-10.06 0.60 1.14
-9.97 0.62 1.14
-8.32 0.54 1.31
-7.81 0.53 1.36
-7.51 0.53 1.39
-4.51 0.35 1.69
-9.86 0.81 1.15
-9.76 0.83 1.16
-10.29 0.92 1.11
-4.25 0.41 1.72
-4.51 0.47 1.69
-4.10 0.50 1.73
-3.91 0.50 1.75
-4.06 0.53 1.73
-4.12 0.58 1.72
-4.38 0.63 1.70
-4.54 0.66 1.68
-4.31 0.64 1.70
-4.85 0.77 1.65
-5.05 0.81 1.63
-2.71 -1.25 1.65
-7.06 -1.22 1.21
-7.16 -1.21 1.20
-7.25 -1.20 1.19
-7.28 -1.18 1.19
-7.37 -1.16 1.18
-7.28 -1.13 1.19
-7.35 -1.11 1.18
-7.26 -1.08 1.19
-7.37 -1.07 1.18
-4.35 -0.73 1.49
-7.01 -0.94 1.22
-10.09 -1.21 0.91
-9.85 -0.89 0.93
-10.48 -0.59 0.87
-10.44 -0.52 0.87
-10.58 -0.50 0.86
-1.37 -0.14 1.78
-10.42 -0.43 0.87
-10.29 -0.36 0.89
-10.02 -0.24 0.91
-10.29 -0.21 0.89
-9.95 -0.17 0.92
-2.91 -0.07 1.63
-9.99 -0.12 0.91
-2.45 -0.04 1.67
-9.90 -0.02 0.92
-10.33 0.01 1.05
-10.20 0.03 1.06
-10.07 0.06 1.07
-10.17 0.08 1.06
-9.85 0.10 1.10
-10.05 0.13 1.07
-10.23 0.16 1.05
-9.94 0.18 1.08
-10.00 0.20 1.08
-9.85 0.23 1.09
-10.09 0.26 1.07
-9.98 0.28 1.08
-9.77 0.30 1.10
-9.69 0.32 1.11
-9.70 0.34 1.11
-9.63 0.36 1.12
-8.23 0.33 1.26
-9.37 0.40 1.14
-9.76 0.44 1.10
-8.98 0.43 1.18
-8.59 0.43 1.22
-9.28 0.49 1.15
-8.61 0.48 1.22
-8.78 0.51 1.20
-7.97 0.48 1.29
-7.87 0.50 1.30
-9.79 0.63 1.09
-7.67 0.52 1.32
-7.55 0.53 1.33
-7.48 0.55 1.34
-7.29 0.55 1.36
-7.52 0.59 1.34
-4.32 0.40 1.68
-4.82 0.48 1.62
-4.44 0.48 1.66
-4.31 0.47 1.68
-4.77 0.53 1.63
-13.37 1.48 0.70
-4.52 0.54 1.65
-4.40 0.54 1.66
-4.27 0.54 1.68
-4.15 0.54 1.69
-4.36 0.57 1.67
-4.59 0.61 1.64
-4.18 0.57 1.69
-4.18 0.58 1.69
-4.99 0.70 1.60
-4.30 0.62 1.67
-4.73 0.69 1.63
-5.09 0.77 1.59
-4.92 0.75 1.60
-4.70 0.74 1.63
-5.08 0.80 1.59
-5.13 0.83 1.58
-5.00 0.82 1.59
-5.16 0.86 1.58
-5.48 0.94 1.54
-5.13 0.95 1.58
-4.48 0.87 1.65
-4.80 0.94 1.61
-4.86 0.98 1.60
-4.59 0.96 1.63
-4.91 1.03 1.60
-4.66 1.03 1.62
-4.55 1.02 1.63
-4.61 1.05 1.63
-4.48 1.06 1.64
-3.40 1.66 1.72
-3.14 -1.18 1.57
-2.86 -1.03 1.60
-3.11 -1.06 1.57
-3.72 -1.14 1.50
-3.27 -0.95 1.55
-4.04 -0.92 1.47
-4.06 -0.91 1.47
-9.83 -1.66 0.85
-9.94 -1.62 0.84
-7.21 -1.15 1.13
-4.12 -0.77 1.46
-7.14 -1.09 1.14
-7.31 -1.09 1.12
-4.65 -0.78 1.41
-7.23 -1.03 1.13
-6.96 -0.98 1.16
-7.15 -0.98 1.14
-7.10 -0.95 1.14
-7.33 -0.95 1.12
-7.48 -0.72 1.10
-10.55 -0.62 0.77
-7.82 -0.29 1.32
-10.65 -0.36 1.01
-8.65 -0.27 1.23
-10.63 -0.31 1.02
-8.24 -0.22 1.27
-10.42 -0.25 1.04
-10.48 -0.22 1.03
-10.35 -0.20 1.04
-10.32 -0.17 1.05
-8.33 -0.12 1.26
-10.29 -0.12 1.05
-10.43 -0.10 1.04
-10.38 -0.07 1.04
-10.54 -0.04 1.02
-10.46 -0.02 1.03
-9.26 0.03 0.83
-9.20 0.09 0.84
-9.81 0.12 0.77
-9.52 0.26 0.80
-2.85 0.14 1.56
-2.88 0.18 1.55
-8.71 0.44 0.89
-8.95 0.47 0.86
-3.04 0.26 1.53
-9.57 0.50 1.06
-7.63 0.48 1.28
-12.80 0.91 0.69
-13.20 1.14 0.64
-13.42 1.22 0.61
-9.71 0.92 1.03
-13.44 1.29 0.61
-13.28 1.54 0.62
-2.94 0.62 1.80
-7.21 -1.03 1.07
-7.32 -0.94 1.06
-7.03 -0.89 1.09
-0.53 -0.27 1.83
-9.86 -0.92 0.77
-10.40 0.01 0.89
-10.31 0.03 0.90
-10.21 0.06 0.92
-10.11 0.08 0.93
-10.21 0.11 0.91
-10.29 0.13 0.91
-9.91 0.15 0.95
-9.76 0.17 0.97
-8.85 0.18 1.08
-9.72 0.22 0.97
-9.76 0.25 0.97
-10.13 0.28 0.92
-9.67 0.29 0.98
-8.75 0.29 1.09
-9.41 0.33 1.01
-9.11 0.34 1.04
-9.55 0.38 0.99
-9.63 0.41 0.98
-9.68 0.46 0.97
-12.86 1.14 0.58
-12.72 1.16 0.60
-13.59 1.44 0.49
-13.72 1.49 0.47
-3.84 0.59 1.66
-4.60 0.98 1.56
-7.56 -1.21 0.96
-6.90 -0.70 1.04
-11.93 -0.58 0.72
-10.68 -0.49 0.86
-10.81 -0.44 0.85
-10.92 -0.42 0.84
-10.58 -0.36 0.88
-8.25 -0.20 1.15
-11.05 -0.24 0.82
-10.41 -0.17 0.89
-10.38 -0.10 0.90
-10.55 -0.07 0.88
-10.24 -0.04 0.91
-10.45 -0.02 0.89
-2.72 -0.00 1.50
-2.63 0.02 1.51
-10.01 0.08 0.87
-10.03 0.10 0.87
-9.60 0.12 0.92
-9.18 0.14 0.97
-9.30 0.16 0.96
-9.45 0.19 0.94
-9.50 0.22 0.93
-9.48 0.24 0.94
-9.38 0.26 0.95
-9.39 0.28 0.95
-9.17 0.30 0.97
-9.42 0.33 0.94
-9.48 0.35 0.93
-9.66 0.39 0.91
-9.14 0.39 0.98
-9.32 0.42 0.95
-8.26 0.39 1.09
-9.30 0.46 0.95
-9.22 0.48 0.96
-9.46 0.52 0.93
-9.32 0.53 0.95
-9.52 0.57 0.92
-9.40 0.59 0.94
-9.33 0.60 0.95
-7.75 0.53 1.15
-7.49 0.53 1.18
-9.16 0.66 0.97
-7.71 0.58 1.15
-7.50 0.58 1.18
-7.29 0.59 1.21
-12.80 1.04 0.50
-7.62 0.65 1.16
-7.50 0.68 1.18
-7.49 0.70 1.18
-4.88 0.48 1.51
-13.64 1.41 0.39
-13.62 1.47 0.39
-13.52 1.50 0.40
-7.54 -1.19 0.89
-7.73 -1.16 0.87
-7.46 -1.10 0.90
-5.85 -0.91 1.11
-5.36 -0.78 1.17
-5.25 -0.75 1.18
-6.97 -0.87 0.96
-5.92 -0.75 1.10
-5.24 -0.67 1.18
-5.68 -0.67 1.13
-6.57 -0.70 1.01
-6.60 -0.66 1.01
-6.50 -0.63 1.02
-9.01 -0.72 0.70
-9.10 -0.70 0.69
-7.66 -0.59 0.88
-2.29 -0.16 1.56
-2.85 -0.13 1.48
-2.59 -0.11 1.52
-2.72 -0.10 1.50
-2.64 -0.08 1.51
-2.69 -0.06 1.50
-2.58 -0.05 1.52
-2.59 -0.03 1.52
-2.58 -0.01 1.52
-10.03 0.00 0.79
-10.08 0.03 0.79
-4.54 0.03 1.53
-10.03 0.08 0.79
-10.01 0.10 0.79
-9.97 0.13 0.80
-8.71 0.13 0.97
-9.03 0.16 0.92
-8.73 0.18 0.96
-8.61 0.20 0.98
-8.78 0.22 0.96
-9.26 0.26 0.89
-9.36 0.28 0.88
-9.50 0.31 0.86
-9.55 0.33 0.85
-9.67 0.36 0.84
-9.84 0.39 0.81
-9.66 0.41 0.84
-9.79 0.44 0.82
-9.85 0.47 0.81
-7.66 0.39 1.10
-8.69 0.46 0.97
-7.36 0.41 1.14
-7.47 0.43 1.13
-7.54 0.45 1.12
-7.54 0.47 1.12
-7.63 0.50 1.11
-7.61 0.52 1.11
-7.62 0.54 1.11
-7.68 0.56 1.10
-7.74 0.58 1.09
-7.40 0.58 1.14
-6.88 0.56 1.20
-7.25 0.60 1.15
-7.37 0.63 1.14
-7.29 0.64 1.15
-7.48 0.70 1.12
-7.34 0.70 1.14
-4.71 0.48 1.49
-4.85 0.50 1.48
-4.76 0.51 1.49
-5.04 0.55 1.45
-4.92 0.55 1.46
-5.04 0.57 1.45
-4.52 0.53 1.52
-5.02 0.60 1.45
-5.03 0.61 1.45
-5.38 0.66 1.40
-4.88 0.62 1.47
-5.28 0.68 1.41
-5.16 0.68 1.43
-5.27 0.71 1.41
-4.73 0.65 1.49
-5.57 0.77 1.37
-5.40 0.76 1.40
-5.82 0.83 1.34
-5.93 0.86 1.32
-5.78 0.86 1.34
-5.27 0.80 1.41
-5.36 0.83 1.40
-5.48 0.86 1.38
-4.90 0.79 1.46
-5.02 0.82 1.44
-4.91 0.82 1.46
-4.87 0.84 1.46
-5.12 0.90 1.43
-4.99 0.90 1.44
-4.97 0.90 1.45
-4.38 0.82 1.53
-4.57 0.86 1.50
-4.35 0.84 1.53
-4.63 0.91 1.49
-4.54 0.91 1.50
-3.96 0.81 1.58
-4.18 0.86 1.55
-4.04 0.85 1.57
-4.09 0.87 1.56
-4.79 1.03 1.46
-4.25 0.93 1.54
-4.50 1.00 1.50
-4.46 1.08 1.50
-4.42 1.08 1.51
-3.49 -1.25 1.36
-3.86 -1.04 1.31
-4.51 -0.83 1.22
-5.37 -0.92 1.11
-7.31 -1.09 0.85
-5.23 -0.81 1.13
-5.33 -0.80 1.11
-5.47 -0.79 1.09
-5.44 -0.77 1.10
-5.48 -0.75 1.09
-5.43 -0.73 1.10
-6.15 -0.77 1.00
-5.51 -0.70 1.09
-5.48 -0.68 1.09
-5.50 -0.66 1.09
-5.79 -0.66 1.05
-5.97 -0.66 1.03
-5.88 -0.63 1.04
-5.68 -0.59 1.07
-3.06 -0.39 1.42
-6.38 -0.60 0.97
-6.46 -0.58 0.96
-6.24 -0.55 0.99
-3.68 -0.27 1.33
-8.70 -0.46 0.66
-3.28 -0.23 1.39
-3.12 -0.21 1.41
-8.93 -0.38 0.63
-3.33 -0.19 1.38
-3.14 -0.17 1.41
-3.14 -0.15 1.41
-3.03 -0.14 1.42
-2.99 -0.12 1.42
-2.97 -0.11 1.43
-2.91 -0.09 1.44
-10.53 -0.15 0.73
-10.03 -0.12 0.79
-10.07 -0.09 0.79
-8.17 -0.06 1.04
-9.86 -0.04 0.82
-10.00 -0.02 0.80
-2.53 -0.00 1.45
-2.66 0.01 1.43
-2.56 0.02 1.44
-2.73 0.04 1.42
-2.55 0.05 1.45
-2.64 0.06 1.43
-2.78 0.08 1.41
-2.53 0.09 1.45
-2.69 0.10 1.43
-2.62 0.11 1.43
-2.80 0.13 1.41
-9.18 0.25 0.84
-9.37 0.28 0.81
-7.58 0.25 1.06
-9.56 0.33 0.78
-8.07 0.30 0.99
-7.65 0.31 1.05
-7.63 0.33 1.05
-7.68 0.35 1.05
-7.33 0.35 1.09
-7.38 0.37 1.09
-7.20 0.38 1.11
-3.85 0.22 1.59
-7.56 0.44 1.06
-7.34 0.44 1.09
-7.56 0.47 1.06
-7.31 0.48 1.10
-7.36 0.50 1.09
-7.33 0.52 1.09
-7.27 0.53 1.10
-7.20 0.54 1.11
-6.87 0.54 1.16
-7.15 0.57 1.12
-7.14 0.59 1.12
-7.37 0.63 1.08
-7.39 0.67 1.08
-9.47 0.87 0.78
-4.94 0.53 1.43
-5.04 0.60 1.41
-5.28 0.66 1.37
-8.28 1.06 0.94
-5.36 0.71 1.36
-5.61 0.76 1.33
-5.21 0.72 1.38
-5.66 0.80 1.32
-5.53 0.79 1.34
-2.66 -1.24 1.43
-5.23 -1.05 1.07
-5.36 -0.95 1.05
-5.35 -0.93 1.05
-5.43 -0.92 1.04
-5.40 -0.90 1.05
-5.32 -0.85 1.06
-5.38 -0.82 1.05
-5.37 -0.80 1.05
-5.54 -0.80 1.03
-5.56 -0.78 1.03
-5.65 -0.77 1.01
-5.96 -0.76 0.97
-5.58 -0.68 1.02
-5.80 -0.68 0.99
-5.89 -0.67 0.98
-5.82 -0.64 0.99
-5.76 -0.62 1.00
-5.98 -0.61 0.97
-5.93 -0.59 0.97
-6.03 -0.58 0.96
-5.95 -0.55 0.97
-5.59 -0.51 1.02
-5.31 -0.47 1.06
-5.66 -0.47 1.01
-5.46 -0.44 1.04
-5.21 -0.39 1.07
-4.86 -0.36 1.12
-4.99 -0.34 1.10
-4.64 -0.28 1.15
-4.82 -0.27 1.13
-2.81 -0.17 1.41
-2.76 -0.16 1.42
-2.76 -0.14 1.42
-2.81 -0.13 1.41
-2.70 -0.10 1.43
-2.60 -0.09 1.44
-2.51 -0.06 1.45
-2.60 -0.05 1.44
-2.56 -0.04 1.45
-2.44 -0.03 1.46
-2.52 -0.01 1.45
-8.24 0.00 0.90
-8.16 0.02 0.92
-8.57 0.05 0.85
-8.33 0.07 0.89
-5.02 0.05 1.38
-5.47 0.07 1.32
-5.52 0.09 1.31
-5.29 0.11 1.34
-5.51 0.13 1.31
-5.48 0.14 1.31
-5.44 0.15 1.32
-5.49 0.17 1.31
-5.32 0.18 1.34
-5.31 0.19 1.34
-5.59 0.22 1.29
-5.32 0.22 1.33
-7.31 0.31 1.04
-4.15 0.20 1.51
-4.09 0.20 1.52
-7.13 0.36 1.06
-7.09 0.38 1.07
-7.25 0.40 1.04
-7.15 0.41 1.06
-3.94 0.25 1.54
-7.00 0.44 1.08
-3.99 0.27 1.53
-3.96 0.28 1.53
-3.79 0.28 1.56
-7.16 0.52 1.05
-4.06 0.32 1.52
-3.85 0.31 1.55
-3.77 0.32 1.56
-3.98 0.34 1.53
-3.82 0.34 1.55
-7.43 0.65 1.01
-3.96 0.37 1.53
-7.23 0.67 1.04
-4.97 0.49 1.38
-6.21 0.63 1.19
-5.10 0.55 1.36
-6.28 0.69 1.18
-5.09 0.58 1.36
-5.06 0.59 1.36
-5.12 0.61 1.35
-5.34 0.66 1.32
-5.63 0.71 1.27
-5.52 0.71 1.29
-5.50 0.73 1.29
-5.57 0.76 1.28
-5.64 0.78 1.27
-5.61 0.81 1.27
-5.54 0.83 1.28
-5.45 0.83 1.30
-5.50 0.85 1.29
-5.38 0.85 1.31
-5.17 0.83 1.34
-5.23 0.85 1.33
-5.32 0.88 1.31
-5.44 0.93 1.29
-5.34 0.92 1.31
-5.33 0.95 1.31
-4.47 0.85 1.44
-4.22 0.84 1.48
-4.41 0.88 1.45
-4.49 0.91 1.43
-4.39 0.90 1.45
-4.64 1.00 1.41
-4.24 0.96 1.47
-2.21 -1.10 1.46
-2.80 -1.17 1.37
-4.55 -1.19 1.11
-2.75 -0.85 1.38
-5.18 -1.05 1.01
-5.24 -1.03 1.01
-5.06 -0.99 1.03
-5.02 -0.97 1.04
-5.02 -0.95 1.04
-5.11 -0.94 1.03
-5.01 -0.91 1.04
-4.99 -0.89 1.04
-5.08 -0.88 1.03
-1.85 -0.51 1.51
-5.45 -0.89 0.97
-5.42 -0.86 0.98
-5.23 -0.83 1.01
-5.21 -0.81 1.01
-5.37 -0.80 0.99
-5.00 -0.75 1.04
-5.33 -0.76 0.99
-5.59 -0.77 0.95
-6.00 -0.78 0.89
-5.91 -0.75 0.91
-5.95 -0.74 0.90
-5.82 -0.71 0.92
-5.97 -0.70 0.90
-5.70 -0.66 0.94
-5.74 -0.64 0.93
-3.08 -0.42 1.33
-5.87 -0.61 0.91
-6.03 -0.60 0.89
-5.83 -0.57 0.92
-2.94 -0.36 1.35
-2.95 -0.35 1.35
-6.19 -0.53 0.86
-2.99 -0.32 1.34
-5.59 -0.45 0.95
-4.88 -0.39 1.06
-5.06 -0.39 1.03
-4.72 -0.35 1.08
-4.89 -0.34 1.06
-4.93 -0.33 1.05
-4.82 -0.30 1.07
-4.94 -0.29 1.05
-4.72 -0.26 1.08
-9.28 -0.32 0.75
-7.43 -0.24 1.03
-10.29 -0.30 0.60
-7.57 -0.18 1.01
-9.65 -0.19 0.70
-9.65 -0.16 0.70
-9.89 -0.12 0.66
-4.45 -0.04 1.47
-9.69 -0.07 0.69
-9.73 -0.04 0.68
-9.55 -0.02 0.71
-2.51 -0.00 1.38
-2.39 0.01 1.40
-2.66 0.02 1.35
-2.26 0.03 1.41
-2.52 0.05 1.37
-8.34 0.13 0.46
-2.60 0.07 1.36
-2.44 0.08 1.39
-2.82 0.10 1.33
-2.62 0.11 1.36
-2.54 0.12 1.37
-2.77 0.14 1.33
-2.72 0.15 1.34
-2.56 0.16 1.37
-2.78 0.18 1.33
-2.79 0.19 1.33
-2.78 0.21 1.33
-2.76 0.22 1.33
-2.70 0.23 1.34
-2.71 0.24 1.34
-3.87 0.20 1.52
-7.09 0.39 1.02
-6.89 0.43 1.05
-3.79 0.26 1.53
-3.68 0.27 1.55
-3.69 0.29 1.55
-3.72 0.31 1.54
-3.77 0.33 1.53
-3.83 0.35 1.52
-3.58 0.36 1.56
-4.19 0.48 1.47
-5.40 0.75 1.27
-4.95 0.74 1.34
-3.73 0.71 1.53
-3.35 0.68 1.58
-0.93 -0.56 1.63
-5.35 -0.97 0.94
-6.61 -0.97 0.74
-5.82 -0.74 0.86
-5.77 -0.68 0.87
-5.94 -0.67 0.84
-6.50 -0.52 0.76
-8.20 -0.49 0.49
-8.32 -0.47 0.47
-4.94 -0.25 1.00
-4.92 -0.23 1.00
-2.27 -0.13 1.42
-2.47 -0.11 1.38
-2.38 -0.10 1.40
-2.39 -0.07 1.40
-2.41 -0.06 1.39
-2.37 -0.04 1.40
-2.39 -0.01 1.40
-6.03 0.00 1.13
-9.75 0.03 0.52
-9.57 0.05 0.55
-9.62 0.07 0.54
-8.31 0.08 0.76
-8.38 0.11 0.75
-9.15 0.14 0.62
-8.54 0.15 0.72
-8.64 0.17 0.70
-8.65 0.20 0.70
-3.97 0.11 1.47
-3.94 0.11 1.47
-4.31 0.14 1.41
-3.97 0.14 1.47
-4.06 0.15 1.45
-4.20 0.17 1.43
-5.23 0.22 1.26
-4.16 0.19 1.44
-7.19 0.33 0.94
-3.94 0.20 1.47
-4.26 0.22 1.42
-3.98 0.22 1.46
-3.86 0.22 1.48
-4.40 0.26 1.39
-3.87 0.24 1.48
-4.09 0.27 1.45
-3.82 0.26 1.49
-3.92 0.28 1.47
-7.08 0.50 0.95
-3.91 0.30 1.47
-3.76 0.30 1.50
-3.90 0.32 1.48
-3.65 0.31 1.52
-3.60 0.32 1.52
-3.77 0.34 1.50
-3.75 0.35 1.50
-3.70 0.35 1.51
-4.02 0.39 1.45
-3.78 0.38 1.49
-3.81 0.39 1.49
-3.91 0.41 1.47
-3.89 0.42 1.47
-4.34 0.48 1.40
-4.14 0.47 1.43
-5.53 0.62 1.20
-5.23 0.61 1.25
-5.30 0.63 1.24
-5.30 0.64 1.24
-5.36 0.66 1.23
-5.33 0.67 1.23
-5.26 0.68 1.24
-5.22 0.69 1.25
-5.24 0.70 1.24
-5.29 0.72 1.24
-5.37 0.75 1.22
-5.36 0.76 1.22
-5.36 0.77 1.22
-5.38 0.79 1.22
-5.50 0.82 1.20
-5.47 0.83 1.20
-5.40 0.84 1.21
-5.43 0.85 1.21
-5.40 0.86 1.21
-5.37 0.87 1.22
-5.47 0.90 1.20
-5.46 0.92 1.20
-4.74 0.87 1.32
-4.60 0.86 1.34
-4.14 0.80 1.42
-3.94 0.79 1.45
-4.63 -1.31 0.98
-4.59 -1.23 0.99
-4.76 -1.20 0.96
-4.47 -1.14 1.01
-4.29 -1.10 1.04
-5.63 -1.21 0.82
-5.48 -1.17 0.84
-5.36 -1.13 0.86
-5.30 -1.10 0.87
-5.34 -1.09 0.87
-5.01 -1.02 0.92
-5.25 -1.04 0.88
-5.10 -1.00 0.91
-5.40 -1.02 0.86
-2.31 -0.62 1.37
-5.01 -0.93 0.92
-5.16 -0.93 0.90
-5.35 -0.94 0.87
-4.56 -0.83 1.00
-6.34 -1.01 0.70
-4.87 -0.83 0.95
-6.23 -0.95 0.72
-6.33 -0.94 0.70
-2.02 -0.48 1.41
-6.13 -0.88 0.74
-6.19 -0.86 0.73
-6.22 -0.85 0.72
-5.95 -0.80 0.77
-6.32 -0.81 0.71
-5.95 -0.76 0.77
-6.40 -0.78 0.69
-5.97 -0.72 0.76
-6.19 -0.72 0.73
-6.07 -0.69 0.75
-5.59 -0.61 0.83
-5.61 -0.59 0.82
-5.48 -0.54 0.85
-5.87 -0.55 0.78
-5.68 -0.52 0.81
-7.60 -0.43 0.88
-7.22 -0.39 0.94
-7.17 -0.37 0.95
-9.50 -0.46 0.57
-10.86 -0.50 0.35
-9.80 -0.43 0.52
-10.36 -0.43 0.43
-10.86 -0.42 0.34
-10.71 -0.39 0.37
-10.98 -0.37 0.33
-7.29 -0.23 0.93
-7.84 -0.23 0.84
-10.15 -0.27 0.46
-10.22 -0.25 0.45
-9.64 -0.21 0.54
-9.66 -0.19 0.54
-10.01 -0.17 0.48
-10.00 -0.14 0.49
-9.81 -0.12 0.52
-9.72 -0.09 0.53
-9.92 -0.07 0.50
-6.14 -0.03 1.12
-6.49 -0.01 1.06
-2.76 -0.00 1.25
-2.54 0.01 1.28
-3.07 0.03 1.19
-9.60 0.10 0.47
-5.41 0.07 1.19
-8.49 0.13 0.66
-8.47 0.15 0.66
-8.98 0.18 0.58
-8.81 0.20 0.60
-3.81 0.10 1.47
-3.81 0.11 1.47
-4.08 0.13 1.42
-3.93 0.13 1.44
-3.78 0.14 1.47
-3.95 0.15 1.44
-4.01 0.17 1.43
-4.34 0.19 1.37
-3.99 0.19 1.43
-4.10 0.20 1.41
-4.01 0.21 1.43
-3.99 0.22 1.43
-3.83 0.22 1.46
-3.76 0.23 1.47
-3.72 0.23 1.48
-3.67 0.24 1.48
-3.64 0.25 1.49
-3.72 0.26 1.48
-3.68 0.27 1.48
-3.64 0.28 1.49
-3.70 0.29 1.48
-3.78 0.31 1.46
-3.74 0.31 1.47
-3.85 0.33 1.45
-3.70 0.33 1.48
-3.77 0.35 1.46
-3.75 0.35 1.47
-3.81 0.37 1.46
-3.87 0.39 1.45
-3.83 0.39 1.45
-3.76 0.40 1.46
-3.74 0.40 1.47
-5.43 0.58 1.17
-3.90 0.44 1.44
-5.23 0.59 1.21
-3.86 0.46 1.44
-4.01 0.48 1.42
-5.02 0.61 1.24
-5.23 0.64 1.20
-5.15 0.65 1.22
-5.14 0.66 1.22
-5.42 0.71 1.17
-5.38 0.72 1.18
-5.32 0.72 1.19
-5.29 0.73 1.19
-5.33 0.75 1.19
-5.24 0.75 1.20
-5.23 0.77 1.20
-5.35 0.80 1.18
-5.39 0.82 1.17
-5.37 0.83 1.17
-3.64 0.59 1.48
-5.36 0.85 1.17
-5.35 0.87 1.18
-3.51 0.60 1.50
-5.40 0.90 1.17
-5.20 0.93 1.20
-3.76 0.76 1.45
-3.93 0.81 1.42
-3.83 0.81 1.43
-2.41 -1.32 1.30
-4.75 -1.32 0.90
-4.59 -1.24 0.93
-4.54 -1.17 0.94
-5.16 -1.21 0.83
-5.12 -1.19 0.84
-5.22 -1.18 0.82
-5.32 -1.18 0.81
-5.49 -1.18 0.78
-5.36 -1.15 0.80
-5.26 -1.11 0.82
-5.04 -1.06 0.86
-4.69 -1.00 0.92
-1.98 -0.62 1.39
-5.16 -1.02 0.84
-2.00 -0.58 1.38
-2.23 -0.59 1.34
-2.63 -0.63 1.28
-2.07 -0.55 1.37
-4.82 -0.85 0.90
-2.20 -0.54 1.35
-2.64 -0.58 1.27
-2.33 -0.53 1.33
-2.41 -0.53 1.31
-2.27 -0.50 1.34
-2.06 -0.47 1.37
-2.60 -0.51 1.28
-2.44 -0.49 1.31
-2.64 -0.49 1.27
-2.76 -0.49 1.25
-2.72 -0.47 1.26
-2.81 -0.47 1.24
-2.63 -0.44 1.28
-6.32 -0.73 0.64
-2.71 -0.42 1.26
-5.83 -0.65 0.72
-5.33 -0.59 0.81
-2.59 -0.38 1.28
-2.65 -0.37 1.27
-2.49 -0.34 1.30
-6.72 -0.60 0.57
-2.37 -0.31 1.32
-3.06 -0.34 1.20
-2.56 -0.30 1.29
-2.88 -0.30 1.23
-2.83 -0.29 1.24
-4.38 -0.35 0.97
-2.61 -0.25 1.28
-2.81 -0.25 1.24
-2.66 -0.23 1.27
-2.50 -0.21 1.29
-2.66 -0.20 1.27
-2.73 -0.19 1.26
-2.65 -0.18 1.27
-2.77 -0.17 1.25
-2.55 -0.15 1.29
-2.45 -0.14 1.30
-2.33 -0.12 1.32
-2.61 -0.11 1.27
-2.59 -0.10 1.28
-2.54 -0.09 1.29
-2.67 -0.08 1.26
-2.50 -0.06 1.29
-2.86 -0.05 1.23
-2.56 -0.04 1.28
-2.58 -0.03 1.28
-2.75 -0.01 1.25
-6.24 0.00 1.00
-7.36 0.02 0.79
-9.31 0.05 0.44
-6.25 0.05 0.99
-9.01 0.09 0.50
-6.56 0.08 0.94
-8.64 0.13 0.56
-6.59 0.12 0.93
-6.74 0.14 0.90
-6.72 0.15 0.91
-6.72 0.17 0.91
-8.85 0.24 0.52
-6.71 0.20 0.91
-6.74 0.22 0.90
-8.83 0.31 0.52
-8.72 0.33 0.54
-8.61 0.34 0.56
-8.51 0.36 0.58
-7.38 0.33 0.78
-7.34 0.35 0.79
-7.28 0.36 0.80
-7.11 0.37 0.83
-7.65 0.42 0.73
-6.47 0.37 0.95
-7.00 0.42 0.85
-4.30 0.28 1.34
-3.98 0.27 1.39
-4.08 0.29 1.38
-7.54 0.53 0.75
-5.70 0.42 1.08
-7.43 0.56 0.77
-5.79 0.46 1.07
-5.88 0.48 1.05
-5.99 0.50 1.03
-5.97 0.51 1.03
-5.98 0.53 1.03
-5.88 0.54 1.05
-7.82 0.72 0.69
-5.98 0.58 1.03
-5.92 0.59 1.04
-6.01 0.61 1.02
-5.81 0.61 1.06
-5.62 0.60 1.09
-5.50 0.60 1.11
-5.39 0.61 1.13
-5.52 0.63 1.11
-5.54 0.65 1.10
-5.40 0.65 1.13
-5.44 0.67 1.12
-5.38 0.68 1.13
-5.44 0.70 1.12
-5.47 0.71 1.11
-5.48 0.73 1.11
-5.41 0.73 1.12
-5.55 0.77 1.10
-5.49 0.77 1.11
-5.48 0.79 1.11
-5.35 0.78 1.13
-5.47 0.81 1.11
-5.48 0.83 1.11
-5.46 0.84 1.11
-5.45 0.85 1.11
-5.52 0.88 1.10
-5.49 0.89 1.10
-5.47 0.90 1.11
-5.59 0.93 1.08
-5.52 0.94 1.10
-5.71 0.98 1.06
-5.63 0.98 1.07
-5.62 1.00 1.07
-5.61 1.01 1.07
-5.52 1.01 1.09
-5.72 1.06 1.05
-5.30 1.04 1.13
-4.94 0.99 1.19
-4.13 0.86 1.34
-4.97 1.04 1.19
-4.44 1.04 1.28
-4.47 1.21 1.26
-2.77 -1.32 1.20
-2.89 -1.34 1.17
-3.12 -1.33 1.13
-2.56 -1.16 1.24
-4.80 -1.39 0.83
-4.58 -1.33 0.87
-4.54 -1.29 0.88
-2.52 -0.91 1.25
-4.57 -1.26 0.88
-4.97 -1.31 0.80
-4.66 -1.24 0.86
-4.73 -1.23 0.85
-4.72 -1.21 0.85
-4.68 -1.19 0.86
-4.95 -1.22 0.81
-4.89 -1.19 0.82
-4.93 -1.18 0.81
-4.96 -1.16 0.81
-4.65 -1.10 0.86
-4.97 -1.13 0.80
-5.16 -1.14 0.77
-5.15 -1.12 0.77
-5.02 -1.08 0.80
-5.11 -1.07 0.78
-4.91 -1.03 0.82
-4.77 -0.99 0.84
-4.40 -0.92 0.91
-4.98 -0.98 0.80
-5.19 -0.99 0.77
-4.56 -0.89 0.88
-4.63 -0.89 0.87
-4.71 -0.88 0.85
-4.98 -0.89 0.80
-4.94 -0.87 0.81
-5.02 -0.86 0.80
-4.94 -0.83 0.81
-3.03 -0.61 1.16
-4.98 -0.80 0.81
-5.63 -0.85 0.69
-5.12 -0.78 0.78
-2.53 -0.51 1.25
-2.85 -0.53 1.19
-2.89 -0.52 1.18
-5.84 -0.77 0.65
-2.89 -0.49 1.18
-2.79 -0.47 1.20
-2.77 -0.45 1.20
-2.67 -0.43 1.22
-6.21 -0.70 0.58
-5.85 -0.65 0.65
-5.83 -0.63 0.65
-5.47 -0.58 0.72
-6.19 -0.61 0.59
-3.03 -0.38 1.16
-6.08 -0.56 0.61
-5.92 -0.53 0.63
-5.64 -0.49 0.69
-5.55 -0.47 0.70
-5.19 -0.43 0.77
-4.64 -0.38 0.87
-5.29 -0.40 0.75
-4.70 -0.35 0.86
-2.90 -0.25 1.18
-2.94 -0.24 1.17
-4.58 -0.29 0.88
-4.88 -0.29 0.82
-4.96 -0.27 0.81
-5.34 -0.27 0.74
-5.62 -0.26 0.69
-5.10 -0.22 0.78
-4.85 -0.20 0.83
-3.81 -0.16 1.01
-5.77 -0.18 0.66
-5.89 -0.16 0.64
-3.27 -0.10 1.11
-6.14 -0.09 1.01
-5.83 -0.07 1.07
-5.88 -0.06 1.06
-5.83 -0.04 1.07
-5.79 -0.03 1.08
-6.06 -0.01 1.03
-2.72 -0.00 1.16
-2.67 0.01 1.17
-3.26 0.03 1.06
-3.09 0.04 1.09
-3.02 0.05 1.11
-3.13 0.07 1.08
-3.01 0.09 1.11
-3.15 0.12 1.08
-3.15 0.14 1.08
-3.93 0.11 1.37
-4.00 0.12 1.36
-3.91 0.13 1.38
-3.79 0.14 1.40
-3.92 0.15 1.37
-3.87 0.16 1.38
-3.82 0.17 1.39
-3.81 0.18 1.40
-3.83 0.19 1.39
-3.87 0.20 1.38
-3.92 0.21 1.37
-3.91 0.22 1.37
-3.99 0.24 1.36
-4.01 0.25 1.35
-4.00 0.26 1.36
-4.01 0.27 1.35
-3.98 0.28 1.36
-3.93 0.29 1.37
-4.29 0.32 1.30
-4.17 0.32 1.32
-4.20 0.34 1.32
-4.23 0.35 1.31
-4.76 0.40 1.21
-5.16 0.45 1.13
-5.31 0.47 1.10
-5.36 0.49 1.09
-5.27 0.50 1.11
-5.34 0.52 1.10
-5.21 0.52 1.12
-5.44 0.55 1.08
-5.34 0.56 1.09
-5.41 0.58 1.08
-5.37 0.59 1.09
-5.12 0.58 1.13
-5.31 0.61 1.10
-5.46 0.64 1.07
-5.49 0.66 1.06
-5.52 0.67 1.06
-5.37 0.67 1.08
-5.19 0.66 1.12
-5.23 0.68 1.11
-5.20 0.69 1.12
-5.16 0.70 1.12
-5.07 0.70 1.14
-5.11 0.72 1.13
-5.14 0.74 1.12
-5.27 0.77 1.10
-5.31 0.79 1.09
-5.37 0.81 1.08
-5.34 0.82 1.08
-5.39 0.84 1.07
-5.19 0.83 1.11
-5.20 0.86 1.11
-3.53 0.61 1.43
-5.61 1.01 1.02
-3.58 0.71 1.41
-3.71 0.85 1.38
-0.37 -0.69 1.62
-1.55 -0.79 1.39
-2.09 -0.78 1.29
-1.99 -0.75 1.31
-3.32 -0.87 1.06
-4.96 -1.09 0.74
-3.38 -0.85 1.04
-3.66 -0.86 0.99
-3.89 -0.87 0.95
-4.29 -0.91 0.87
-2.01 -0.60 1.30
-2.98 -0.70 1.12
-5.11 -0.94 0.72
-2.73 -0.63 1.17
-2.87 -0.63 1.14
-3.20 -0.65 1.08
-2.57 -0.57 1.20
-2.35 -0.54 1.24
-2.66 -0.56 1.18
-2.44 -0.52 1.22
-2.29 -0.48 1.25
-2.66 -0.51 1.18
-2.45 -0.47 1.22
-2.19 -0.44 1.27
-2.22 -0.43 1.27
-2.79 -0.47 1.16
-2.26 -0.41 1.26
-2.37 -0.40 1.24
-2.41 -0.39 1.23
-2.53 -0.38 1.21
-2.43 -0.36 1.22
-6.64 -0.64 0.43
-2.74 -0.36 1.17
-2.64 -0.34 1.18
-2.60 -0.31 1.19
-2.74 -0.31 1.17
-2.78 -0.30 1.16
-2.57 -0.28 1.20
-2.83 -0.28 1.15
-2.69 -0.26 1.17
-2.89 -0.25 1.14
-3.17 -0.24 1.08
-2.94 -0.21 1.13
-2.86 -0.20 1.14
-3.26 -0.20 1.07
-5.47 -0.25 0.65
-3.88 -0.19 0.95
-4.03 -0.18 0.92
-3.69 -0.14 0.98
-3.80 -0.13 0.96
-6.04 -0.15 0.54
-6.23 -0.13 0.50
-6.14 -0.11 0.52
-4.53 -0.07 0.82
-6.29 -0.07 0.49
-6.33 -0.04 0.48
-8.27 0.00 0.48
-7.47 0.02 0.64
-5.70 0.03 0.99
-5.45 0.04 1.03
-6.92 0.07 0.74
-6.86 0.09 0.75
-5.50 0.08 1.02
-5.29 0.09 1.06
-5.46 0.11 1.03
-5.19 0.12 1.08
-5.35 0.14 1.05
-4.97 0.14 1.13
-4.54 0.14 1.21
-4.55 0.15 1.21
-4.22 0.15 1.27
-4.25 0.17 1.27
-4.15 0.17 1.29
-4.13 0.18 1.29
-4.27 0.20 1.26
-4.28 0.21 1.26
-4.30 0.22 1.26
-4.23 0.23 1.27
-4.14 0.24 1.29
-4.23 0.25 1.27
-4.29 0.27 1.26
-4.30 0.28 1.25
-4.35 0.29 1.24
-4.45 0.31 1.22
-4.51 0.33 1.21
-4.85 0.36 1.14
-5.29 0.41 1.05
-5.46 0.43 1.02
-5.55 0.45 1.00
-5.46 0.46 1.02
-5.54 0.48 1.00
-5.69 0.51 0.97
-5.79 0.53 0.95
-5.73 0.54 0.97
-5.50 0.53 1.01
-5.34 0.53 1.04
-5.39 0.55 1.03
-5.39 0.56 1.03
-5.37 0.58 1.03
-5.42 0.60 1.02
-5.44 0.61 1.02
-5.40 0.62 1.02
-5.47 0.64 1.01
-5.55 0.67 0.99
-5.55 0.68 0.99
-5.55 0.70 0.99
-5.54 0.71 0.99
-5.49 0.72 1.00
-5.40 0.72 1.02
-5.19 0.71 1.06
-4.92 0.69 1.12
-4.88 0.69 1.12
-5.01 0.72 1.10
-5.18 0.76 1.06
-5.31 0.79 1.03
-5.37 0.81 1.02
-5.35 0.83 1.03
-5.49 0.86 1.00
-5.35 0.85 1.02
-5.28 0.86 1.04
-5.24 0.86 1.05
-5.00 0.84 1.09
-5.20 0.89 1.05
-5.50 0.95 0.99
-5.47 0.96 1.00
-5.73 1.03 0.94
-5.93 1.08 0.90
-5.85 1.08 0.92
-5.80 1.09 0.93
-5.78 1.10 0.93
-5.70 1.15 0.94
-4.39 0.95 1.20
-4.14 0.92 1.25
-4.22 1.00 1.23
-3.84 0.94 1.31
-2.85 -1.43 1.08
-2.65 -1.27 1.12
-3.69 -1.49 0.91
-2.79 -1.24 1.10
-2.18 -1.07 1.22
-4.71 -1.52 0.71
-4.55 -1.45 0.75
-2.12 -0.94 1.23
-2.09 -0.91 1.24
-4.25 -1.31 0.81
-4.58 -1.32 0.74
-4.49 -1.23 0.76
-4.47 -1.21 0.77
-4.35 -1.17 0.79
-3.97 -1.08 0.87
-4.12 -1.07 0.84
-4.12 -1.04 0.84
-4.77 -1.12 0.71
-4.81 -1.11 0.70
-3.83 -0.93 0.90
-3.88 -0.91 0.89
-4.05 -0.90 0.85
-4.13 -0.89 0.84
-3.71 -0.82 0.92
-3.43 -0.76 0.98
-3.28 -0.71 1.01
-5.24 -0.91 0.62
-3.18 -0.66 1.03
-5.33 -0.88 0.60
-3.04 -0.60 1.06
-2.96 -0.56 1.07
-2.94 -0.54 1.07
-2.73 -0.50 1.12
-3.01 -0.51 1.06
-2.93 -0.48 1.08
-2.84 -0.45 1.09
-2.80 -0.42 1.10
-2.82 -0.41 1.10
-2.97 -0.40 1.07
-2.90 -0.37 1.08
-4.53 -0.41 0.76
-5.09 -0.43 0.65
-4.99 -0.40 0.67
-5.23 -0.38 0.62
-5.32 -0.34 0.60
-5.36 -0.31 0.59
-6.02 -0.23 0.92
-5.95 -0.21 0.94
-6.23 -0.20 0.88
-5.56 -0.17 1.02
-5.44 -0.15 1.04
-5.57 -0.14 1.01
-5.40 -0.12 1.05
-5.47 -0.11 1.03
-5.40 -0.10 1.05
-6.01 -0.08 0.92
-7.68 -0.06 0.59
-6.95 -0.03 0.74
-7.20 -0.02 0.69
-2.22 -0.00 1.18
-6.17 0.02 0.36
-2.88 0.10 1.04
-2.70 0.14 1.08
-5.33 0.22 0.53
-3.28 0.21 0.95
-3.30 0.22 0.95
-4.55 0.29 0.69
-3.32 0.25 0.94
-3.38 0.27 0.93
-3.98 0.21 1.29
-4.00 0.22 1.28
-3.96 0.22 1.29
-4.00 0.24 1.28
-4.10 0.25 1.26
-3.97 0.26 1.29
-4.13 0.28 1.26
-4.06 0.28 1.27
-4.17 0.30 1.25
-4.17 0.31 1.25
-4.19 0.32 1.24
-4.27 0.34 1.23
-4.36 0.36 1.21
-4.42 0.37 1.19
-4.77 0.41 1.12
-4.67 0.42 1.14
-4.98 0.46 1.07
-4.79 0.45 1.11
-4.76 0.46 1.12
-4.40 0.44 1.19
-4.47 0.46 1.18
-4.27 0.45 1.22
-4.61 0.50 1.15
-4.72 0.52 1.13
-5.11 0.57 1.04
-5.31 0.61 1.00
-5.17 0.61 1.03
-5.06 0.61 1.05
-5.16 0.63 1.03
-5.19 0.65 1.02
-5.24 0.67 1.01
-5.12 0.67 1.04
-5.17 0.69 1.03
-4.95 0.67 1.07
-4.87 0.68 1.09
-4.86 0.69 1.09
-4.83 0.70 1.10
-4.92 0.72 1.08
-4.80 0.72 1.10
-4.82 0.73 1.10
-4.80 0.74 1.10
-4.58 0.72 1.14
-3.81 0.74 1.30
-3.35 0.75 1.39
-3.78 0.84 1.30
-1.78 -0.98 1.27
-1.93 -0.99 1.24
-1.47 -0.87 1.34
-1.67 -0.89 1.29
-1.63 -0.86 1.30
-3.95 -1.26 0.82
-1.65 -0.80 1.30
-3.88 -1.06 0.84
-3.73 -1.02 0.87
-3.61 -0.94 0.89
-5.26 -1.13 0.55
-5.35 -1.12 0.53
-5.47 -1.12 0.51
-2.04 -0.62 1.22
-2.79 -0.70 1.07
-2.53 -0.64 1.12
-3.19 -0.71 0.98
-3.04 -0.68 1.01
-3.19 -0.68 0.98
-3.03 -0.65 1.02
-2.99 -0.63 1.02
-2.81 -0.60 1.06
-2.91 -0.60 1.04
-2.70 -0.56 1.08
-2.67 -0.54 1.09
-2.82 -0.55 1.06
-2.73 -0.53 1.08
-2.69 -0.51 1.09
-2.71 -0.50 1.08
-2.81 -0.49 1.06
-2.60 -0.46 1.11
-2.55 -0.45 1.12
-2.61 -0.44 1.10
-2.83 -0.44 1.06
-2.82 -0.43 1.06
-2.65 -0.40 1.09
-2.61 -0.39 1.10
-2.91 -0.40 1.04
-2.59 -0.36 1.11
-2.52 -0.35 1.12
-2.68 -0.34 1.09
-4.81 -0.46 0.65
-2.66 -0.32 1.09
-4.89 -0.43 0.63
-5.39 -0.44 0.53
-2.76 -0.29 1.07
-5.09 -0.39 0.59
-2.55 -0.25 1.11
-5.40 -0.37 0.53
-2.43 -0.22 1.14
-5.53 -0.33 0.50
-2.14 -0.18 1.20
-2.30 -0.18 1.16
-4.24 -0.23 0.76
-5.37 -0.25 0.53
-2.15 -0.14 1.19
-5.63 -0.22 0.48
-5.63 -0.20 0.48
-5.41 -0.18 0.52
-5.85 -0.16 0.43
-4.61 -0.12 0.69
-2.16 -0.07 1.19
-5.84 -0.10 0.43
-5.62 -0.06 0.48
-4.37 -0.04 0.73
-6.65 -0.00 0.67
-6.56 0.02 0.69
-6.46 0.03 0.71
-6.37 0.05 0.73
-6.08 0.06 0.79
-6.38 0.08 0.73
-5.67 0.09 0.88
-5.62 0.10 0.89
-5.37 0.11 0.95
-5.36 0.12 0.95
-5.27 0.13 0.97
-5.15 0.14 0.99
-5.44 0.17 0.93
-5.11 0.17 1.00
-4.16 0.15 1.20
-4.02 0.16 1.23
-4.16 0.17 1.20
-4.17 0.18 1.20
-4.11 0.19 1.21
-4.17 0.21 1.20
-4.21 0.22 1.19
-4.20 0.23 1.19
-4.19 0.24 1.19
-4.27 0.25 1.18
-4.34 0.27 1.16
-4.32 0.28 1.16
-4.26 0.29 1.18
-4.23 0.30 1.18
-4.30 0.31 1.17
-4.32 0.32 1.16
-4.31 0.34 1.16
-4.57 0.37 1.11
-4.50 0.37 1.12
-4.52 0.39 1.12
-4.72 0.41 1.07
-5.32 0.48 0.94
-5.33 0.49 0.94
-4.92 0.47 1.03
-5.25 0.51 0.96
-5.25 0.52 0.96
-5.38 0.55 0.93
-5.38 0.56 0.93
-5.11 0.55 0.99
-5.34 0.59 0.94
-5.40 0.61 0.92
-5.31 0.61 0.94
-5.35 0.63 0.93
-5.36 0.65 0.93
-5.31 0.65 0.94
-5.28 0.66 0.95
-5.25 0.67 0.95
-5.32 0.70 0.93
-5.30 0.71 0.94
-5.47 0.74 0.90
-5.40 0.75 0.91
-5.12 0.73 0.98
-5.23 0.75 0.95
-5.19 0.76 0.96
-5.11 0.77 0.98
-5.15 0.78 0.97
-4.97 0.77 1.01
-5.09 0.80 0.98
-5.05 0.81 0.99
-4.89 0.80 1.02
-4.94 0.82 1.01
-5.99 1.00 0.78
-5.94 1.00 0.79
-5.83 1.00 0.81
-6.02 1.05 0.77
-6.03 1.07 0.77
-6.05 1.09 0.76
-3.78 0.71 1.26
-4.03 0.77 1.20
-6.21 1.16 0.72
-4.32 0.84 1.14
-6.14 1.18 0.74
-4.12 0.83 1.18
-4.33 0.88 1.13
-4.26 0.88 1.15
-3.95 0.83 1.22
-4.12 0.88 1.18
-4.09 0.88 1.18
-3.99 0.87 1.21
-4.04 0.89 1.19
-4.02 0.90 1.20
-4.24 0.96 1.15
-6.22 1.38 0.71
-6.09 1.37 0.74
-4.33 1.02 1.13
-4.28 1.04 1.13
-4.36 1.07 1.11
-4.31 1.07 1.13
-4.49 1.12 1.08
-2.75 -1.46 1.00
-3.01 -1.46 0.94
-2.52 -1.29 1.05
-2.75 -1.34 1.00
-2.65 -1.30 1.03
-2.00 -1.12 1.17
-2.82 -1.29 0.99
-2.02 -1.08 1.17
-2.05 -1.07 1.16
-2.21 -1.10 1.12
-1.95 -1.03 1.18
-3.80 -1.43 0.78
-2.40 -1.10 1.08
-2.96 -1.21 0.96
-3.91 -1.40 0.75
-3.67 -1.34 0.81
-2.07 -0.99 1.16
-3.79 -1.33 0.78
-2.10 -0.97 1.15
-4.19 -1.38 0.69
-3.27 -1.18 0.90
-4.21 -1.35 0.69
-2.10 -0.92 1.15
-4.52 -1.38 0.62
-4.38 -1.33 0.65
-3.99 -1.24 0.74
-4.33 -1.29 0.67
-2.14 -0.87 1.14
-4.15 -1.22 0.70
-4.13 -1.20 0.71
-3.84 -1.14 0.77
-3.91 -1.13 0.76
-3.92 -1.12 0.76
-3.74 -1.07 0.80
-4.04 -1.11 0.73
-4.17 -1.11 0.70
-4.06 -1.08 0.73
-3.89 -1.03 0.76
-3.85 -1.01 0.77
-3.67 -0.97 0.81
-3.59 -0.94 0.83
-3.87 -0.97 0.77
-3.69 -0.93 0.81
-3.47 -0.88 0.86
-3.76 -0.91 0.80
-3.64 -0.87 0.82
-3.76 -0.88 0.79
-5.74 -1.06 0.37
-3.41 -0.75 0.87
-3.32 -0.73 0.89
-3.52 -0.74 0.85
-3.26 -0.69 0.91
-3.53 -0.71 0.85
-3.14 -0.65 0.93
-3.22 -0.65 0.91
-3.22 -0.63 0.91
-3.00 -0.60 0.96
-3.00 -0.58 0.96
-2.97 -0.57 0.97
-2.99 -0.55 0.96
-2.86 -0.53 0.99
-2.94 -0.52 0.97
-2.98 -0.51 0.97
-2.82 -0.49 1.00
-2.96 -0.49 0.97
-2.95 -0.47 0.97
-2.91 -0.45 0.98
-2.92 -0.44 0.98
-2.87 -0.43 0.99
-2.77 -0.40 1.01
-2.84 -0.40 0.99
-2.85 -0.38 0.99
-2.93 -0.38 0.98
-2.82 -0.36 1.00
-3.05 -0.36 0.95
-2.97 -0.34 0.97
-3.01 -0.33 0.96
-5.84 -0.34 0.85
-6.07 -0.34 0.80
-5.82 -0.31 0.86
-5.62 -0.28 0.90
-6.49 -0.31 0.71
-5.37 -0.24 0.95
-6.81 -0.29 0.64
-6.70 -0.27 0.67
-6.89 -0.26 0.62
-6.60 -0.23 0.69
-6.85 -0.22 0.63
-6.64 -0.20 0.68
-6.43 -0.18 0.72
-6.47 -0.16 0.71
-5.47 -0.12 0.93
-5.86 -0.12 0.84
-5.39 -0.10 0.95
-5.54 -0.08 0.91
-5.39 -0.07 0.95
-6.54 -0.07 0.70
-6.85 -0.05 0.63
-6.72 -0.03 0.66
-6.51 -0.02 0.70
-2.47 -0.00 1.02
-2.75 0.01 0.96
-2.71 0.02 0.97
-5.15 0.04 0.94
-4.77 0.05 1.03
-4.93 0.06 0.99
-5.55 0.08 0.85
-5.16 0.09 0.94
-4.77 0.10 1.03
-4.64 0.11 1.06
-5.31 0.13 0.91
-4.25 0.12 1.14
-4.08 0.13 1.18
-4.08 0.14 1.18
-4.08 0.15 1.18
-4.02 0.16 1.20
-4.08 0.17 1.18
-4.03 0.18 1.19
-4.00 0.19 1.20
-4.10 0.20 1.18
-4.07 0.21 1.18
-4.11 0.22 1.17
-4.09 0.23 1.18
-4.11 0.24 1.17
-4.06 0.25 1.18
-4.11 0.27 1.17
-4.16 0.28 1.16
-4.23 0.29 1.14
-4.27 0.31 1.13
-4.31 0.32 1.12
-4.21 0.33 1.15
-4.37 0.35 1.11
-4.26 0.35 1.14
-4.35 0.37 1.11
-4.45 0.39 1.09
-4.43 0.40 1.09
-4.67 0.43 1.04
-4.62 0.44 1.05
-4.63 0.45 1.05
-4.79 0.48 1.01
-4.75 0.49 1.02
-4.94 0.52 0.98
-5.08 0.55 0.94
-5.20 0.57 0.91
-5.23 0.59 0.91
-5.07 0.58 0.94
-5.15 0.61 0.92
-5.04 0.61 0.95
-5.04 0.62 0.95
-5.36 0.67 0.88
-5.40 0.69 0.87
-5.45 0.71 0.85
-5.33 0.71 0.88
-5.40 0.73 0.86
-5.03 0.70 0.95
-5.30 0.75 0.88
-5.25 0.75 0.89
-5.09 0.74 0.93
-4.85 0.72 0.99
-4.65 0.71 1.03
-4.84 0.75 0.99
-4.79 0.75 1.00
-4.78 0.77 1.00
-4.71 0.77 1.01
-4.83 0.80 0.99
-4.74 0.80 1.00
-5.02 0.87 0.94
-5.06 0.89 0.93
-5.11 0.91 0.92
-3.93 0.77 1.18
-6.12 1.17 0.68
-6.23 1.21 0.65
-3.87 0.79 1.20
-3.79 0.79 1.21
-6.14 1.24 0.67
-6.14 1.26 0.67
-6.16 1.28 0.66
-6.12 1.30 0.67
-6.25 1.34 0.64
-1.82 -0.91 1.17
-2.36 -1.01 1.05
-2.08 -0.94 1.11
-1.92 -0.90 1.15
-1.91 -0.87 1.15
-1.97 -0.86 1.14
-2.77 -1.00 0.96
-3.90 -1.19 0.70
-3.15 -1.04 0.87
-3.72 -1.11 0.74
-3.65 -1.08 0.76
-3.74 -1.08 0.74
-3.65 -1.05 0.76
-3.76 -1.06 0.73
-3.81 -1.05 0.72
-3.83 -1.04 0.72
-3.69 -1.00 0.75
-3.75 -0.99 0.74
-3.74 -0.98 0.74
-3.55 -0.93 0.78
-3.37 -0.89 0.82
-3.49 -0.89 0.80
-3.59 -0.88 0.77
-3.65 -0.87 0.76
-3.59 -0.85 0.77
-3.12 -0.76 0.88
-3.04 -0.73 0.90
-3.56 -0.79 0.78
-3.48 -0.76 0.80
-3.34 -0.73 0.83
-3.18 -0.70 0.87
-3.05 -0.67 0.90
-3.05 -0.65 0.90
-3.17 -0.65 0.87
-3.11 -0.63 0.88
-2.94 -0.60 0.92
-2.80 -0.57 0.96
-3.00 -0.58 0.91
-2.88 -0.56 0.94
-2.94 -0.55 0.92
-2.91 -0.53 0.93
-2.77 -0.51 0.96
-2.74 -0.49 0.97
-2.85 -0.49 0.94
-2.87 -0.48 0.94
-2.79 -0.46 0.96
-2.83 -0.45 0.95
-2.83 -0.43 0.95
-2.70 -0.41 0.98
-2.83 -0.41 0.95
-2.88 -0.40 0.94
-2.68 -0.37 0.98
-2.83 -0.37 0.95
-2.73 -0.35 0.97
-2.82 -0.34 0.95
-2.88 -0.33 0.94
-2.61 -0.30 1.00
-2.84 -0.30 0.94
-2.76 -0.29 0.96
-2.97 -0.28 0.91
-3.03 -0.27 0.90
-2.70 -0.25 0.98
-4.68 -0.32 0.53
-4.56 -0.30 0.56
-2.70 -0.21 0.98
-2.44 -0.19 1.03
-2.46 -0.17 1.03
-2.65 -0.17 0.99
-3.77 -0.19 0.73
-2.64 -0.14 0.99
-2.45 -0.12 1.03
-2.83 -0.12 0.94
-2.83 -0.11 0.94
-2.09 -0.01 1.11
-5.83 0.03 0.73
-7.20 0.05 0.41
-7.38 0.09 0.37
-8.05 0.20 0.21
-4.37 0.13 1.07
-4.75 0.16 0.98
-4.04 0.15 1.15
-7.95 0.29 0.23
-3.94 0.19 1.17
-6.28 0.31 0.62
-3.98 0.22 1.16
-4.09 0.23 1.13
-6.35 0.37 0.60
-3.89 0.24 1.18
-6.40 0.40 0.59
-6.26 0.41 0.62
-4.39 0.31 1.06
-6.39 0.45 0.59
-6.37 0.46 0.59
-6.35 0.48 0.60
-6.23 0.49 0.62
-6.23 0.50 0.62
-6.27 0.52 0.61
-5.61 0.48 0.77
-5.74 0.51 0.74
-5.78 0.53 0.73
-6.46 0.60 0.57
-5.89 0.57 0.70
-5.92 0.58 0.69
-6.24 0.63 0.62
-6.08 0.63 0.65
-5.73 0.61 0.74
-5.58 0.61 0.77
-5.37 0.60 0.82
-5.40 0.62 0.81
-5.35 0.63 0.82
-5.29 0.64 0.84
-5.30 0.65 0.83
-5.41 0.68 0.81
-5.29 0.68 0.83
-5.50 0.72 0.78
-5.65 0.75 0.75
-5.61 0.76 0.76
-5.79 0.80 0.71
-5.68 0.80 0.74
-5.75 0.82 0.72
-5.57 0.81 0.76
-5.59 0.83 0.76
-5.59 0.84 0.76
-5.22 0.81 0.84
-5.10 0.80 0.87
-5.28 0.84 0.83
-5.37 0.87 0.81
-5.14 0.85 0.86
-4.96 0.83 0.90
-5.33 0.90 0.81
-5.14 0.89 0.86
-5.91 1.03 0.67
-4.60 -1.32 0.47
-4.47 -1.28 0.50
-4.18 -1.19 0.57
-3.92 -1.13 0.63
-4.20 -1.16 0.57
-3.78 -1.08 0.66
-3.73 -1.04 0.68
-3.81 -1.04 0.66
-3.60 -0.97 0.71
-3.74 -0.98 0.68
-3.85 -0.98 0.65
-3.80 -0.96 0.66
-3.82 -0.93 0.66
-3.92 -0.93 0.63
-3.58 -0.76 0.72
-3.88 -0.78 0.65
-3.47 -0.70 0.74
-3.39 -0.68 0.76
-3.52 -0.68 0.73
-3.47 -0.64 0.74
-3.21 -0.60 0.81
-3.10 -0.56 0.83
-3.50 -0.59 0.74
-3.08 -0.54 0.84
-3.06 -0.52 0.84
-3.05 -0.49 0.84
-3.17 -0.49 0.82
-3.04 -0.45 0.84
-3.08 -0.43 0.84
-2.96 -0.38 0.86
-4.99 -0.39 0.38
-3.71 -0.11 0.68
-0.44 -1.39 1.19
-1.83 -1.13 0.33
