# .PCD v0.7 - Point Cloud Data file format
VERSION 0.7
FIELDS x y z
SIZE 4 4 4
TYPE F F F
COUNT 1 1 1
WIDTH 2392
HEIGHT 1
VIEWPOINT 0 0 0 1 0 0 0
POINTS 2392
DATA ASCII
-4.88 -1.48 2.36
-4.72 -1.04 2.35
-4.53 -0.98 2.35
-4.63 -0.98 2.35
-1.17 -1.53 2.24
-4.98 -1.17 2.27
-4.49 -1.54 2.23
-4.62 -1.55 2.23
-4.54 -1.52 2.23
-4.64 -1.52 2.23
-4.99 -1.58 2.23
-4.87 -1.52 2.23
-4.57 -1.44 2.23
-4.90 -1.48 2.23
-4.94 -1.48 2.23
-4.79 -1.41 2.23
-4.62 -1.36 2.23
-4.31 -1.25 2.23
-4.96 -1.35 2.23
-5.04 -1.31 2.23
-4.72 -1.24 2.23
-4.82 -1.18 2.23
-4.70 -1.09 2.23
-4.88 -1.06 2.23
-5.01 -1.07 2.23
-4.42 -0.93 2.22
-4.60 -0.92 2.22
-4.63 -0.89 2.22
-4.33 -0.80 2.22
-10.42 -0.89 2.25
-4.22 -1.52 2.13
-1.20 -1.45 2.14
-4.53 -1.67 2.10
-4.51 -1.63 2.10
-4.61 -1.62 2.10
-4.68 -1.58 2.10
-5.00 -1.60 2.10
-4.67 -1.51 2.10
-4.88 -1.54 2.10
-5.76 -1.58 2.09
-5.14 -1.44 2.09
-4.71 -1.32 2.10
-5.06 -1.37 2.09
-4.73 -1.29 2.10
-4.51 -1.24 2.10
-5.14 -1.33 2.09
-4.76 -1.23 2.10
-5.15 -1.24 2.09
-5.07 -1.20 2.09
-4.92 -0.68 2.09
-5.41 -0.29 2.12
-6.13 -1.47 1.98
-5.69 -1.42 1.97
-4.69 -1.53 1.97
-4.99 -1.58 1.96
-5.73 -1.49 1.94
-5.26 -1.27 1.95
-5.54 -1.04 1.94
-5.32 -0.94 1.95
-5.36 -0.89 1.95
-5.94 -0.91 1.93
-6.34 -0.76 1.92
-10.24 -1.67 1.71
-1.67 -0.95 2.01
-4.58 -1.51 1.90
-6.48 -1.62 1.82
-5.43 -0.91 1.86
-6.23 -0.88 1.83
-5.36 -1.64 1.83
-5.33 -1.09 1.83
-5.11 -1.01 1.84
-5.93 -0.93 1.81
-6.46 -0.94 1.78
-6.23 -0.79 1.79
-6.48 -0.75 1.78
-6.13 -0.93 1.76
-7.03 0.08 1.80
-6.31 0.66 1.83
-6.46 0.70 1.82
-2.29 -1.60 1.93
-2.53 -1.65 1.91
-4.28 -1.58 1.82
-1.83 -1.01 1.95
-1.87 -0.94 1.95
-1.78 -0.91 1.95
-5.30 -1.63 1.77
-5.10 -1.57 1.78
-5.18 -1.56 1.77
-5.51 -1.61 1.76
-5.09 -1.51 1.78
-5.87 -1.39 1.74
-5.58 -1.25 1.75
-5.85 -1.27 1.74
-5.13 -1.12 1.78
-5.36 -1.14 1.76
-5.26 -1.10 1.77
-5.39 -1.08 1.76
-5.04 -1.02 1.78
-5.53 -0.98 1.75
-5.76 -0.99 1.74
-5.63 -0.96 1.75
-5.56 -0.93 1.75
-5.76 -0.93 1.74
-6.08 -0.86 1.72
-6.38 -0.30 1.83
-6.49 -0.27 1.83
-6.46 -0.25 1.83
-6.36 -0.23 1.83
-6.44 -0.22 1.83
-6.39 -0.20 1.83
-6.56 -0.19 1.82
-6.51 -0.17 1.82
-6.55 -0.16 1.82
-6.73 0.03 1.65
-3.69 1.14 1.93
-2.01 -1.68 1.92
-1.73 -1.30 1.94
-1.56 -0.63 1.95
-4.85 -0.24 1.76
-6.82 -0.04 1.64
-7.06 0.01 1.73
-7.14 0.03 1.73
-9.56 0.39 1.57
-9.42 0.40 1.58
-9.58 0.44 1.57
-14.02 1.46 1.29
-10.00 1.08 1.54
-5.37 -1.17 1.69
-5.55 -1.16 1.68
-5.84 -1.02 1.66
-5.89 -1.01 1.66
-5.71 -0.97 1.67
-10.76 -1.46 1.36
-6.12 -0.89 1.65
-6.13 -0.87 1.65
-6.30 -0.72 1.63
-6.50 -0.69 1.62
-6.62 -0.68 1.62
-6.54 -0.34 1.62
-6.67 -0.24 1.61
-7.12 -0.03 1.73
-7.29 0.07 1.52
-6.67 0.09 1.56
-7.34 0.19 1.51
-6.92 0.21 1.54
-9.64 0.41 1.52
-9.31 0.42 1.54
-9.57 0.48 1.52
-13.86 1.51 1.22
-1.73 -1.34 1.89
-1.93 -1.35 1.88
-2.05 -1.35 1.87
-1.97 -1.08 1.88
-5.27 -1.54 1.66
-5.42 -1.12 1.65
-10.24 -1.46 1.33
-10.47 -1.45 1.31
-6.63 -0.17 1.56
-7.28 -0.04 1.52
-6.82 -0.02 1.55
-6.71 0.02 1.68
-7.33 0.04 1.63
-7.25 0.06 1.64
-6.74 0.07 1.68
-6.52 0.12 1.69
-8.69 0.20 1.53
-9.12 0.23 1.50
-5.74 0.18 1.74
-9.21 0.33 1.50
-6.38 0.25 1.70
-9.54 0.39 1.47
-9.25 0.40 1.49
-9.32 0.42 1.49
-6.99 0.36 1.65
-7.23 0.41 1.64
-6.96 0.41 1.65
-7.18 0.44 1.64
-7.44 0.47 1.62
-7.36 0.49 1.63
-7.58 0.52 1.61
-7.14 0.53 1.64
-7.24 0.55 1.63
-7.36 0.60 1.62
-7.23 0.61 1.63
-9.92 1.04 1.44
-10.71 1.15 1.38
-10.33 1.14 1.41
-10.55 1.21 1.39
-10.47 1.23 1.39
-10.47 1.28 1.39
-10.52 1.31 1.39
-10.45 1.33 1.39
-10.60 1.43 1.38
-10.60 1.51 1.38
-10.90 1.58 1.36
-5.92 1.22 1.71
-1.92 -1.60 1.85
-5.71 -1.43 1.59
-5.48 -1.37 1.60
-5.27 -1.31 1.62
-6.03 -1.42 1.56
-5.42 -1.18 1.61
-5.33 -1.15 1.61
-5.48 -1.15 1.60
-5.35 -1.12 1.61
-5.90 -1.17 1.57
-5.45 -1.07 1.60
-9.75 -1.61 1.30
-5.65 -1.02 1.59
-10.09 -1.51 1.27
-5.83 -0.98 1.58
-5.62 -0.94 1.59
-6.23 -0.92 1.55
-6.15 -0.89 1.55
-5.78 -0.82 1.58
-6.38 -0.70 1.54
-6.56 -0.63 1.52
-6.49 -0.60 1.53
-6.47 -0.58 1.53
-6.45 -0.56 1.53
-7.42 -0.25 1.63
-6.83 -0.22 1.67
-7.39 -0.16 1.63
-7.39 -0.14 1.63
-7.74 -0.11 1.61
-6.98 -0.08 1.66
-7.38 -0.07 1.63
-8.19 -0.05 1.57
-5.89 -0.01 1.74
-2.37 0.00 1.80
-7.24 0.12 1.42
-7.02 0.26 1.44
-7.32 0.36 1.41
-7.15 0.37 1.42
-7.20 0.42 1.42
-7.59 0.46 1.39
-7.40 0.39 1.59
-6.93 0.48 1.62
-7.20 0.51 1.60
-7.09 0.59 1.61
-7.14 0.61 1.60
-7.31 0.65 1.59
-10.05 1.03 1.38
-10.41 1.19 1.34
-10.40 1.22 1.35
-13.85 1.67 1.08
-1.42 -0.89 1.88
-1.34 -0.82 1.88
-1.15 -0.72 1.90
-10.07 -1.44 1.21
-6.35 -0.61 1.49
-6.93 -0.13 1.45
-6.82 -0.09 1.45
-6.83 -0.02 1.45
-7.05 0.01 1.57
-6.85 0.04 1.59
-7.75 0.06 1.51
-7.73 0.10 1.52
-7.95 0.13 1.50
-7.37 0.14 1.55
-7.90 0.16 1.50
-7.05 0.17 1.57
-7.88 0.20 1.50
-7.02 0.22 1.57
-7.12 0.24 1.56
-6.87 0.25 1.59
-7.10 0.27 1.57
-6.91 0.28 1.58
-6.77 0.30 1.59
-9.89 0.45 1.34
-7.10 0.34 1.56
-7.17 0.37 1.56
-7.56 0.40 1.53
-7.27 0.41 1.55
-8.58 0.50 1.44
-7.37 0.45 1.54
-7.00 0.45 1.57
-7.20 0.48 1.55
-7.02 0.50 1.57
-7.18 0.53 1.55
-7.26 0.55 1.55
-7.33 0.58 1.54
-7.41 0.60 1.54
-7.27 0.61 1.55
-7.36 0.64 1.54
-7.24 0.64 1.55
-7.15 0.65 1.56
-7.35 0.71 1.54
-9.26 0.91 1.38
-7.01 0.71 1.57
-7.08 0.74 1.56
-7.29 0.78 1.54
-10.46 1.12 1.28
-10.46 1.15 1.28
-7.03 0.82 1.56
-10.33 1.21 1.29
-10.24 1.23 1.29
-6.11 0.77 1.64
-10.24 1.28 1.29
-10.32 1.32 1.29
-5.93 0.79 1.65
-10.18 1.35 1.30
-6.47 0.90 1.61
-3.96 0.58 1.82
-10.40 1.46 1.28
-10.39 1.48 1.28
-10.54 1.53 1.26
-10.54 1.56 1.26
-10.57 1.59 1.26
-10.69 1.63 1.25
-3.57 1.00 1.83
-2.40 -1.61 1.76
-4.86 -1.65 1.56
-1.85 -0.89 1.82
-1.52 -0.82 1.84
-4.71 -1.40 1.58
-5.39 -1.43 1.52
-5.02 -1.26 1.55
-5.28 -1.22 1.53
-5.24 -1.14 1.53
-5.39 -1.10 1.52
-5.37 -1.04 1.52
-9.59 -1.54 1.17
-6.05 -1.03 1.47
-6.05 -1.01 1.47
-5.81 -0.96 1.49
-9.80 -1.32 1.16
-5.75 -0.81 1.49
-5.65 -0.78 1.50
-5.64 -0.76 1.50
-6.21 -0.67 1.45
-6.27 -0.65 1.45
-6.54 -0.61 1.43
-4.59 -0.46 1.59
-6.36 -0.55 1.44
-6.18 -0.52 1.45
-6.61 -0.38 1.61
-6.32 -0.31 1.64
-6.38 -0.27 1.63
-6.64 -0.26 1.61
-7.10 -0.26 1.57
-6.88 -0.24 1.59
-7.81 -0.25 1.51
-7.15 -0.21 1.57
-7.28 -0.19 1.56
-7.42 -0.18 1.54
-8.08 -0.15 1.49
-7.56 -0.13 1.53
-7.65 -0.11 1.52
-7.50 -0.09 1.54
-7.64 -0.05 1.53
-7.45 -0.01 1.54
-7.19 0.06 1.52
-7.88 0.08 1.46
-7.72 0.10 1.47
-7.75 0.28 1.47
-7.00 0.36 1.53
-7.97 0.42 1.45
-7.81 0.43 1.46
-7.32 0.46 1.50
-7.02 0.50 1.53
-7.34 0.56 1.50
-7.44 0.58 1.49
-7.14 0.58 1.52
-7.24 0.61 1.51
-7.16 0.67 1.51
-9.05 0.86 1.35
-9.12 0.89 1.34
-9.85 1.03 1.27
-10.32 1.13 1.23
-10.29 1.15 1.23
-10.08 1.16 1.25
-10.26 1.20 1.24
-10.12 1.21 1.25
-10.13 1.24 1.25
-10.52 1.58 1.21
-10.42 1.59 1.21
-2.06 -1.33 1.77
-6.02 -1.58 1.42
-5.86 -1.53 1.44
-9.60 -1.48 1.11
-9.69 -1.46 1.10
-9.90 -1.39 1.08
-6.32 -0.48 1.40
-6.68 -0.26 1.36
-6.53 -0.24 1.38
-6.85 -0.22 1.35
-6.45 -0.19 1.38
-6.68 -0.17 1.36
-6.41 -0.15 1.39
-6.76 -0.11 1.35
-6.68 -0.09 1.36
-6.66 -0.06 1.36
-6.64 -0.04 1.36
-7.23 0.01 1.47
-7.73 0.03 1.43
-7.54 0.04 1.44
-7.33 0.06 1.46
-7.42 0.08 1.45
-7.23 0.10 1.47
-7.19 0.11 1.48
-7.10 0.13 1.48
-7.41 0.15 1.45
-7.17 0.17 1.48
-8.82 0.27 1.32
-8.27 0.29 1.37
-6.99 0.27 1.49
-7.60 0.31 1.43
-7.40 0.32 1.45
-7.95 0.36 1.40
-7.40 0.36 1.45
-7.70 0.39 1.42
-7.64 0.41 1.43
-7.79 0.43 1.41
-7.63 0.44 1.43
-8.87 0.53 1.31
-7.04 0.45 1.48
-9.77 0.76 1.23
-8.66 0.70 1.33
-8.50 0.73 1.34
-9.17 0.83 1.28
-8.84 0.82 1.31
-8.96 0.85 1.30
-8.97 0.88 1.30
-8.96 0.90 1.30
-8.88 0.91 1.30
-8.67 0.91 1.32
-8.90 0.96 1.30
-8.71 0.96 1.32
-9.97 1.12 1.20
-9.69 1.11 1.23
-9.86 1.16 1.21
-9.92 1.19 1.20
-6.24 0.78 1.55
-9.83 1.23 1.21
-9.03 1.16 1.29
-8.54 1.12 1.33
-8.58 1.14 1.33
-8.32 1.13 1.35
-8.35 1.16 1.35
-3.75 0.56 1.79
-5.91 0.87 1.58
-8.29 1.21 1.35
-10.32 1.52 1.16
-10.43 1.56 1.15
-10.51 1.60 1.14
-10.55 1.63 1.14
-10.63 1.67 1.13
-10.56 1.69 1.13
-6.09 1.11 1.56
-1.22 -1.33 1.82
-2.14 -1.39 1.73
-2.64 -1.51 1.69
-5.41 -1.51 1.43
-5.51 -1.49 1.42
-5.75 -1.27 1.40
-5.44 -1.15 1.43
-5.39 -1.10 1.43
-5.74 -1.09 1.40
-5.76 -1.03 1.40
-9.73 -1.46 1.02
-10.05 -1.44 0.99
-9.67 -1.37 1.03
-6.08 -0.76 1.37
-5.91 -0.73 1.38
-5.97 -0.71 1.38
-6.11 -0.68 1.36
-6.16 -0.66 1.36
-4.70 -0.54 1.50
-6.38 -0.55 1.34
-6.11 -0.52 1.36
-6.24 -0.38 1.35
-6.46 -0.36 1.33
-6.92 -0.29 1.28
-6.21 -0.25 1.35
-6.66 -0.24 1.31
-6.55 -0.22 1.32
-6.59 -0.19 1.31
-6.67 -0.17 1.31
-7.61 -0.11 1.44
-7.65 -0.09 1.43
-7.35 -0.05 1.46
-7.46 -0.03 1.45
-7.50 -0.01 1.45
-6.95 0.00 1.22
-6.97 0.02 1.22
-7.32 0.05 1.18
-6.50 0.07 1.27
-6.33 0.09 1.28
-6.84 0.11 1.23
-6.36 0.13 1.28
-6.44 0.15 1.27
-6.38 0.17 1.28
-6.38 0.19 1.28
-8.33 0.27 1.32
-8.43 0.30 1.30
-7.53 0.31 1.39
-7.47 0.32 1.40
-7.87 0.36 1.36
-8.45 0.40 1.30
-10.30 0.51 1.12
-8.25 0.44 1.32
-7.92 0.44 1.35
-10.23 0.59 1.12
-10.02 0.60 1.14
-9.31 0.58 1.21
-10.18 0.66 1.13
-8.83 0.60 1.26
-8.64 0.61 1.28
-7.89 0.58 1.35
-8.64 0.65 1.28
-4.43 0.36 1.70
-9.20 0.74 1.22
-8.31 0.69 1.31
-8.43 0.72 1.30
-8.59 0.75 1.28
-8.98 0.81 1.24
-8.38 0.78 1.30
-8.67 0.83 1.27
-8.80 0.86 1.26
-8.91 0.89 1.25
-8.62 0.89 1.28
-8.82 0.93 1.26
-8.90 0.96 1.25
-8.80 0.97 1.26
-8.93 1.01 1.24
-9.10 1.05 1.23
-9.36 1.10 1.20
-9.54 1.14 1.18
-9.49 1.16 1.18
-9.50 1.19 1.18
-9.57 1.22 1.18
-9.01 1.17 1.23
-8.42 1.12 1.29
-8.34 1.13 1.30
-8.29 1.15 1.30
-8.24 1.16 1.31
-8.34 1.20 1.30
-8.24 1.20 1.31
-8.38 1.24 1.29
-8.52 1.29 1.28
-8.44 1.30 1.28
-10.38 1.61 1.09
-10.38 1.63 1.09
-10.35 1.65 1.09
-10.32 1.68 1.09
-10.28 1.69 1.09
-1.93 -1.63 1.72
-2.34 -1.56 1.68
-1.94 -1.39 1.73
-1.66 -1.30 1.75
-1.75 -1.32 1.74
-1.68 -1.28 1.75
-1.73 -1.25 1.75
-2.65 -1.50 1.65
-2.11 -1.28 1.71
-1.71 -1.13 1.75
-1.59 -1.04 1.76
-1.62 -0.97 1.76
-1.60 -0.96 1.76
-5.92 -1.65 1.33
-6.13 -1.67 1.31
-5.73 -1.57 1.35
-6.10 -1.53 1.31
-6.00 -1.33 1.32
-6.10 -1.24 1.31
-5.73 -1.13 1.35
-5.82 -1.04 1.34
-10.22 -1.55 0.90
-5.85 -1.00 1.34
-10.00 -1.47 0.92
-9.97 -1.43 0.92
-9.54 -1.35 0.97
-10.05 -1.38 0.92
-6.06 -0.90 1.32
-6.18 -0.90 1.30
-10.31 -1.28 0.89
-6.13 -0.85 1.31
-5.88 -0.80 1.33
-6.10 -0.78 1.31
-6.31 -0.78 1.29
-6.15 -0.70 1.31
-6.15 -0.68 1.31
-10.09 -0.96 0.91
-6.61 -0.68 1.26
-6.29 -0.55 1.29
-6.09 -0.51 1.31
-6.27 -0.48 1.29
-6.25 -0.46 1.30
-6.48 -0.45 1.27
-6.49 -0.39 1.27
-6.39 -0.36 1.28
-6.95 -0.36 1.22
-6.92 -0.34 1.23
-6.42 -0.30 1.28
-6.39 -0.25 1.28
-6.67 -0.24 1.25
-6.34 -0.21 1.28
-6.49 -0.19 1.27
-6.60 -0.17 1.26
-6.35 -0.15 1.28
-6.46 -0.13 1.27
-6.81 -0.11 1.24
-6.63 -0.09 1.25
-6.96 -0.07 1.22
-6.83 -0.02 1.23
-7.37 0.01 1.36
-7.38 0.02 1.36
-7.00 0.04 1.40
-7.06 0.06 1.39
-7.49 0.08 1.35
-7.23 0.10 1.38
-7.97 0.12 1.30
-10.12 0.18 1.07
-8.00 0.18 1.29
-7.36 0.19 1.36
-7.36 0.21 1.36
-7.51 0.23 1.34
-7.52 0.25 1.34
-7.52 0.27 1.34
-7.90 0.30 1.30
-7.71 0.31 1.32
-7.44 0.32 1.35
-8.53 0.39 1.23
-8.30 0.40 1.26
-7.99 0.40 1.29
-7.67 0.41 1.32
-9.19 0.51 1.16
-8.21 0.48 1.27
-7.86 0.48 1.30
-9.50 0.59 1.13
-9.43 0.61 1.14
-8.41 0.57 1.24
-8.29 0.58 1.26
-8.02 0.59 1.28
-8.29 0.63 1.26
-8.48 0.66 1.24
-8.72 0.70 1.21
-8.56 0.71 1.22
-8.67 0.74 1.21
-8.64 0.76 1.22
-8.62 0.78 1.22
-8.74 0.81 1.20
-8.88 0.85 1.19
-8.52 0.83 1.23
-8.74 0.88 1.20
-8.54 0.88 1.22
-4.52 0.50 1.65
-8.65 0.93 1.21
-8.40 0.93 1.24
-8.41 0.95 1.24
-8.54 0.99 1.22
-5.00 0.61 1.60
-9.08 1.09 1.16
-9.11 1.12 1.16
-9.17 1.15 1.15
-5.00 0.66 1.60
-8.14 1.07 1.26
-8.16 1.09 1.26
-8.13 1.11 1.26
-5.29 0.76 1.57
-5.16 0.75 1.58
-4.78 0.71 1.62
-5.39 0.81 1.55
-8.11 1.21 1.26
-8.06 1.22 1.27
-5.37 0.85 1.56
-8.03 1.26 1.27
-8.39 1.33 1.23
-6.31 1.04 1.45
-8.19 1.35 1.25
-8.13 1.36 1.25
-9.70 1.63 1.08
-5.44 -1.69 1.32
-5.57 -1.56 1.31
-5.68 -1.56 1.30
-5.87 -1.56 1.28
-5.38 -1.45 1.33
-5.68 -1.48 1.30
-5.55 -1.44 1.31
-5.74 -1.45 1.29
-5.49 -1.25 1.32
-5.51 -1.24 1.32
-2.52 -0.77 1.64
-5.60 -1.21 1.31
-5.53 -1.18 1.31
-5.60 -1.15 1.31
-5.61 -1.13 1.31
-5.63 -0.98 1.30
-5.84 -0.96 1.28
-5.80 -0.94 1.29
-5.91 -0.93 1.27
-6.01 -0.92 1.26
-6.03 -0.88 1.26
-6.06 -0.86 1.26
-6.01 -0.84 1.26
-6.15 -0.83 1.25
-6.06 -0.76 1.26
-6.16 -0.75 1.25
-6.13 -0.73 1.25
-6.15 -0.71 1.25
-6.29 -0.68 1.23
-6.09 -0.64 1.25
-6.07 -0.62 1.26
-6.61 -0.63 1.20
-6.27 -0.59 1.23
-6.10 -0.56 1.25
-6.05 -0.53 1.26
-5.90 -0.48 1.27
-5.89 -0.46 1.28
-6.07 -0.45 1.26
-6.18 -0.44 1.24
-6.40 -0.43 1.22
-6.43 -0.41 1.22
-6.58 -0.39 1.20
-6.87 -0.36 1.17
-6.98 -0.26 1.41
-7.12 -0.24 1.39
-7.68 -0.24 1.33
-7.93 -0.23 1.30
-7.70 -0.21 1.33
-7.64 -0.18 1.34
-7.55 -0.16 1.34
-7.37 -0.14 1.36
-7.51 -0.13 1.35
-7.18 -0.10 1.38
-7.53 -0.09 1.35
-7.19 -0.07 1.38
-7.13 -0.05 1.39
-7.59 -0.03 1.34
-7.52 -0.01 1.35
-6.15 0.13 1.19
-6.21 0.15 1.18
-6.60 0.31 1.13
-6.76 0.40 1.11
-7.54 0.38 1.29
-8.81 0.57 1.14
-9.25 0.62 1.09
-8.83 0.62 1.14
-8.64 0.63 1.16
-8.59 0.64 1.17
-9.04 0.70 1.12
-8.54 0.68 1.17
-8.86 0.75 1.14
-8.81 0.77 1.14
-8.83 0.82 1.14
-8.71 0.83 1.15
-8.52 0.83 1.17
-8.67 0.87 1.15
-8.65 0.89 1.16
-8.56 0.90 1.17
-8.61 0.93 1.16
-8.82 0.97 1.13
-8.60 0.97 1.16
-8.77 1.01 1.14
-8.74 1.03 1.14
-8.68 1.04 1.15
-9.20 1.13 1.09
-8.99 1.12 1.11
-9.05 1.15 1.10
-8.46 1.10 1.17
-8.17 1.09 1.20
-8.10 1.10 1.21
-8.11 1.12 1.21
-8.31 1.17 1.19
-8.11 1.16 1.21
-8.00 1.17 1.22
-8.16 1.21 1.20
-7.98 1.21 1.22
-8.27 1.33 1.19
-8.45 1.43 1.16
-1.64 -1.68 1.69
-0.97 -1.37 1.77
-1.18 -0.78 1.76
-6.33 -0.23 1.17
-6.47 -0.21 1.15
-6.79 -0.18 1.12
-6.24 -0.06 1.18
-7.52 0.02 1.24
-7.32 0.17 1.26
-7.41 0.23 1.25
-7.29 0.24 1.26
-7.12 0.25 1.28
-7.15 0.27 1.28
-9.11 0.59 1.04
-9.38 0.63 1.01
-8.82 0.62 1.07
-8.97 0.65 1.06
-8.02 0.63 1.17
-8.57 0.69 1.10
-9.00 0.74 1.05
-8.94 0.76 1.06
-9.09 0.82 1.04
-9.08 0.84 1.04
-8.77 0.84 1.08
-8.80 0.86 1.07
-9.18 0.94 1.03
-8.81 0.93 1.07
-8.83 0.95 1.07
-8.99 0.99 1.05
-8.65 0.98 1.09
-8.81 1.02 1.07
-9.01 1.06 1.04
-8.70 1.05 1.08
-9.56 1.17 0.97
-9.53 1.19 0.98
-9.63 1.23 0.97
-8.64 1.13 1.09
-8.37 1.12 1.12
-8.05 1.10 1.16
-8.05 1.12 1.15
-8.05 1.14 1.15
-8.07 1.16 1.15
-8.06 1.18 1.15
-8.14 1.25 1.14
-8.09 1.27 1.15
-8.74 1.41 1.06
-8.41 1.38 1.10
-8.20 1.39 1.13
-8.40 1.44 1.10
-2.26 0.78 1.84
-1.18 -0.74 1.73
-6.09 -1.56 1.13
-10.11 -0.85 0.65
-7.21 -0.28 1.28
-6.77 -0.25 1.33
-7.45 -0.11 1.25
-7.07 -0.03 1.29
-7.15 -0.01 1.28
-5.71 -0.00 1.12
-5.94 0.02 1.09
-7.04 0.06 1.25
-6.67 0.07 1.29
-6.84 0.09 1.27
-7.00 0.13 1.25
-7.50 0.15 1.19
-7.11 0.18 1.24
-7.19 0.20 1.23
-7.32 0.22 1.21
-7.06 0.25 1.24
-7.68 0.31 1.16
-7.04 0.32 1.24
-7.02 0.34 1.25
-7.15 0.36 1.23
-7.10 0.38 1.24
-7.28 0.42 1.21
-7.01 0.43 1.25
-7.13 0.47 1.23
-8.24 0.56 1.09
-8.24 0.58 1.09
-8.40 0.63 1.07
-9.08 0.70 0.98
-8.90 0.71 1.00
-8.98 0.76 0.99
-8.73 0.76 1.02
-8.81 0.79 1.01
-8.66 0.80 1.03
-8.91 0.85 1.00
-8.86 0.89 1.00
-9.29 0.97 0.95
-4.21 0.48 1.59
-9.01 0.99 0.98
-8.39 0.97 1.06
-8.04 0.95 1.10
-8.42 1.01 1.06
-9.44 1.18 0.92
-8.58 1.10 1.03
-8.34 1.09 1.06
-8.00 1.07 1.11
-8.03 1.09 1.10
-7.97 1.10 1.11
-8.08 1.14 1.09
-7.90 1.14 1.12
-7.97 1.17 1.11
-8.07 1.20 1.09
-8.02 1.21 1.10
-4.18 0.67 1.59
-7.94 1.24 1.11
-8.00 1.27 1.10
-8.12 1.31 1.08
-8.08 1.33 1.09
-8.17 1.36 1.08
-8.30 1.40 1.06
-8.45 1.45 1.04
-8.31 1.45 1.06
-1.38 -1.64 1.66
-1.54 -1.55 1.65
-1.33 -1.39 1.68
-1.63 -1.14 1.64
-1.52 -1.10 1.66
-5.46 -1.68 1.15
-5.83 -1.59 1.11
-1.99 -0.73 1.60
-1.81 -0.68 1.62
-5.43 -1.22 1.16
-1.78 -0.66 1.63
-5.43 -1.19 1.16
-8.83 -1.55 0.73
-9.40 -1.51 0.66
-5.94 -0.93 1.10
-5.92 -0.91 1.10
-5.87 -0.87 1.11
-10.06 -1.20 0.58
-10.06 -1.17 0.57
-9.52 -1.06 0.64
-9.59 -0.93 0.63
-6.08 -0.64 1.08
-9.52 -0.86 0.64
-6.02 -0.59 1.09
-5.97 -0.57 1.09
-5.93 -0.53 1.10
-9.83 -0.74 0.60
-6.04 -0.45 1.08
-9.84 -0.62 0.60
-5.66 -0.39 1.13
-9.58 -0.55 0.63
-5.62 -0.35 1.14
-5.98 -0.35 1.09
-5.52 -0.31 1.15
-6.18 -0.29 1.07
-6.26 -0.23 1.06
-6.41 -0.17 1.04
-5.98 -0.14 1.09
-6.34 -0.11 1.04
-6.01 -0.08 1.09
-6.33 -0.06 1.05
-5.83 -0.04 1.11
-5.93 -0.02 1.10
-6.77 0.00 1.23
-6.78 0.02 1.23
-6.98 0.04 1.20
-6.98 0.06 1.20
-6.90 0.07 1.21
-6.95 0.09 1.21
-7.03 0.11 1.19
-6.95 0.13 1.20
-7.25 0.15 1.16
-7.18 0.17 1.17
-6.99 0.18 1.20
-7.01 0.20 1.19
-7.04 0.21 1.19
-7.02 0.23 1.19
-6.78 0.24 1.23
-7.58 0.29 1.12
-6.99 0.28 1.20
-7.43 0.32 1.14
-6.80 0.31 1.22
-7.32 0.35 1.15
-6.67 0.34 1.24
-6.88 0.37 1.21
-6.99 0.39 1.19
-7.22 0.42 1.16
-7.22 0.44 1.16
-7.83 0.49 1.08
-7.57 0.50 1.11
-7.42 0.50 1.14
-8.36 0.59 1.01
-8.95 0.65 0.93
-8.29 0.62 1.02
-8.56 0.66 0.98
-9.04 0.72 0.92
-8.91 0.74 0.93
-9.07 0.77 0.91
-9.06 0.79 0.91
-8.95 0.81 0.93
-8.88 0.82 0.93
-8.80 0.84 0.94
-8.89 0.87 0.93
-8.93 0.89 0.93
-8.97 0.92 0.92
-8.97 0.94 0.92
-4.76 0.53 1.49
-4.53 0.52 1.52
-7.70 0.87 1.09
-7.78 0.90 1.08
-4.33 0.53 1.54
-4.46 0.56 1.53
-4.44 0.57 1.53
-7.78 0.98 1.07
-8.00 1.03 1.04
-4.58 0.62 1.51
-4.42 0.61 1.53
-4.69 0.66 1.49
-4.73 0.68 1.49
-4.89 0.71 1.46
-4.95 0.73 1.46
-8.14 1.19 1.02
-4.67 0.72 1.49
-7.89 1.20 1.05
-7.92 1.22 1.05
-7.90 1.24 1.05
-5.50 0.90 1.38
-8.04 1.30 1.03
-5.88 0.98 1.32
-8.27 1.38 1.00
-8.23 1.39 1.00
-4.00 0.72 1.58
-8.82 1.53 0.92
-4.56 0.84 1.50
-4.06 0.82 1.57
-2.00 -1.66 1.55
-5.52 -1.51 1.09
-5.51 -1.45 1.09
-5.62 -1.31 1.08
-1.86 -0.63 1.59
-5.74 -1.15 1.06
-9.13 -1.57 0.61
-9.15 -1.51 0.60
-9.40 -1.52 0.57
-4.57 -0.87 1.22
-5.81 -0.98 1.05
-5.87 -0.91 1.05
-5.65 -0.84 1.08
-9.53 -1.21 0.55
-9.25 -1.16 0.59
-10.01 -1.11 0.49
-9.16 -0.92 0.60
-9.47 -0.92 0.56
-9.83 -0.83 0.51
-5.77 -0.52 1.06
-5.89 -0.51 1.04
-9.78 -0.71 0.52
-5.72 -0.44 1.06
-5.36 -0.40 1.11
-5.43 -0.36 1.10
-5.58 -0.35 1.08
-5.68 -0.34 1.07
-5.62 -0.31 1.08
-5.85 -0.28 1.05
-5.95 -0.26 1.03
-5.71 -0.22 1.06
-6.05 -0.21 1.02
-5.88 -0.18 1.04
-5.65 -0.16 1.07
-10.19 -0.15 0.78
-6.81 -0.08 1.23
-7.24 -0.07 1.17
-7.09 -0.05 1.19
-6.63 -0.03 1.25
-6.97 -0.01 1.20
-5.44 -0.00 1.04
-5.34 0.02 1.06
-5.60 0.04 1.02
-5.76 0.06 1.00
-5.65 0.08 1.01
-5.55 0.10 1.02
-5.56 0.12 1.02
-5.57 0.14 1.02
-5.52 0.15 1.03
-5.49 0.17 1.03
-5.64 0.20 1.01
-6.86 0.19 1.17
-7.04 0.21 1.14
-6.78 0.22 1.18
-6.85 0.24 1.16
-6.64 0.25 1.19
-7.18 0.29 1.12
-6.96 0.30 1.15
-6.65 0.30 1.19
-6.80 0.33 1.17
-6.85 0.35 1.16
-6.86 0.36 1.16
-6.95 0.39 1.15
-6.94 0.40 1.15
-7.52 0.45 1.07
-8.09 0.51 0.99
-8.19 0.53 0.97
-8.39 0.57 0.94
-8.23 0.58 0.97
-8.12 0.59 0.98
-7.32 0.55 1.09
-7.84 0.61 1.02
-8.63 0.69 0.91
-8.85 0.73 0.88
-8.96 0.76 0.86
-9.02 0.79 0.85
-8.96 0.80 0.86
-8.83 0.82 0.88
-8.81 0.84 0.88
-7.67 0.75 1.04
-8.81 0.88 0.88
-7.50 0.77 1.06
-7.36 0.78 1.08
-7.45 0.81 1.07
-4.56 0.52 1.48
-4.50 0.53 1.49
-7.47 0.87 1.06
-7.58 0.90 1.05
-7.57 0.92 1.05
-7.63 0.94 1.04
-7.69 0.97 1.03
-7.68 0.99 1.03
-7.79 1.02 1.02
-7.92 1.06 1.00
-8.16 1.11 0.96
-8.47 1.17 0.92
-8.71 1.22 0.88
-8.34 1.19 0.93
-8.26 1.20 0.94
-8.20 1.22 0.95
-8.13 1.23 0.96
-8.02 1.23 0.98
-8.15 1.27 0.96
-8.09 1.28 0.96
-8.31 1.34 0.93
-8.27 1.35 0.94
-8.80 1.46 0.86
-8.79 1.48 0.86
-8.67 1.48 0.88
-8.93 1.55 0.84
-9.50 1.67 0.76
-9.51 1.69 0.75
-9.30 1.68 0.78
-5.41 -1.59 1.05
-5.62 -1.49 1.02
-8.67 -1.58 0.59
-8.73 -1.40 0.58
-9.26 -1.38 0.51
-9.24 -1.29 0.51
-5.64 -0.86 1.02
-5.73 -0.85 1.01
-5.73 -0.83 1.01
-5.16 -0.68 1.09
-9.47 -1.00 0.48
-9.14 -0.95 0.52
-5.77 -0.62 1.00
-9.34 -0.85 0.49
-4.86 -0.51 1.13
-9.68 -0.82 0.45
-9.73 -0.79 0.44
-9.70 -0.76 0.44
-9.68 -0.73 0.45
-5.63 -0.47 1.02
-5.76 -0.46 1.00
-5.69 -0.43 1.01
-5.47 -0.40 1.04
-9.72 -0.59 0.44
-5.45 -0.36 1.04
-5.56 -0.35 1.03
-5.32 -0.32 1.06
-5.55 -0.31 1.03
-5.51 -0.29 1.04
-5.34 -0.26 1.06
-5.43 -0.25 1.05
-5.59 -0.23 1.02
-5.46 -0.19 1.04
-5.54 -0.08 1.03
-5.59 -0.06 1.02
-5.58 -0.04 1.02
-5.48 -0.02 1.04
-6.53 0.00 1.16
-6.46 0.02 1.17
-6.56 0.04 1.15
-6.60 0.05 1.15
-6.48 0.07 1.16
-6.51 0.08 1.16
-6.85 0.11 1.11
-7.58 0.14 1.00
-7.36 0.15 1.03
-7.42 0.17 1.02
-7.43 0.19 1.02
-7.21 0.20 1.05
-6.98 0.21 1.09
-6.66 0.22 1.13
-6.73 0.24 1.12
-6.68 0.25 1.13
-6.73 0.27 1.12
-6.81 0.29 1.11
-6.77 0.31 1.12
-6.89 0.33 1.10
-6.86 0.35 1.10
-6.88 0.37 1.10
-6.81 0.38 1.11
-6.82 0.40 1.11
-7.32 0.44 1.03
-7.29 0.46 1.04
-7.43 0.49 1.02
-8.32 0.56 0.88
-7.14 0.51 1.06
-7.42 0.54 1.02
-7.85 0.59 0.95
-7.99 0.62 0.93
-7.91 0.64 0.94
-8.89 0.73 0.80
-8.92 0.76 0.79
-8.68 0.76 0.83
-8.96 0.81 0.78
-8.72 0.81 0.82
-7.53 0.72 1.00
-7.42 0.73 1.01
-7.49 0.76 1.00
-7.39 0.76 1.01
-7.46 0.79 1.00
-7.33 0.80 1.02
-7.39 0.82 1.01
-7.47 0.85 1.00
-7.47 0.87 1.00
-7.48 0.89 1.00
-7.51 0.91 0.99
-7.52 0.93 0.99
-7.60 0.96 0.98
-7.64 0.98 0.97
-7.60 1.00 0.98
-7.69 1.03 0.96
-7.67 1.05 0.96
-7.62 1.06 0.97
-7.73 1.09 0.95
-8.05 1.16 0.91
-7.98 1.17 0.92
-7.98 1.19 0.91
-8.09 1.22 0.90
-5.22 0.83 1.33
-8.12 1.27 0.89
-8.07 1.28 0.90
-8.37 1.35 0.85
-8.38 1.37 0.85
-8.53 1.42 0.83
-8.65 1.46 0.81
-8.61 1.48 0.81
-4.11 0.75 1.49
-4.88 0.89 1.38
-9.09 1.62 0.74
-3.76 0.73 1.54
-9.01 1.66 0.75
-3.66 0.94 1.55
-3.65 1.20 1.54
-2.23 -1.36 1.45
-5.16 -1.62 1.02
-5.17 -1.58 1.02
-1.84 -0.85 1.52
-5.62 -1.51 0.95
-1.76 -0.79 1.53
-1.71 -0.75 1.54
-5.53 -1.40 0.96
-8.83 -1.64 0.47
-8.77 -1.60 0.48
-8.33 -1.46 0.55
-9.19 -1.46 0.42
-8.90 -1.40 0.46
-8.85 -1.31 0.47
-9.19 -1.29 0.42
-8.93 -1.24 0.46
-9.12 -1.20 0.43
-9.18 -1.18 0.42
-5.55 -0.78 0.97
-5.47 -0.75 0.98
-4.97 -0.67 1.05
-4.75 -0.63 1.08
-4.76 -0.61 1.08
-5.04 -0.60 1.04
-5.53 -0.62 0.97
-4.72 -0.54 1.09
-5.47 -0.58 0.98
-4.87 -0.52 1.07
-5.11 -0.52 1.03
-4.78 -0.48 1.08
-5.31 -0.49 1.00
-5.16 -0.46 1.02
-5.49 -0.46 0.97
-5.35 -0.44 0.99
-5.46 -0.42 0.98
-5.30 -0.40 1.00
-4.81 -0.35 1.07
-4.93 -0.34 1.06
-5.14 -0.33 1.03
-4.96 -0.31 1.05
-4.88 -0.29 1.06
-6.46 -0.22 1.17
-6.26 -0.20 1.20
-6.25 -0.19 1.20
-6.23 -0.17 1.21
-10.10 -0.25 0.63
-6.19 -0.14 1.21
-6.37 -0.13 1.18
-6.40 -0.11 1.18
-6.74 -0.10 1.13
-6.52 -0.08 1.16
-6.43 -0.06 1.17
-6.54 -0.05 1.16
-6.61 -0.03 1.15
-6.67 -0.01 1.14
-5.91 0.20 0.85
-5.95 0.22 0.84
-5.79 0.24 0.86
-5.77 0.26 0.87
-5.81 0.28 0.86
-5.77 0.30 0.87
-5.65 0.31 0.88
-6.30 0.36 0.78
-6.04 0.37 0.82
-6.85 0.35 1.06
-6.88 0.36 1.05
-6.89 0.38 1.05
-7.12 0.43 1.01
-7.21 0.45 1.00
-8.56 0.58 0.79
-8.84 0.62 0.74
-7.21 0.53 1.00
-7.29 0.55 0.98
-7.20 0.56 1.00
-7.09 0.57 1.01
-7.16 0.59 1.00
-10.97 0.92 0.41
-7.69 0.67 0.92
-7.80 0.70 0.90
-7.47 0.69 0.95
-7.56 0.74 0.94
-7.34 0.74 0.97
-7.46 0.77 0.95
-7.39 0.78 0.96
-7.62 0.82 0.93
-7.68 0.85 0.91
-7.58 0.86 0.93
-7.53 0.87 0.94
-7.78 0.92 0.90
-7.71 0.93 0.91
-7.68 0.95 0.91
-7.64 0.96 0.92
-7.89 1.01 0.88
-7.92 1.03 0.87
-8.01 1.07 0.86
-7.86 1.07 0.88
-7.75 1.07 0.90
-7.80 1.10 0.89
-8.11 1.16 0.84
-8.04 1.17 0.85
-8.20 1.22 0.82
-8.29 1.25 0.81
-8.13 1.25 0.83
-8.34 1.30 0.80
-8.39 1.33 0.79
-8.34 1.34 0.80
-8.57 1.40 0.76
-8.56 1.42 0.76
-8.64 1.45 0.75
-8.77 1.50 0.73
-8.97 1.55 0.69
-9.02 1.58 0.68
-8.93 1.59 0.70
-9.02 1.63 0.68
-9.09 1.67 0.67
-2.92 0.85 1.64
-1.24 -1.53 1.57
-1.32 -1.55 1.55
-1.09 -1.29 1.60
-1.55 -1.31 1.53
-1.04 -1.03 1.61
-1.33 -1.08 1.57
-1.32 -1.00 1.57
-0.87 -0.80 1.64
-1.25 -0.86 1.58
-1.45 -0.90 1.55
-1.20 -0.83 1.59
-1.47 -0.74 1.55
-9.16 -1.20 0.34
-9.18 -1.18 0.34
-4.82 -0.21 1.02
-3.99 -0.05 1.15
-9.52 -0.06 0.28
-6.69 0.00 1.03
-7.08 0.02 0.96
-7.52 0.04 0.89
-6.59 0.05 1.04
-6.65 0.07 1.03
-6.59 0.08 1.04
-6.59 0.10 1.04
-7.73 0.14 0.85
-7.65 0.15 0.87
-6.49 0.15 1.06
-7.40 0.19 0.91
-7.30 0.20 0.92
-7.53 0.23 0.88
-7.74 0.25 0.85
-7.29 0.26 0.92
-6.66 0.25 1.03
-7.54 0.30 0.88
-6.78 0.29 1.01
-7.19 0.33 0.94
-6.99 0.34 0.97
-7.19 0.36 0.94
-7.13 0.38 0.95
-7.04 0.39 0.96
-7.09 0.41 0.95
-6.87 0.42 0.99
-6.94 0.44 0.98
-6.90 0.45 0.98
-6.99 0.48 0.97
-7.20 0.51 0.93
-6.84 0.50 0.99
-6.95 0.53 0.97
-7.48 0.58 0.88
-7.26 0.59 0.92
-7.88 0.65 0.82
-8.42 0.72 0.73
-8.65 0.76 0.69
-8.56 0.77 0.70
-7.02 0.66 0.96
-7.11 0.68 0.94
-7.23 0.71 0.92
-7.61 0.77 0.86
-7.55 0.78 0.87
-7.91 0.84 0.81
-8.01 0.87 0.79
-8.06 0.89 0.78
-7.85 0.89 0.82
-7.91 0.92 0.80
-4.45 0.55 1.38
-7.75 0.94 0.83
-7.98 0.98 0.79
-7.76 0.98 0.83
-4.54 0.61 1.36
-7.54 0.99 0.86
-8.69 1.16 0.67
-7.69 1.05 0.84
-8.33 1.15 0.73
-8.40 1.18 0.72
-8.09 1.16 0.77
-7.92 1.16 0.80
-7.94 1.18 0.79
-8.08 1.22 0.77
-8.22 1.26 0.74
-8.25 1.29 0.74
-8.27 1.31 0.73
-8.51 1.37 0.69
-8.48 1.39 0.70
-8.49 1.41 0.69
-8.61 1.45 0.67
-8.68 1.49 0.66
-8.57 1.49 0.68
-8.79 1.55 0.64
-9.07 1.62 0.59
-9.15 1.66 0.58
-9.16 1.68 0.58
-1.76 -0.77 1.46
-4.90 -0.61 0.95
-5.38 -0.61 0.87
-4.77 -0.55 0.97
-5.45 -0.56 0.86
-4.39 -0.45 1.03
-4.60 -0.45 1.00
-4.69 -0.44 0.98
-4.82 -0.43 0.96
-10.61 -0.52 0.39
-10.62 -0.49 0.39
-10.73 -0.47 0.37
-4.96 -0.19 1.31
-6.02 -0.21 1.14
-9.76 -0.31 0.53
-6.14 -0.18 1.12
-10.00 -0.27 0.49
-5.06 -0.13 1.29
-10.02 -0.22 0.48
-6.59 -0.13 1.04
-6.25 -0.11 1.10
-6.30 -0.09 1.09
-6.25 -0.08 1.10
-6.59 -0.06 1.04
-6.50 -0.05 1.06
-6.25 -0.03 1.10
-6.65 -0.01 1.03
-4.67 -0.00 0.92
-4.48 0.01 0.96
-6.44 0.07 1.01
-6.35 0.08 1.03
-6.35 0.10 1.03
-6.60 0.12 0.99
-6.42 0.13 1.02
-6.36 0.15 1.03
-6.41 0.16 1.02
-6.57 0.18 0.99
-6.47 0.20 1.01
-6.64 0.22 0.98
-6.23 0.22 1.05
-6.32 0.24 1.03
-6.38 0.26 1.02
-6.26 0.27 1.04
-6.23 0.28 1.05
-6.33 0.30 1.03
-6.61 0.33 0.98
-6.68 0.35 0.97
-6.75 0.37 0.95
-6.82 0.40 0.94
-6.81 0.41 0.94
-6.77 0.43 0.95
-6.91 0.45 0.92
-6.74 0.46 0.95
-7.03 0.50 0.90
-7.16 0.52 0.88
-6.96 0.53 0.91
-7.35 0.57 0.85
-8.72 0.69 0.61
-7.46 0.62 0.83
-8.80 0.74 0.60
-8.53 0.75 0.64
-8.42 0.76 0.66
-4.51 0.43 1.33
-4.85 0.48 1.27
-7.18 0.71 0.87
-7.39 0.74 0.83
-7.49 0.77 0.82
-4.45 0.49 1.34
-4.59 0.51 1.32
-4.65 0.53 1.31
-7.94 0.90 0.74
-7.77 0.90 0.77
-4.48 0.55 1.34
-4.82 0.60 1.28
-7.71 0.95 0.77
-4.39 0.57 1.35
-8.14 1.04 0.70
-7.81 1.02 0.75
-8.42 1.12 0.65
-8.30 1.12 0.67
-8.47 1.17 0.64
-4.40 0.65 1.34
-4.15 0.62 1.39
-8.17 1.19 0.69
-8.10 1.20 0.70
-8.05 1.21 0.71
-8.11 1.24 0.70
-8.12 1.27 0.69
-8.20 1.30 0.68
-8.25 1.33 0.67
-8.29 1.36 0.66
-8.31 1.38 0.66
-8.34 1.41 0.65
-8.45 1.45 0.63
-8.47 1.47 0.62
-3.59 0.67 1.48
-3.59 0.69 1.48
-8.91 1.61 0.55
-9.00 1.65 0.53
-8.82 1.64 0.56
-8.90 1.68 0.54
-3.05 0.72 1.57
-3.33 0.79 1.52
-3.19 0.77 1.54
-3.06 0.76 1.56
-1.36 -1.22 1.49
-2.28 -1.49 1.33
-1.48 -1.23 1.47
-1.63 -1.26 1.44
-1.71 -1.26 1.43
-1.34 -1.14 1.50
-1.18 -1.09 1.53
-1.64 -1.16 1.45
-1.54 -1.11 1.46
-1.67 -1.12 1.44
-1.56 -1.08 1.46
-1.45 -1.02 1.48
-1.59 -1.02 1.46
-1.39 -0.95 1.49
-1.46 -0.95 1.48
-4.64 -0.52 0.93
-4.58 -0.48 0.94
-4.63 -0.43 0.94
-4.33 -0.40 0.99
-4.30 -0.28 0.99
-4.69 -0.26 0.92
-4.66 -0.24 0.93
-5.26 -0.17 0.82
-4.95 -0.15 0.88
-4.68 -0.12 0.92
-4.54 -0.10 0.95
-4.64 -0.07 0.93
-4.75 -0.04 0.91
-4.43 -0.02 0.96
-6.31 0.00 0.98
-6.30 0.02 0.98
-6.16 0.03 1.01
-6.04 0.05 1.03
-6.05 0.06 1.03
-6.04 0.08 1.03
-6.10 0.09 1.02
-6.14 0.11 1.01
-6.15 0.13 1.01
-6.24 0.14 0.99
-6.25 0.16 0.99
-6.38 0.18 0.97
-6.26 0.19 0.99
-6.41 0.21 0.96
-6.04 0.21 1.03
-6.36 0.24 0.97
-6.16 0.25 1.00
-6.25 0.27 0.99
-6.31 0.29 0.98
-6.39 0.31 0.96
-6.49 0.33 0.94
-6.64 0.35 0.91
-6.56 0.36 0.93
-6.69 0.39 0.91
-6.78 0.41 0.89
-6.82 0.43 0.88
-6.79 0.45 0.89
-6.71 0.46 0.90
-6.62 0.47 0.92
-6.59 0.48 0.92
-6.72 0.51 0.90
-6.69 0.52 0.90
-6.83 0.55 0.88
-6.78 0.57 0.88
-6.88 0.59 0.87
-6.84 0.60 0.87
-6.89 0.63 0.86
-6.79 0.63 0.88
-6.76 0.65 0.88
-7.22 0.71 0.80
-6.81 0.69 0.87
-7.56 0.78 0.74
-7.41 0.78 0.76
-8.36 0.90 0.59
-7.47 0.83 0.75
-7.36 0.83 0.77
-7.59 0.88 0.73
-7.41 0.88 0.76
-7.35 0.89 0.77
-7.48 0.92 0.75
-7.66 0.96 0.71
-7.70 0.99 0.71
-7.74 1.01 0.70
-7.84 1.04 0.68
-7.76 1.06 0.69
-7.86 1.09 0.67
-4.60 0.67 1.27
-4.62 0.69 1.26
-7.94 1.16 0.66
-7.97 1.18 0.65
-8.05 1.22 0.64
-7.99 1.23 0.65
-8.11 1.27 0.62
-8.23 1.30 0.60
-8.20 1.32 0.60
-5.20 0.88 1.15
-5.24 0.90 1.15
-8.39 1.42 0.57
-4.95 0.88 1.20
-8.60 1.49 0.53
-8.60 1.51 0.53
-8.48 1.52 0.55
-8.83 1.60 0.48
-5.86 1.10 1.03
-8.92 1.66 0.46
-5.90 1.14 1.02
-4.00 0.87 1.36
-5.65 1.22 1.06
-3.26 1.18 1.47
-3.54 -1.67 1.06
-1.81 -1.13 1.38
-4.99 -1.66 0.80
-4.91 -1.62 0.81
-4.87 -1.43 0.83
-5.07 -1.45 0.79
-5.34 -1.48 0.74
-5.30 -1.46 0.75
-3.99 -1.20 0.99
-5.21 -1.35 0.76
-6.15 -1.34 0.60
-7.17 -1.38 0.41
-2.84 -0.75 1.20
-5.30 -1.08 0.75
-4.78 -0.99 0.85
-3.09 -0.73 1.15
-5.09 -0.88 0.79
-4.78 -0.79 0.85
-4.18 -0.65 0.96
-4.45 -0.66 0.91
-4.61 -0.64 0.88
-4.64 -0.62 0.87
-4.61 -0.60 0.88
-4.44 -0.57 0.91
-4.33 -0.55 0.93
-4.75 -0.56 0.85
-4.48 -0.53 0.90
-4.77 -0.53 0.85
-4.86 -0.52 0.83
-4.75 -0.49 0.85
-4.64 -0.47 0.87
-4.69 -0.45 0.86
-4.59 -0.43 0.88
-4.61 -0.41 0.88
-4.54 -0.39 0.89
-4.54 -0.38 0.89
-4.26 -0.35 0.94
-4.53 -0.34 0.89
-4.53 -0.33 0.89
-4.81 -0.32 0.84
-4.77 -0.30 0.85
-4.54 -0.28 0.89
-4.59 -0.26 0.88
-4.63 -0.24 0.87
-4.88 -0.23 0.83
-4.77 -0.21 0.85
-4.74 -0.20 0.85
-4.95 -0.18 0.81
-4.94 -0.16 0.82
-4.67 -0.14 0.86
-6.06 -0.09 1.03
-5.77 -0.07 1.08
-6.20 -0.06 1.00
-6.18 -0.05 1.01
-6.11 -0.03 1.02
-6.38 -0.01 0.97
-4.72 -0.00 0.79
-4.55 0.01 0.82
-4.80 0.03 0.78
-4.74 0.05 0.79
-5.36 0.07 0.67
-4.94 0.09 0.75
-5.44 0.11 0.65
-5.10 0.12 0.72
-5.25 0.18 0.69
-6.06 0.17 0.97
-5.99 0.18 0.98
-5.67 0.19 1.04
-6.01 0.21 0.98
-5.96 0.24 0.99
-5.96 0.26 0.99
-5.82 0.27 1.01
-5.92 0.28 0.99
-5.82 0.30 1.01
-6.01 0.32 0.98
-6.23 0.35 0.93
-6.26 0.36 0.93
-6.48 0.39 0.88
-6.56 0.41 0.87
-6.50 0.43 0.88
-6.58 0.45 0.86
-6.47 0.46 0.88
-6.60 0.48 0.86
-6.62 0.50 0.86
-6.59 0.51 0.86
-6.66 0.54 0.85
-6.66 0.57 0.85
-6.78 0.60 0.82
-7.05 0.64 0.77
-6.65 0.62 0.85
-7.08 0.69 0.76
-7.17 0.72 0.75
-7.97 0.84 0.59
-4.55 0.51 1.24
-5.58 0.63 1.05
-4.52 0.53 1.25
-4.44 0.53 1.26
-4.42 0.54 1.26
-4.53 0.58 1.24
-4.28 0.56 1.29
-4.17 0.56 1.31
-4.05 0.55 1.33
-4.05 0.56 1.33
-3.91 0.56 1.36
-4.08 0.59 1.33
-4.00 0.59 1.34
-4.02 0.60 1.34
-4.07 0.62 1.33
-4.67 0.72 1.21
-3.84 0.61 1.37
-3.94 0.64 1.35
-3.81 0.63 1.37
-8.11 1.28 0.55
-8.16 1.31 0.54
-8.20 1.34 0.53
-8.39 1.39 0.49
-8.55 1.44 0.46
-8.54 1.46 0.46
-8.77 1.52 0.42
-8.99 1.58 0.37
-8.63 1.54 0.44
-8.92 1.61 0.38
-8.96 1.64 0.38
-8.76 1.63 0.41
-3.05 0.66 1.51
-3.20 0.71 1.48
-3.06 0.69 1.51
-2.69 0.63 1.58
-3.14 0.72 1.49
-3.19 0.75 1.48
-2.99 0.76 1.52
-3.22 0.83 1.47
-3.08 0.81 1.50
-2.98 0.80 1.51
-2.81 0.77 1.55
-2.89 1.05 1.51
-0.58 -1.38 1.56
-1.57 -1.57 1.37
-1.84 -1.63 1.32
-1.50 -1.49 1.39
-1.72 -1.56 1.34
-1.81 -1.54 1.33
-1.41 -1.36 1.41
-0.95 -1.18 1.50
-1.17 -1.15 1.46
-1.16 -1.11 1.47
-1.36 -1.16 1.43
-1.38 -1.15 1.42
-1.59 -1.19 1.38
-1.25 -1.02 1.45
-1.16 -0.97 1.47
-1.19 -0.95 1.46
-1.48 -1.01 1.41
-1.31 -0.96 1.44
-1.37 -0.97 1.43
-1.26 -0.92 1.45
-1.67 -0.99 1.37
-1.46 -0.93 1.41
-5.11 -1.68 0.71
-4.87 -1.57 0.76
-4.60 -0.48 0.82
-4.09 -0.43 0.92
-4.70 -0.45 0.80
-4.16 -0.40 0.90
-4.61 -0.41 0.82
-4.58 -0.40 0.82
-4.47 -0.37 0.84
-4.32 -0.35 0.87
-4.39 -0.34 0.86
-4.48 -0.31 0.84
-4.79 -0.09 0.78
-4.53 -0.07 0.83
-4.79 -0.04 0.78
-4.71 -0.02 0.79
-6.10 0.00 0.91
-6.09 0.02 0.91
-5.95 0.03 0.93
-6.08 0.06 0.91
-6.01 0.09 0.92
-5.93 0.12 0.94
-5.88 0.13 0.95
-6.01 0.15 0.92
-5.83 0.18 0.95
-5.78 0.19 0.96
-5.82 0.21 0.95
-5.72 0.23 0.97
-5.84 0.25 0.95
-5.84 0.27 0.95
-6.00 0.30 0.92
-6.17 0.33 0.88
-6.52 0.36 0.81
-6.77 0.41 0.76
-6.70 0.42 0.78
-6.71 0.44 0.77
-6.56 0.45 0.80
-6.57 0.46 0.80
-6.54 0.48 0.81
-6.62 0.50 0.79
-6.64 0.52 0.79
-6.66 0.54 0.78
-6.72 0.56 0.77
-6.84 0.59 0.74
-6.89 0.61 0.73
-6.99 0.63 0.71
-7.00 0.65 0.71
-6.99 0.67 0.71
-4.35 0.44 1.23
-7.11 0.72 0.69
-7.10 0.73 0.69
-6.22 0.66 0.86
-5.98 0.66 0.91
-6.88 0.77 0.73
-5.94 0.68 0.92
-5.47 0.65 1.01
-7.48 0.89 0.61
-7.71 0.93 0.56
-5.83 0.73 0.94
-7.40 0.93 0.62
-7.10 0.91 0.68
-7.39 0.97 0.62
-7.46 1.00 0.61
-7.36 1.00 0.63
-7.60 1.05 0.58
-7.73 1.09 0.55
-5.13 0.76 1.07
-8.07 1.18 0.48
-8.02 1.19 0.49
-7.95 1.20 0.50
-7.87 1.21 0.52
-8.22 1.28 0.45
-5.10 0.83 1.07
-5.05 0.84 1.08
-4.64 0.79 1.16
-3.85 0.68 1.32
-8.54 1.44 0.38
-8.45 1.45 0.40
-8.34 1.45 0.42
-8.47 1.49 0.39
-8.43 1.51 0.40
-8.41 1.53 0.40
-5.38 1.02 1.01
-8.75 1.68 0.33
-5.68 1.18 0.94
-1.83 -1.45 1.28
-4.85 -1.56 0.69
-5.29 -1.46 0.61
-5.40 -1.46 0.59
-3.84 -1.16 0.90
-5.60 -1.46 0.55
-5.25 -1.35 0.62
-5.43 -1.37 0.58
-5.61 -1.38 0.55
-5.51 -1.34 0.57
-5.44 -1.31 0.58
-5.50 -1.30 0.57
-5.69 -1.31 0.53
-4.03 -1.03 0.86
-3.46 -0.93 0.98
-5.60 -1.18 0.55
-5.72 -1.18 0.53
-5.62 -1.14 0.55
-5.17 -1.04 0.64
-3.08 -0.75 1.05
-3.49 -0.79 0.97
-3.38 -0.76 0.99
-3.65 -0.78 0.94
-5.25 -0.92 0.62
-3.61 -0.67 0.95
-4.53 -0.72 0.77
-4.70 -0.72 0.73
-4.75 -0.70 0.72
-4.97 -0.71 0.68
-5.00 -0.69 0.67
-5.83 -0.75 0.51
-5.57 -0.70 0.56
-5.20 -0.65 0.63
-5.26 -0.64 0.62
-5.14 -0.61 0.65
-5.51 -0.62 0.57
-5.37 -0.59 0.60
-5.17 -0.56 0.64
-5.18 -0.54 0.64
-5.09 -0.52 0.66
-5.31 -0.51 0.61
-5.30 -0.49 0.61
-5.09 -0.46 0.66
-4.62 -0.42 0.75
-4.72 -0.41 0.73
-4.47 -0.37 0.78
-4.65 -0.37 0.74
-4.42 -0.34 0.79
-4.39 -0.32 0.79
-4.33 -0.30 0.81
-4.55 -0.29 0.76
-4.52 -0.28 0.77
-5.09 -0.19 1.11
-5.17 -0.18 1.09
-5.43 -0.18 1.04
-5.33 -0.16 1.06
-4.99 -0.13 1.13
-5.16 -0.10 1.09
-5.43 -0.10 1.04
-5.31 -0.08 1.06
-5.45 -0.07 1.03
-6.23 -0.06 0.88
-5.72 -0.04 0.98
-6.43 -0.03 0.84
-6.29 -0.02 0.87
-4.27 0.01 0.76
-4.10 0.03 0.80
-4.06 0.04 0.80
-4.17 0.06 0.78
-4.20 0.08 0.77
-4.10 0.09 0.80
-4.13 0.11 0.79
-4.23 0.13 0.77
-4.20 0.14 0.77
-4.61 0.17 0.69
-4.09 0.17 0.80
-4.12 0.22 0.79
-6.04 0.32 0.39
-2.03 0.18 1.22
-1.92 0.19 1.24
-5.74 0.29 0.92
-5.67 0.30 0.94
-6.09 0.34 0.85
-6.52 0.39 0.76
-7.01 0.44 0.66
-6.95 0.45 0.67
-6.48 0.44 0.77
-6.61 0.47 0.74
-6.49 0.47 0.76
-6.64 0.50 0.73
-6.70 0.52 0.72
-6.52 0.52 0.76
-6.56 0.54 0.75
-6.76 0.58 0.71
-6.89 0.61 0.68
-4.33 0.40 1.21
-4.40 0.42 1.19
-4.36 0.43 1.20
-4.19 0.43 1.24
-4.19 0.44 1.23
-4.19 0.45 1.24
-4.24 0.46 1.22
-5.62 0.62 0.94
-4.31 0.49 1.21
-4.19 0.49 1.23
-4.45 0.53 1.18
-4.26 0.52 1.22
-4.04 0.51 1.26
-3.78 0.49 1.32
-3.98 0.52 1.27
-4.08 0.55 1.25
-3.99 0.54 1.27
-4.15 0.58 1.24
-3.78 0.54 1.31
-5.90 0.83 0.87
-5.23 0.75 1.01
-3.63 0.55 1.34
-3.60 0.56 1.35
-8.13 1.20 0.40
-8.11 1.22 0.41
-3.59 0.59 1.35
-9.03 1.47 0.21
-8.99 1.48 0.22
-8.65 1.45 0.29
-8.84 1.51 0.25
-9.05 1.56 0.20
-9.00 1.60 0.21
-2.96 0.62 1.47
-2.92 0.62 1.48
-3.00 0.64 1.46
-2.87 0.63 1.49
-2.73 0.61 1.52
-2.81 0.64 1.50
-2.86 0.69 1.49
-2.84 0.70 1.49
-2.79 0.73 1.50
-2.84 0.85 1.48
-2.78 0.86 1.49
-1.43 -0.98 1.35
-5.71 -1.39 0.46
-5.69 -1.15 0.47
-5.36 -0.72 0.54
-4.95 -0.63 0.63
-5.11 -0.63 0.59
-5.18 -0.61 0.58
-5.50 -0.62 0.51
-5.17 -0.56 0.58
-5.56 -0.55 0.50
-4.77 -0.48 0.66
-5.35 -0.49 0.54
-5.26 -0.45 0.56
-4.61 -0.35 0.70
-6.06 -0.37 0.40
-6.16 -0.36 0.37
-6.03 -0.33 0.40
-6.05 -0.31 0.40
-3.46 -0.16 0.93
-3.19 -0.11 0.99
-4.69 -0.07 0.68
-5.47 -0.00 0.92
-5.75 0.01 0.86
-5.71 0.03 0.87
-5.68 0.04 0.88
-5.78 0.06 0.86
-5.77 0.07 0.86
-5.83 0.09 0.84
-5.95 0.11 0.82
-5.65 0.11 0.88
-5.63 0.13 0.89
-5.72 0.15 0.87
-5.86 0.16 0.84
-5.74 0.17 0.86
-5.94 0.20 0.82
-5.81 0.21 0.85
-6.01 0.23 0.80
-5.85 0.24 0.84
-5.81 0.25 0.84
-5.79 0.26 0.85
-5.88 0.28 0.83
-6.98 0.35 0.59
-6.89 0.36 0.61
-6.77 0.37 0.64
-6.78 0.39 0.63
-6.80 0.41 0.63
-6.58 0.41 0.68
-6.58 0.43 0.67
-6.56 0.45 0.68
-6.68 0.47 0.65
-6.51 0.48 0.69
-6.52 0.49 0.68
-6.70 0.52 0.64
-6.59 0.53 0.67
-6.50 0.54 0.69
-6.62 0.57 0.66
-6.69 0.59 0.64
-6.83 0.62 0.61
-6.70 0.63 0.64
-6.77 0.65 0.63
-6.75 0.66 0.63
-6.80 0.69 0.62
-6.83 0.71 0.61
-6.52 0.69 0.68
-6.68 0.73 0.64
-6.54 0.73 0.67
-6.54 0.75 0.67
-6.37 0.74 0.71
-5.91 0.71 0.81
-6.82 0.83 0.61
-5.87 0.74 0.81
-5.95 0.76 0.80
-7.43 0.95 0.47
-7.47 0.98 0.46
-5.47 0.75 0.90
-5.45 0.76 0.90
-5.37 0.76 0.92
-5.32 0.77 0.93
-5.52 0.81 0.88
-5.54 0.83 0.88
-5.91 0.89 0.80
-5.72 0.88 0.84
-5.82 0.91 0.82
-6.14 0.97 0.75
-6.15 0.99 0.74
-5.39 0.89 0.91
-5.48 0.92 0.89
-4.99 0.86 0.99
-5.17 0.90 0.95
-4.51 0.81 1.10
-5.14 0.92 0.96
-5.22 0.95 0.94
-5.74 1.33 0.81
-4.81 -1.64 0.56
-4.86 -1.63 0.55
-5.22 -1.64 0.48
-5.17 -1.59 0.49
-5.52 -1.64 0.41
-5.25 -1.57 0.47
-5.57 -1.61 0.40
-5.08 -1.50 0.51
-5.46 -1.55 0.43
-5.54 -1.55 0.41
-5.52 -1.50 0.41
-5.56 -1.49 0.41
-5.61 -1.48 0.40
-5.62 -1.46 0.39
-5.28 -1.36 0.47
-5.21 -1.33 0.49
-5.25 -1.32 0.48
-5.21 -1.29 0.49
-4.92 -1.23 0.55
-2.19 -0.77 1.14
-4.81 -1.17 0.57
-4.95 -1.18 0.54
-5.01 -1.17 0.53
-5.05 -1.16 0.52
-4.87 -1.11 0.56
-4.98 -1.11 0.54
-5.22 -1.13 0.49
-5.22 -1.11 0.48
-5.54 -1.13 0.42
-5.61 -1.12 0.40
-5.47 -1.08 0.43
-2.97 -0.74 0.98
-5.42 -1.04 0.44
-2.88 -0.70 1.00
-2.47 -0.63 1.08
-5.27 -0.96 0.48
-2.71 -0.64 1.03
-2.27 -0.57 1.13
-5.18 -0.90 0.50
-5.22 -0.88 0.49
-2.21 -0.52 1.14
-2.26 -0.51 1.13
-2.66 -0.52 1.04
-2.30 -0.44 1.12
-4.79 -0.64 0.58
-4.71 -0.62 0.60
-2.76 -0.44 1.02
-4.92 -0.60 0.55
-5.32 -0.61 0.47
-4.82 -0.55 0.58
-4.89 -0.54 0.56
-2.86 -0.38 1.00
-5.01 -0.51 0.54
-4.97 -0.49 0.54
-4.70 -0.46 0.60
-4.80 -0.45 0.58
-7.02 -0.40 0.60
-6.79 -0.37 0.64
-7.02 -0.37 0.60
-7.12 -0.34 0.57
-5.66 -0.26 0.89
-5.29 -0.23 0.96
-5.31 -0.22 0.96
-5.49 -0.21 0.92
-5.57 -0.20 0.91
-5.44 -0.18 0.93
-5.52 -0.17 0.92
-5.34 -0.15 0.95
-5.66 -0.14 0.88
-5.36 -0.12 0.95
-5.70 -0.12 0.88
-6.94 -0.12 0.61
-6.81 -0.10 0.64
-7.17 -0.09 0.56
-5.08 -0.05 1.01
-6.67 -0.05 0.67
-6.10 -0.03 0.79
-5.81 -0.01 0.85
-3.31 -0.00 0.84
-3.42 0.01 0.82
-3.80 0.03 0.73
-5.71 0.04 0.82
-5.63 0.06 0.83
-5.60 0.07 0.84
-5.88 0.09 0.78
-5.59 0.10 0.84
-5.62 0.11 0.83
-5.46 0.12 0.87
-5.61 0.14 0.84
-5.57 0.15 0.84
-5.83 0.18 0.79
-6.00 0.20 0.75
-6.02 0.21 0.74
-5.89 0.22 0.77
-5.72 0.23 0.81
-6.08 0.26 0.73
-5.51 0.25 0.85
-5.54 0.27 0.85
-5.58 0.28 0.84
-5.81 0.31 0.79
-5.59 0.31 0.84
-5.55 0.32 0.84
-5.47 0.33 0.86
-5.70 0.36 0.81
-6.06 0.40 0.73
-5.79 0.40 0.79
-6.61 0.46 0.60
-5.65 0.42 0.82
-6.59 0.50 0.61
-5.79 0.46 0.78
-5.75 0.47 0.79
-6.53 0.54 0.62
-6.66 0.57 0.59
-6.78 0.60 0.56
-6.70 0.61 0.58
-6.49 0.61 0.62
-6.66 0.64 0.59
-5.23 0.52 0.91
-4.70 0.49 1.03
-6.77 0.70 0.56
-6.81 0.72 0.55
-6.78 0.73 0.55
-6.73 0.75 0.57
-6.68 0.76 0.57
-6.93 0.80 0.52
-6.44 0.77 0.63
-6.19 0.75 0.68
-7.24 0.89 0.45
-5.78 0.74 0.78
-5.65 0.74 0.80
-5.91 0.78 0.75
-5.66 0.77 0.80
-5.31 0.74 0.88
-5.21 0.74 0.90
-5.34 0.77 0.87
-5.24 0.77 0.89
-5.60 0.83 0.81
-5.64 0.85 0.80
-5.41 0.83 0.85
-5.28 0.83 0.88
-3.60 0.60 1.26
-3.39 0.57 1.31
-3.56 0.61 1.27
-3.52 0.61 1.28
-3.70 0.65 1.24
-3.05 0.56 1.39
-3.20 0.59 1.35
-2.63 0.59 1.48
-2.61 0.59 1.48
-0.80 -1.62 1.37
-4.84 -1.52 0.49
-4.99 -1.53 0.46
-5.21 -1.37 0.41
-5.06 -1.28 0.45
-5.24 -1.30 0.41
-5.25 -1.28 0.40
-5.09 -1.23 0.44
-4.70 -1.14 0.53
-4.77 -1.13 0.51
-4.85 -1.10 0.50
-4.74 -1.07 0.52
-4.73 -1.04 0.52
-1.37 -0.48 1.29
-5.22 -0.71 0.42
-2.92 -0.46 0.94
-4.66 -0.59 0.54
-2.79 -0.41 0.97
-4.41 -0.52 0.60
-4.40 -0.50 0.60
-4.73 -0.51 0.53
-2.79 -0.36 0.97
-2.72 -0.35 0.98
-4.83 -0.46 0.51
-4.63 -0.43 0.55
-4.64 -0.42 0.55
-5.27 -0.44 0.40
-2.84 -0.26 0.95
-3.19 -0.27 0.87
-2.82 -0.22 0.96
-3.43 -0.22 0.82
-3.35 -0.20 0.84
-3.07 -0.18 0.90
-3.32 -0.17 0.84
-5.06 -0.21 0.45
-3.69 -0.15 0.76
-3.45 -0.13 0.81
-3.48 -0.12 0.81
-3.49 -0.11 0.80
-3.36 -0.09 0.83
-3.29 -0.07 0.85
-3.39 -0.05 0.83
-3.52 -0.03 0.80
-3.51 -0.02 0.80
-6.06 0.09 0.67
-6.04 0.11 0.68
-6.37 0.13 0.60
-5.99 0.14 0.69
-6.76 0.17 0.51
-7.17 0.20 0.41
-7.27 0.22 0.39
-7.13 0.23 0.42
-6.90 0.24 0.47
-7.15 0.27 0.41
-7.17 0.29 0.41
-7.10 0.30 0.43
-6.94 0.31 0.46
-7.02 0.33 0.44
-6.94 0.35 0.46
-6.82 0.36 0.49
-6.43 0.36 0.58
-6.38 0.37 0.59
-6.58 0.40 0.54
-6.83 0.43 0.49
-6.46 0.42 0.57
-6.86 0.46 0.48
-7.11 0.50 0.42
-7.16 0.52 0.40
-6.98 0.54 0.45
-7.04 0.56 0.43
-7.05 0.58 0.43
-6.93 0.59 0.46
-7.22 0.63 0.39
-6.85 0.62 0.47
-6.83 0.64 0.48
-7.22 0.69 0.39
-7.12 0.70 0.41
-7.10 0.71 0.41
-7.06 0.73 0.42
-7.18 0.76 0.39
-6.57 0.71 0.53
-6.64 0.74 0.52
-6.80 0.77 0.48
-6.65 0.77 0.51
-7.01 0.83 0.43
-6.08 0.80 0.64
-5.91 0.80 0.68
-5.74 0.79 0.72
-5.98 0.84 0.66
-5.90 0.84 0.68
-5.96 0.87 0.67
-6.04 0.89 0.65
-5.90 0.89 0.68
-5.92 0.91 0.67
-6.14 0.96 0.62
-5.90 0.94 0.68
-5.97 0.96 0.66
-5.90 0.97 0.68
-5.99 1.00 0.65
-5.64 0.96 0.74
-5.67 0.98 0.73
-5.53 0.97 0.76
-5.48 0.98 0.77
-4.98 -1.16 0.39
-4.77 -1.02 0.44
-4.80 -0.96 0.44
-4.51 -0.56 0.51
-4.56 -0.55 0.50
-4.58 -0.54 0.49
-4.48 -0.51 0.52
-4.32 -0.48 0.55
-4.22 -0.46 0.58
-4.49 -0.46 0.51
-4.74 -0.46 0.45
-5.02 -0.44 0.39
-3.87 -0.27 0.66
-4.55 -0.14 0.49
-0.84 -1.68 1.17
-1.02 -1.69 1.00
-1.78 0.94 0.49
-2.07 0.83 0.24
-1.77 0.85 0.23
-1.69 0.82 0.20
