# .PCD v0.7 - Point Cloud Data file format
VERSION 0.7
FIELDS x y z
SIZE 4 4 4
TYPE F F F
COUNT 1 1 1
WIDTH 2864
HEIGHT 1
VIEWPOINT 0 0 0 1 0 0 0
POINTS 2864
DATA ASCII
-6.34 -1.27 1.92
-6.57 -1.24 1.91
-6.54 -1.10 1.91
-7.41 -0.78 1.88
-7.94 -0.80 1.87
-8.12 -0.78 1.86
-7.99 -0.75 1.86
-7.80 -0.71 1.87
-8.15 -0.71 1.86
-8.05 -0.68 1.86
-8.05 -0.65 1.86
-8.00 -0.62 1.86
-7.89 -0.59 1.87
-7.97 -0.35 1.94
-9.16 -0.33 1.90
-9.04 -0.30 1.91
-9.61 -0.27 1.89
-9.45 -0.25 1.89
-9.54 -0.22 1.89
-9.23 -0.19 1.90
-9.41 -0.18 1.89
-9.70 -0.13 1.88
-9.57 -0.11 1.89
-9.67 -0.08 1.89
-9.36 -0.06 1.89
-8.93 -0.03 1.91
-8.85 -0.01 1.91
-9.65 0.01 1.77
-7.75 -0.71 1.84
-7.77 -0.61 1.84
-8.06 -0.60 1.83
-8.91 -0.13 1.80
-9.77 0.01 1.81
-8.95 0.03 1.84
-9.37 0.06 1.83
-9.87 0.08 1.81
-9.69 0.11 1.82
-9.71 0.13 1.81
-9.87 0.16 1.81
-10.07 0.18 1.80
-9.61 0.20 1.82
-9.75 0.23 1.81
-9.70 0.25 1.81
-10.06 0.41 1.80
-10.27 0.49 1.79
-6.44 -1.24 1.85
-6.78 -1.18 1.84
-6.82 -1.16 1.84
-6.41 -0.94 1.85
-6.61 -0.94 1.85
-7.17 -0.90 1.83
-7.85 -0.76 1.80
-7.95 -0.75 1.80
-7.75 -0.71 1.80
-7.93 -0.69 1.80
-7.97 -0.67 1.79
-8.00 -0.65 1.79
-7.96 -0.62 1.79
-7.91 -0.59 1.80
-7.87 -0.57 1.80
-8.01 -0.55 1.79
-8.00 -0.52 1.79
-7.86 -0.49 1.80
-8.07 -0.48 1.79
-8.62 -0.21 1.77
-9.59 -0.04 1.82
-9.82 -0.01 1.81
-8.93 0.01 1.71
-8.84 0.03 1.71
-9.79 0.37 1.77
-9.81 0.52 1.77
-10.23 0.57 1.75
-6.80 -1.58 1.81
-6.67 -1.36 1.81
-6.53 -1.32 1.82
-6.67 -1.16 1.81
-6.78 -1.15 1.81
-6.52 -1.10 1.82
-6.44 -0.90 1.82
-7.16 -0.90 1.79
-7.37 -0.89 1.78
-7.78 -0.78 1.76
-7.88 -0.76 1.76
-7.63 -0.72 1.77
-7.87 -0.69 1.76
-7.92 -0.67 1.76
-7.99 -0.65 1.75
-7.98 -0.62 1.75
-7.91 -0.59 1.76
-8.02 -0.55 1.75
-8.00 -0.52 1.75
-8.19 -0.38 1.74
-8.77 -0.24 1.72
-8.87 -0.21 1.72
-8.55 -0.13 1.73
-8.72 -0.10 1.72
-8.72 -0.07 1.72
-8.93 -0.05 1.71
-8.96 0.01 1.77
-9.16 0.03 1.76
-9.35 0.08 1.75
-9.28 0.10 1.76
-9.48 0.13 1.75
-9.55 0.17 1.74
-9.86 0.20 1.73
-9.44 0.22 1.75
-9.82 0.28 1.73
-9.91 0.33 1.73
-10.18 0.51 1.71
-10.30 1.21 1.70
-6.98 -1.53 1.76
-6.42 -1.33 1.79
-6.30 -1.29 1.79
-6.54 -1.30 1.78
-6.36 -1.25 1.79
-6.60 -1.22 1.78
-6.38 -1.17 1.79
-6.77 -1.09 1.77
-6.63 -0.92 1.77
-7.73 -0.90 1.73
-7.64 -0.73 1.73
-7.72 -0.71 1.72
-7.85 -0.69 1.72
-7.50 -0.64 1.73
-7.69 -0.63 1.73
-7.86 -0.62 1.72
-7.91 -0.59 1.72
-7.86 -0.57 1.72
-7.89 -0.54 1.72
-7.94 -0.52 1.71
-7.92 -0.49 1.71
-8.26 -0.48 1.70
-8.01 -0.45 1.71
-8.33 -0.44 1.70
-8.38 -0.41 1.69
-9.61 -0.35 1.75
-9.52 -0.32 1.75
-9.37 -0.29 1.76
-9.25 -0.26 1.76
-9.39 -0.25 1.75
-9.54 -0.23 1.75
-9.47 -0.18 1.75
-9.44 -0.15 1.75
-9.10 -0.13 1.77
-9.74 -0.11 1.74
-9.53 -0.08 1.75
-9.49 -0.06 1.75
-8.94 -0.01 1.77
-10.19 1.17 1.66
-1.32 -0.58 2.00
-7.06 -0.84 1.72
-7.63 -0.75 1.69
-7.84 -0.71 1.68
-8.00 -0.65 1.67
-7.94 -0.57 1.67
-7.90 -0.52 1.68
-8.18 -0.45 1.66
-8.97 0.01 1.69
-8.80 0.03 1.70
-9.31 0.06 1.67
-9.25 0.08 1.68
-9.32 0.10 1.67
-9.27 0.12 1.68
-9.36 0.15 1.67
-9.60 0.18 1.66
-9.62 0.20 1.66
-9.79 0.23 1.65
-9.83 0.25 1.64
-9.67 0.27 1.65
-9.92 0.30 1.64
-9.87 0.33 1.64
-9.80 0.35 1.64
-9.95 0.38 1.64
-9.95 0.43 1.64
-10.56 1.03 1.60
-9.26 0.95 1.67
-10.53 1.16 1.60
-10.33 1.16 1.61
-10.35 1.19 1.61
-10.43 1.23 1.60
-10.19 1.22 1.61
-1.88 -1.28 1.95
-5.94 -1.61 1.73
-5.97 -1.53 1.73
-6.63 -1.47 1.70
-6.86 -1.49 1.69
-6.26 -1.26 1.72
-6.16 -1.23 1.72
-5.84 -1.14 1.74
-6.26 -1.18 1.72
-6.46 -1.18 1.71
-6.61 -1.12 1.70
-6.70 -1.10 1.69
-7.33 -0.89 1.66
-6.89 -0.83 1.68
-7.52 -0.86 1.65
-7.64 -0.80 1.64
-6.13 -0.66 1.72
-7.89 -0.77 1.63
-7.66 -0.73 1.64
-7.77 -0.71 1.63
-7.55 -0.67 1.65
-7.78 -0.66 1.63
-7.86 -0.64 1.63
-8.00 -0.63 1.62
-7.99 -0.60 1.62
-8.64 -0.48 1.71
-8.82 -0.47 1.70
-8.66 -0.44 1.71
-8.71 -0.42 1.71
-9.06 -0.42 1.69
-8.92 -0.39 1.70
-8.88 -0.36 1.70
-9.26 -0.36 1.68
-9.04 -0.33 1.69
-8.94 -0.30 1.70
-9.19 -0.29 1.68
-8.94 -0.26 1.70
-9.04 -0.24 1.69
-8.87 -0.21 1.70
-8.90 -0.19 1.70
-8.94 -0.17 1.69
-9.11 -0.15 1.69
-8.92 -0.12 1.70
-9.23 -0.11 1.68
-9.05 -0.08 1.69
-9.06 -0.06 1.69
-9.10 -0.04 1.69
-8.97 -0.01 1.69
-9.35 0.01 1.50
-9.30 0.05 1.63
-9.27 0.08 1.64
-9.12 0.12 1.64
-9.40 0.15 1.63
-9.67 0.18 1.61
-9.33 0.19 1.63
-9.99 0.35 1.59
-9.87 0.37 1.60
-5.93 -1.01 1.70
-8.08 -0.65 1.57
-8.77 -0.18 1.53
-9.50 0.01 1.58
-9.36 0.03 1.59
-9.25 0.08 1.59
-9.33 0.10 1.59
-9.45 0.13 1.58
-9.30 0.15 1.59
-9.45 0.17 1.58
-9.63 0.20 1.57
-9.42 0.22 1.58
-9.78 0.30 1.56
-10.03 0.33 1.54
-10.35 0.37 1.52
-9.90 0.38 1.55
-9.62 0.39 1.57
-10.21 1.05 1.52
-10.41 1.20 1.51
-10.52 1.23 1.50
-10.63 1.27 1.49
-6.23 -1.54 1.64
-6.33 -1.53 1.64
-7.08 -1.64 1.59
-6.39 -1.48 1.63
-6.54 -1.46 1.62
-6.67 -1.46 1.61
-6.53 -1.41 1.62
-6.41 -1.37 1.63
-6.42 -1.33 1.63
-6.30 -1.29 1.64
-6.26 -1.22 1.64
-6.57 -1.18 1.62
-6.48 -1.14 1.63
-6.90 -1.17 1.60
-6.51 -1.10 1.62
-6.22 -1.05 1.64
-6.22 -1.02 1.64
-7.07 -1.10 1.59
-5.90 -0.95 1.66
-6.95 -1.04 1.60
-7.23 -0.95 1.58
-7.53 -0.96 1.56
-7.24 -0.91 1.58
-7.13 -0.78 1.58
-7.21 -0.77 1.58
-7.97 -0.72 1.53
-6.30 -0.34 1.63
-7.00 -0.34 1.59
-9.28 -0.28 1.45
-8.99 -0.24 1.47
-9.26 -0.22 1.45
-9.01 -0.19 1.46
-9.01 -0.10 1.61
-9.32 -0.08 1.59
-9.28 -0.06 1.59
-9.04 -0.04 1.61
-9.25 -0.01 1.59
-9.37 0.06 1.38
-9.67 0.09 1.36
-9.83 0.12 1.34
-9.70 0.18 1.35
-9.87 0.24 1.34
-9.32 0.26 1.38
-9.25 0.29 1.38
-9.98 0.28 1.49
-10.38 0.32 1.46
-10.17 0.36 1.48
-9.68 0.49 1.51
-10.00 0.55 1.49
-9.97 0.60 1.49
-10.49 1.20 1.45
-10.50 1.23 1.44
-10.43 1.25 1.45
-6.62 -1.40 1.57
-6.65 -1.36 1.57
-6.48 -1.31 1.58
-6.95 -1.22 1.55
-5.63 -1.03 1.64
-6.55 -1.08 1.57
-6.12 -1.01 1.60
-7.31 -1.10 1.52
-7.68 -1.07 1.50
-7.12 -0.94 1.53
-7.54 -0.96 1.51
-6.84 -0.85 1.55
-7.24 -0.86 1.53
-6.83 -0.80 1.55
-7.03 -0.77 1.54
-7.65 -0.80 1.50
-7.59 -0.77 1.50
-7.68 -0.75 1.50
-6.43 -0.64 1.58
-6.64 -0.44 1.56
-6.67 -0.37 1.56
-8.88 -0.24 1.41
-8.88 -0.19 1.41
-9.06 -0.16 1.40
-8.88 -0.13 1.41
-8.69 -0.05 1.42
-9.38 0.03 1.48
-9.43 0.05 1.48
-9.40 0.10 1.48
-9.40 0.12 1.48
-9.18 0.14 1.50
-9.55 0.17 1.47
-9.56 0.22 1.47
-9.76 0.25 1.45
-9.64 0.29 1.46
-9.54 0.31 1.47
-9.65 0.34 1.46
-9.46 0.36 1.48
-9.43 0.40 1.48
-9.31 0.42 1.49
-10.22 0.56 1.42
-10.02 0.58 1.43
-10.06 0.63 1.43
-9.88 0.64 1.44
-10.25 0.97 1.41
-10.47 1.15 1.39
-10.48 1.18 1.39
-10.40 1.19 1.40
-10.51 1.23 1.39
-10.42 1.28 1.39
-10.59 1.32 1.38
-4.52 -1.69 1.67
-4.64 -1.68 1.66
-4.54 -1.62 1.67
-4.80 -1.67 1.65
-4.76 -1.60 1.65
-5.83 -1.61 1.58
-4.36 -1.30 1.68
-6.02 -1.58 1.56
-5.93 -1.53 1.57
-4.34 -1.22 1.68
-4.33 -1.21 1.69
-4.42 -1.20 1.68
-6.07 -1.47 1.56
-3.95 -1.09 1.71
-6.28 -1.46 1.55
-6.19 -1.42 1.55
-5.99 -1.37 1.57
-6.18 -1.38 1.55
-6.51 -1.41 1.53
-6.34 -1.36 1.54
-6.74 -1.40 1.51
-6.00 -1.27 1.57
-6.08 -1.26 1.56
-6.29 -1.27 1.54
-6.90 -1.31 1.50
-6.47 -1.23 1.53
-6.60 -1.22 1.52
-6.83 -1.23 1.51
-5.37 -1.02 1.61
-5.87 -1.07 1.58
-5.70 -1.03 1.59
-5.55 -0.99 1.60
-6.91 -1.11 1.50
-7.05 -1.10 1.49
-5.99 -0.96 1.57
-6.98 -1.00 1.49
-6.93 -0.95 1.50
-7.02 -0.94 1.49
-7.10 -0.92 1.49
-7.19 -0.91 1.48
-6.97 -0.86 1.49
-6.72 -0.82 1.51
-6.74 -0.80 1.51
-6.75 -0.78 1.51
-6.81 -0.76 1.51
-7.81 -0.81 1.43
-6.85 -0.72 1.50
-6.67 -0.68 1.52
-6.50 -0.65 1.53
-6.75 -0.64 1.51
-7.48 -0.67 1.46
-8.14 -0.69 1.41
-6.09 -0.53 1.56
-8.01 -0.63 1.42
-6.12 -0.50 1.55
-8.03 -0.58 1.42
-7.95 -0.55 1.42
-6.30 -0.40 1.54
-6.25 -0.38 1.54
-6.40 -0.36 1.53
-6.46 -0.34 1.53
-8.79 -0.30 1.53
-9.02 -0.26 1.51
-8.93 -0.24 1.52
-9.05 -0.22 1.51
-8.95 -0.19 1.52
-9.03 -0.15 1.51
-8.98 -0.13 1.51
-9.22 -0.08 1.50
-9.77 -0.06 1.46
-9.36 -0.04 1.49
-9.16 -0.01 1.50
-8.98 0.06 1.29
-8.95 0.09 1.29
-9.56 0.18 1.24
-8.89 0.22 1.29
-9.36 0.29 1.25
-8.98 0.31 1.28
-8.87 0.36 1.29
-8.89 0.39 1.29
-9.11 0.42 1.27
-9.21 0.45 1.26
-9.24 0.51 1.26
-8.97 0.53 1.28
-10.05 0.55 1.38
-10.16 0.58 1.37
-10.09 0.60 1.38
-10.14 0.63 1.37
-10.39 1.14 1.34
-1.89 -1.57 1.84
-4.32 -1.67 1.65
-6.25 -1.39 1.50
-7.27 -1.26 1.43
-6.62 -1.05 1.48
-7.08 -1.05 1.44
-7.23 -1.05 1.43
-7.15 -0.95 1.43
-6.38 -0.85 1.49
-7.41 -0.90 1.41
-6.34 -0.78 1.50
-6.32 -0.74 1.50
-6.53 -0.73 1.48
-6.84 -0.71 1.46
-6.59 -0.65 1.48
-6.42 -0.62 1.49
-7.52 -0.50 1.40
-6.42 -0.38 1.49
-8.17 -0.15 1.35
-8.04 -0.12 1.36
-8.71 -0.05 1.31
-9.75 0.01 1.35
-9.64 0.03 1.36
-9.76 0.06 1.35
-9.81 0.08 1.34
-10.15 0.11 1.31
-9.66 0.13 1.35
-10.16 0.16 1.31
-9.70 0.17 1.35
-9.59 0.20 1.36
-10.14 0.23 1.31
-10.09 0.26 1.32
-9.63 0.27 1.35
-9.46 0.29 1.37
-9.63 0.32 1.35
-9.45 0.33 1.37
-9.90 0.37 1.33
-10.27 0.41 1.30
-10.00 0.43 1.32
-10.03 0.45 1.32
-10.30 0.49 1.30
-9.91 0.50 1.33
-6.61 0.36 1.60
-9.91 0.55 1.33
-9.99 0.58 1.32
-9.94 0.60 1.33
-10.43 1.09 1.28
-10.44 1.12 1.28
-10.48 1.15 1.27
-10.42 1.17 1.28
-10.75 1.23 1.25
-10.48 1.23 1.27
-10.38 1.24 1.28
-10.40 1.27 1.28
-10.48 1.31 1.27
-4.83 -1.69 1.57
-4.76 -1.66 1.57
-4.77 -1.64 1.57
-4.55 -1.58 1.59
-4.67 -1.59 1.58
-4.70 -1.57 1.58
-4.20 -1.37 1.62
-4.67 -1.44 1.58
-4.59 -1.41 1.59
-4.29 -1.33 1.61
-4.37 -1.33 1.61
-3.99 -1.24 1.64
-4.10 -1.25 1.63
-4.27 -1.26 1.61
-4.10 -1.22 1.63
-4.21 -1.22 1.62
-4.29 -1.22 1.61
-5.36 -1.39 1.52
-5.58 -1.41 1.51
-5.42 -1.36 1.52
-5.59 -1.37 1.51
-5.87 -1.39 1.48
-4.46 -1.15 1.60
-5.53 -1.30 1.51
-5.46 -1.27 1.52
-4.44 -1.09 1.60
-4.54 -1.09 1.59
-6.01 -1.29 1.47
-5.34 -1.17 1.53
-5.94 -1.24 1.48
-6.37 -1.26 1.44
-6.43 -1.25 1.44
-6.59 -1.23 1.42
-6.65 -1.12 1.42
-6.78 -1.07 1.41
-6.49 -1.02 1.43
-6.42 -0.96 1.44
-6.58 -0.96 1.42
-6.50 -0.93 1.43
-5.87 -0.85 1.48
-6.67 -0.90 1.42
-6.12 -0.83 1.46
-5.91 -0.79 1.48
-5.86 -0.76 1.48
-6.26 -0.78 1.45
-5.90 -0.73 1.48
-6.36 -0.74 1.44
-6.37 -0.72 1.44
-7.24 -0.77 1.37
-6.90 -0.72 1.40
-6.78 -0.69 1.41
-6.51 -0.65 1.43
-7.18 -0.67 1.37
-7.18 -0.65 1.37
-5.60 -0.53 1.50
-7.27 -0.61 1.36
-7.23 -0.58 1.37
-7.43 -0.57 1.35
-8.60 -0.48 1.45
-8.66 -0.47 1.44
-8.52 -0.44 1.45
-8.45 -0.41 1.46
-8.48 -0.39 1.46
-8.55 -0.37 1.45
-8.66 -0.36 1.44
-8.66 -0.34 1.44
-8.60 -0.31 1.45
-8.62 -0.29 1.44
-8.64 -0.27 1.44
-8.78 -0.25 1.43
-8.93 -0.24 1.42
-8.72 -0.21 1.44
-9.51 -0.20 1.37
-9.47 -0.18 1.37
-9.65 -0.16 1.36
-9.57 -0.13 1.36
-8.94 -0.10 1.42
-9.30 -0.08 1.39
-9.38 -0.06 1.38
-9.12 -0.04 1.40
-9.23 -0.02 1.39
-8.60 0.00 1.19
-8.65 0.03 1.18
-10.29 0.08 1.25
-10.05 0.11 1.27
-9.92 0.13 1.28
-10.11 0.16 1.26
-10.16 0.21 1.26
-10.07 0.23 1.26
-9.48 0.26 1.32
-9.83 0.30 1.28
-10.64 0.35 1.21
-9.82 0.35 1.28
-10.18 0.43 1.25
-9.83 0.52 1.28
-10.07 0.58 1.26
-9.71 0.58 1.29
-10.50 1.18 1.21
-0.83 -0.86 1.88
-4.53 -1.57 1.55
-4.45 -1.53 1.56
-4.28 -1.34 1.58
-6.75 -1.45 1.36
-6.15 -1.29 1.41
-6.32 -1.29 1.40
-5.71 -1.18 1.45
-5.75 -1.17 1.45
-5.81 -1.14 1.44
-6.09 -1.13 1.42
-6.38 -1.15 1.39
-5.88 -1.07 1.44
-6.32 -0.97 1.40
-5.65 -0.88 1.46
-5.66 -0.86 1.46
-5.80 -0.86 1.44
-6.05 -0.86 1.42
-6.14 -0.85 1.41
-5.84 -0.80 1.44
-5.97 -0.79 1.43
-5.59 -0.74 1.46
-5.63 -0.72 1.46
-6.06 -0.74 1.42
-5.98 -0.71 1.43
-6.73 -0.75 1.36
-6.63 -0.72 1.37
-6.42 -0.68 1.39
-6.44 -0.66 1.39
-7.22 -0.70 1.32
-6.29 -0.61 1.40
-7.61 -0.68 1.28
-6.25 -0.57 1.40
-6.31 -0.44 1.40
-6.22 -0.42 1.40
-6.33 -0.40 1.39
-6.22 -0.35 1.40
-6.22 -0.31 1.40
-6.46 -0.26 1.38
-6.86 -0.20 1.35
-8.13 -0.18 1.23
-8.23 -0.15 1.22
-8.29 -0.08 1.22
-8.37 -0.05 1.21
-8.39 -0.02 1.21
-10.06 0.01 1.21
-9.84 0.03 1.22
-10.07 0.06 1.20
-10.41 0.08 1.17
-10.31 0.11 1.18
-10.11 0.13 1.20
-9.89 0.15 1.22
-10.13 0.18 1.20
-9.96 0.20 1.21
-9.69 0.22 1.24
-9.82 0.25 1.22
-9.67 0.27 1.24
-9.55 0.29 1.25
-9.47 0.31 1.26
-9.29 0.33 1.27
-9.67 0.36 1.24
-9.16 0.37 1.28
-9.50 0.41 1.25
-9.73 0.44 1.23
-9.62 0.48 1.24
-9.82 0.52 1.22
-9.86 0.54 1.22
-9.86 0.57 1.22
-10.05 0.60 1.20
-10.56 0.66 1.15
-9.99 0.72 1.20
-10.27 0.77 1.17
-10.59 0.95 1.14
-10.34 0.95 1.16
-10.67 1.04 1.13
-10.52 1.10 1.15
-10.55 1.13 1.14
-10.49 1.15 1.15
-10.29 1.15 1.17
-10.46 1.20 1.15
-10.42 1.22 1.15
-10.31 1.23 1.16
-10.15 1.24 1.18
-1.87 -1.37 1.76
-4.53 -1.67 1.51
-4.50 -1.61 1.51
-4.52 -1.57 1.51
-4.10 -1.46 1.55
-4.49 -1.53 1.51
-4.45 -1.50 1.52
-4.51 -1.50 1.51
-4.77 -1.53 1.49
-4.53 -1.46 1.51
-4.31 -1.39 1.53
-4.26 -1.36 1.54
-4.19 -1.31 1.54
-4.69 -1.39 1.50
-4.22 -1.28 1.54
-4.07 -1.24 1.56
-4.41 -1.27 1.52
-4.63 -1.29 1.50
-5.17 -1.37 1.45
-5.44 -1.38 1.43
-5.45 -1.36 1.43
-4.59 -1.13 1.51
-5.46 -1.25 1.42
-5.36 -1.21 1.43
-6.21 -1.32 1.35
-5.79 -1.24 1.39
-5.68 -1.18 1.40
-5.93 -1.20 1.38
-6.14 -1.21 1.36
-5.76 -1.13 1.40
-5.83 -1.12 1.39
-5.08 -0.99 1.46
-5.96 -1.06 1.38
-6.10 -1.05 1.36
-6.23 -1.05 1.35
-6.15 -1.00 1.36
-5.88 -0.95 1.39
-5.79 -0.88 1.39
-6.32 -0.91 1.34
-6.36 -0.89 1.34
-7.19 -0.95 1.26
-5.62 -0.78 1.41
-6.85 -0.87 1.29
-5.99 -0.77 1.37
-6.25 -0.76 1.35
-6.32 -0.74 1.34
-7.24 -0.79 1.26
-6.90 -0.74 1.29
-6.86 -0.72 1.29
-6.31 -0.65 1.34
-6.34 -0.64 1.34
-6.29 -0.61 1.35
-6.49 -0.60 1.33
-5.98 -0.55 1.37
-6.19 -0.54 1.35
-6.26 -0.53 1.35
-6.39 -0.51 1.34
-6.36 -0.49 1.34
-6.39 -0.47 1.34
-6.28 -0.42 1.35
-6.21 -0.40 1.35
-6.35 -0.38 1.34
-6.30 -0.36 1.34
-6.31 -0.34 1.34
-6.58 -0.33 1.32
-6.42 -0.30 1.33
-6.38 -0.25 1.34
-6.30 -0.23 1.34
-6.28 -0.21 1.34
-8.17 -0.23 1.17
-9.17 -0.13 1.29
-9.57 -0.11 1.25
-9.49 -0.09 1.26
-9.37 -0.06 1.27
-9.50 -0.04 1.26
-9.79 -0.02 1.23
-4.90 0.00 1.43
-4.46 0.02 1.47
-8.02 0.05 1.11
-4.38 0.05 1.48
-8.18 0.10 1.10
-8.23 0.13 1.09
-8.69 0.16 1.04
-8.57 0.19 1.06
-4.45 0.13 1.47
-4.08 0.14 1.51
-10.13 0.28 1.13
-7.49 0.23 1.40
-9.67 0.32 1.18
-9.53 0.34 1.19
-9.94 0.37 1.15
-10.57 0.42 1.09
-9.79 0.42 1.16
-9.54 0.43 1.19
-9.49 0.45 1.19
-9.98 0.50 1.14
-9.76 0.51 1.17
-9.70 0.53 1.17
-10.02 0.57 1.14
-10.04 0.60 1.14
-9.85 0.61 1.16
-9.94 0.64 1.15
-10.09 0.68 1.13
-10.09 0.70 1.13
-9.96 0.72 1.14
-9.96 0.74 1.14
-9.95 0.77 1.14
-10.04 0.80 1.13
-10.76 1.12 1.06
-10.59 1.16 1.07
-10.65 1.19 1.07
-10.44 1.22 1.09
-10.46 1.25 1.08
-10.28 1.25 1.10
-7.57 1.25 1.37
-4.15 0.86 1.71
-3.85 1.64 1.71
-1.31 -1.11 1.79
-1.34 -1.03 1.79
-4.40 -1.69 1.48
-4.47 -1.66 1.47
-4.33 -1.51 1.49
-4.26 -1.47 1.50
-4.44 -1.49 1.48
-4.63 -1.52 1.46
-4.43 -1.46 1.48
-4.61 -1.48 1.46
-4.29 -1.40 1.49
-4.50 -1.35 1.47
-4.56 -1.35 1.47
-4.58 -1.32 1.47
-4.39 -1.26 1.48
-5.11 -1.38 1.41
-5.43 -1.38 1.38
-5.65 -1.39 1.36
-5.34 -1.32 1.39
-5.45 -1.32 1.38
-4.50 -1.15 1.47
-6.13 -1.35 1.31
-5.51 -1.23 1.37
-6.04 -1.29 1.32
-5.78 -1.21 1.35
-5.57 -1.16 1.37
-5.73 -1.17 1.35
-5.49 -1.11 1.37
-5.35 -1.08 1.39
-5.28 -1.05 1.40
-5.52 -1.06 1.37
-6.22 -1.13 1.30
-6.06 -1.09 1.32
-5.75 -1.03 1.35
-5.75 -1.01 1.35
-5.93 -1.01 1.33
-6.22 -1.03 1.30
-5.98 -0.98 1.32
-5.40 -0.89 1.38
-5.92 -0.93 1.33
-5.72 -0.89 1.35
-5.98 -0.90 1.32
-5.89 -0.87 1.33
-5.78 -0.83 1.35
-6.09 -0.84 1.31
-6.86 -0.90 1.24
-7.03 -0.89 1.22
-7.12 -0.88 1.21
-7.33 -0.87 1.19
-6.80 -0.80 1.24
-7.30 -0.82 1.19
-6.85 -0.76 1.24
-7.11 -0.76 1.21
-6.47 -0.69 1.28
-7.29 -0.73 1.19
-6.24 -0.63 1.30
-1.63 -0.29 1.76
-6.24 -0.59 1.30
-6.60 -0.59 1.26
-6.15 -0.54 1.31
-6.21 -0.52 1.30
-6.34 -0.51 1.29
-6.33 -0.49 1.29
-6.27 -0.46 1.29
-6.30 -0.44 1.29
-6.35 -0.42 1.29
-6.36 -0.40 1.28
-6.42 -0.38 1.28
-6.41 -0.36 1.28
-6.44 -0.34 1.28
-6.44 -0.32 1.28
-6.36 -0.30 1.28
-6.57 -0.28 1.26
-6.76 -0.27 1.24
-6.73 -0.24 1.25
-6.68 -0.22 1.25
-6.64 -0.20 1.26
-7.82 -0.20 1.14
-7.48 -0.17 1.17
-7.83 -0.15 1.14
-8.51 -0.13 1.07
-8.99 -0.11 1.02
-8.93 -0.08 1.02
-8.70 -0.05 1.05
-8.84 -0.03 1.03
-9.26 0.01 1.16
-9.20 0.03 1.16
-9.36 0.05 1.15
-9.95 0.08 1.08
-10.21 0.11 1.06
-10.41 0.13 1.04
-10.18 0.16 1.06
-9.32 0.17 1.15
-9.32 0.19 1.15
-7.31 0.17 1.36
-9.46 0.24 1.13
-9.21 0.26 1.16
-10.02 0.30 1.07
-9.58 0.31 1.12
-9.95 0.35 1.08
-9.54 0.36 1.12
-9.47 0.38 1.13
-9.65 0.41 1.11
-9.78 0.44 1.10
-9.44 0.45 1.13
-9.34 0.47 1.14
-9.66 0.51 1.11
-9.77 0.54 1.10
-9.75 0.56 1.10
-9.55 0.57 1.12
-9.62 0.60 1.11
-9.85 0.64 1.09
-9.76 0.66 1.10
-9.60 0.67 1.11
-9.76 0.71 1.10
-9.74 0.73 1.10
-9.85 0.76 1.09
-10.05 0.80 1.06
-9.68 0.80 1.10
-10.13 0.86 1.05
-10.28 0.90 1.04
-10.34 0.93 1.03
-10.51 0.97 1.01
-10.48 0.99 1.01
-10.50 1.02 1.01
-10.65 1.06 0.99
-10.53 1.07 1.01
-10.72 1.12 0.99
-10.61 1.14 1.00
-10.55 1.16 1.00
-10.60 1.19 1.00
-10.60 1.21 1.00
-10.43 1.22 1.01
-10.46 1.30 1.01
-4.01 0.85 1.70
-0.84 -1.06 1.81
-4.08 -1.68 1.47
-4.50 -1.67 1.42
-4.39 -1.61 1.43
-4.52 -1.62 1.42
-4.91 -1.69 1.38
-4.27 -1.53 1.45
-4.37 -1.54 1.44
-4.19 -1.48 1.46
-4.39 -1.51 1.43
-4.20 -1.45 1.46
-4.49 -1.49 1.42
-4.17 -1.41 1.46
-4.12 -1.38 1.46
-4.10 -1.36 1.47
-4.59 -1.44 1.41
-4.35 -1.38 1.44
-4.41 -1.37 1.43
-4.60 -1.39 1.41
-4.33 -1.32 1.44
-4.37 -1.32 1.44
-4.47 -1.32 1.43
-4.86 -1.37 1.39
-5.04 -1.39 1.37
-4.38 -1.25 1.44
-4.53 -1.26 1.42
-5.08 -1.34 1.36
-4.80 -1.27 1.39
-5.02 -1.29 1.37
-5.05 -1.28 1.37
-3.93 -1.07 1.49
-4.99 -1.23 1.37
-4.30 -1.10 1.45
-4.01 -1.04 1.48
-3.92 -1.01 1.49
-4.03 -1.01 1.48
-4.26 -1.03 1.45
-4.14 -1.00 1.46
-6.02 -1.25 1.26
-6.09 -1.24 1.26
-5.75 -1.17 1.29
-5.47 -1.12 1.32
-5.28 -1.07 1.34
-5.06 -1.02 1.37
-5.40 -1.05 1.33
-5.25 -1.01 1.35
-5.35 -1.00 1.34
-5.21 -0.97 1.35
-5.34 -0.96 1.34
-5.87 -1.01 1.28
-5.70 -0.95 1.30
-5.83 -0.94 1.28
-5.98 -0.94 1.27
-5.85 -0.88 1.28
-5.81 -0.86 1.29
-6.00 -0.86 1.27
-6.07 -0.85 1.26
-5.90 -0.81 1.28
-6.91 -0.88 1.17
-7.00 -0.87 1.16
-7.21 -0.86 1.14
-7.20 -0.84 1.14
-6.94 -0.79 1.16
-7.04 -0.78 1.15
-6.92 -0.75 1.17
-6.79 -0.71 1.18
-6.82 -0.69 1.18
-6.88 -0.68 1.17
-6.69 -0.64 1.19
-7.06 -0.64 1.15
-7.04 -0.62 1.15
-6.49 -0.56 1.21
-6.49 -0.54 1.21
-6.36 -0.51 1.23
-6.17 -0.48 1.25
-6.14 -0.46 1.25
-6.05 -0.43 1.26
-6.13 -0.41 1.25
-6.11 -0.39 1.25
-6.27 -0.38 1.23
-6.25 -0.36 1.24
-6.15 -0.33 1.25
-8.55 -0.31 1.24
-8.64 -0.29 1.23
-8.69 -0.27 1.22
-8.48 -0.25 1.24
-8.70 -0.23 1.22
-8.71 -0.21 1.22
-4.88 -0.11 1.63
-4.38 -0.09 1.68
-8.82 -0.15 1.21
-8.96 -0.13 1.19
-9.35 -0.11 1.15
-9.09 -0.08 1.18
-9.03 -0.06 1.18
-9.34 -0.04 1.15
-9.25 -0.02 1.16
-7.76 0.00 1.01
-8.19 0.03 0.96
-7.99 0.05 0.98
-8.03 0.08 0.97
-7.84 0.10 1.00
-7.57 0.12 1.03
-7.83 0.15 1.00
-9.03 0.22 0.86
-8.90 0.25 0.87
-8.89 0.41 0.87
-9.29 0.45 0.83
-9.31 0.48 0.82
-9.56 0.48 1.06
-9.72 0.53 1.04
-9.58 0.57 1.05
-9.77 0.61 1.03
-9.73 0.63 1.04
-9.98 0.67 1.01
-9.99 0.70 1.01
-10.02 0.72 1.00
-9.85 0.73 1.02
-9.88 0.76 1.02
-10.04 0.82 1.00
-10.27 0.87 0.97
-10.27 0.89 0.97
-10.58 1.00 0.93
-10.60 1.03 0.93
-10.71 1.12 0.92
-10.60 1.18 0.93
-0.82 -1.08 1.80
-0.90 -0.95 1.79
-0.75 -0.72 1.81
-5.57 -1.07 1.26
-6.12 -0.93 1.20
-6.00 -0.90 1.21
-5.82 -0.86 1.23
-5.76 -0.81 1.24
-7.19 -0.86 1.08
-7.30 -0.84 1.06
-7.03 -0.80 1.10
-7.21 -0.79 1.07
-7.18 -0.77 1.08
-5.51 -0.60 1.27
-7.59 -0.68 1.03
-7.20 -0.63 1.08
-7.05 -0.57 1.09
-6.35 -0.42 1.17
-6.58 -0.41 1.14
-6.35 -0.38 1.17
-6.98 -0.36 1.10
-6.97 -0.34 1.10
-7.16 -0.32 1.08
-6.59 -0.28 1.14
-6.47 -0.26 1.16
-7.39 -0.24 1.05
-8.24 -0.05 0.95
-10.19 0.11 0.92
-10.43 0.13 0.89
-9.47 0.22 1.00
-9.49 0.26 1.00
-10.93 0.33 0.83
-9.52 0.31 0.99
-10.15 0.36 0.92
-10.36 0.39 0.89
-10.29 0.41 0.90
-9.84 0.42 0.95
-9.79 0.44 0.96
-9.70 0.46 0.97
-9.27 0.46 1.02
-9.47 0.50 1.00
-9.44 0.52 1.00
-9.45 0.54 1.00
-9.56 0.57 0.98
-9.72 0.61 0.96
-9.72 0.63 0.96
-9.82 0.66 0.95
-9.68 0.68 0.97
-9.81 0.71 0.95
-9.72 0.73 0.96
-9.90 0.77 0.94
-10.08 0.80 0.92
-10.07 0.83 0.92
-10.54 0.92 0.86
-10.78 0.96 0.83
-10.84 1.00 0.82
-10.63 1.00 0.85
-10.60 1.08 0.85
-10.58 1.11 0.85
-10.88 1.16 0.82
-10.80 1.18 0.82
-10.74 1.26 0.83
-10.38 1.29 0.87
-3.69 -1.20 1.42
-10.15 -1.46 0.65
-5.99 -0.80 1.15
-5.97 -0.76 1.15
-7.43 -0.86 0.98
-7.53 -0.84 0.97
-7.32 -0.78 0.99
-7.31 -0.75 0.99
-7.38 -0.74 0.98
-7.31 -0.71 0.99
-7.40 -0.69 0.98
-7.33 -0.66 0.99
-7.31 -0.64 0.99
-8.41 -0.46 1.13
-8.28 -0.41 1.15
-9.33 -0.20 1.02
-9.50 -0.18 1.00
-9.56 -0.16 0.99
-8.82 -0.13 1.08
-9.55 -0.07 0.99
-7.45 0.02 0.90
-8.72 0.05 1.03
-8.92 0.07 1.01
-8.60 0.09 1.05
-6.63 0.10 1.30
-6.70 0.12 1.29
-9.10 0.18 0.98
-9.13 0.21 0.98
-9.42 0.24 0.94
-9.20 0.25 0.97
-9.24 0.28 0.96
-9.54 0.31 0.92
-9.44 0.33 0.94
-9.68 0.36 0.91
-9.66 0.39 0.91
-9.69 0.41 0.90
-9.56 0.43 0.92
-9.35 0.44 0.95
-9.15 0.46 0.97
-9.23 0.48 0.96
-9.21 0.51 0.96
-9.54 0.55 0.92
-9.52 0.57 0.92
-9.57 0.60 0.92
-9.74 0.63 0.89
-9.95 0.67 0.87
-9.87 0.69 0.88
-9.74 0.70 0.89
-9.84 0.73 0.88
-10.10 0.78 0.85
-9.62 0.77 0.91
-10.12 0.83 0.84
-9.70 0.82 0.90
-10.81 0.99 0.75
-10.93 1.03 0.74
-10.92 1.06 0.74
-11.16 1.11 0.71
-10.87 1.11 0.74
-10.83 1.13 0.75
-10.76 1.15 0.75
-10.94 1.22 0.73
-10.92 1.25 0.73
-10.63 1.24 0.77
-10.66 1.27 0.76
-10.81 1.31 0.75
-10.40 1.37 0.79
-10.30 1.57 0.80
-9.51 1.62 0.90
-9.02 1.68 0.96
-4.07 -1.66 1.33
-4.04 -1.64 1.33
-4.17 -1.66 1.32
-4.13 -1.63 1.32
-4.28 -1.65 1.30
-4.15 -1.57 1.32
-4.36 -1.58 1.29
-3.97 -1.46 1.35
-4.19 -1.49 1.32
-4.17 -1.44 1.32
-4.10 -1.33 1.33
-4.01 -1.29 1.34
-3.95 -1.27 1.35
-3.95 -1.25 1.35
-4.28 -1.30 1.31
-4.15 -1.25 1.33
-5.02 -1.40 1.21
-4.20 -1.23 1.32
-4.01 -1.15 1.34
-4.51 -1.20 1.28
-4.23 -1.14 1.32
-4.29 -1.13 1.31
-4.35 -1.13 1.30
-4.65 -1.16 1.26
-4.97 -1.19 1.22
-5.04 -1.18 1.21
-5.10 -1.17 1.21
-5.48 -1.21 1.16
-5.10 -1.14 1.21
-4.87 -1.09 1.24
-4.82 -1.06 1.24
-5.33 -1.11 1.18
-4.95 -1.04 1.23
-5.06 -1.04 1.21
-5.06 -1.02 1.21
-5.10 -0.99 1.21
-4.02 -0.84 1.34
-5.47 -0.92 1.16
-5.54 -0.91 1.15
-5.68 -0.91 1.13
-5.75 -0.89 1.12
-6.10 -0.91 1.08
-5.96 -0.88 1.10
-5.69 -0.83 1.13
-5.90 -0.83 1.11
-5.91 -0.81 1.10
-6.55 -0.85 1.02
-5.68 -0.75 1.13
-5.78 -0.74 1.12
-5.75 -0.71 1.12
-5.65 -0.69 1.14
-5.65 -0.67 1.14
-5.31 -0.62 1.18
-7.14 -0.74 0.95
-7.33 -0.71 0.92
-7.46 -0.69 0.91
-7.26 -0.66 0.93
-7.43 -0.64 0.91
-7.44 -0.62 0.91
-7.23 -0.58 0.93
-7.30 -0.56 0.93
-6.74 -0.51 1.00
-6.62 -0.48 1.01
-6.58 -0.46 1.02
-6.83 -0.45 0.98
-6.78 -0.42 0.99
-6.55 -0.39 1.02
-6.48 -0.37 1.03
-6.58 -0.35 1.02
-6.35 -0.32 1.05
-6.37 -0.30 1.04
-6.12 -0.27 1.07
-6.16 -0.25 1.07
-6.26 -0.23 1.06
-6.45 -0.22 1.03
-6.37 -0.19 1.04
-6.26 -0.17 1.06
-6.32 -0.15 1.05
-6.30 -0.13 1.05
-6.57 -0.11 1.01
-7.58 -0.10 0.89
-6.65 -0.07 1.00
-8.38 -0.05 0.78
-6.43 -0.02 1.03
-7.13 0.00 1.18
-8.46 0.02 1.00
-8.64 0.05 0.98
-8.50 0.07 1.00
-6.75 0.07 1.23
-9.27 0.12 0.89
-9.56 0.15 0.85
-9.79 0.17 0.82
-9.62 0.19 0.84
-9.49 0.21 0.86
-9.64 0.24 0.84
-6.54 0.18 1.26
-9.62 0.29 0.84
-6.60 0.22 1.25
-9.44 0.33 0.87
-9.59 0.36 0.85
-9.21 0.37 0.90
-9.37 0.40 0.87
-9.39 0.42 0.87
-9.22 0.44 0.89
-9.09 0.45 0.91
-9.20 0.48 0.90
-9.44 0.52 0.86
-9.77 0.56 0.82
-9.77 0.58 0.82
-9.68 0.60 0.83
-9.64 0.62 0.83
-9.81 0.66 0.81
-9.89 0.69 0.80
-9.73 0.70 0.82
-10.03 0.75 0.78
-10.14 0.78 0.76
-10.42 0.83 0.73
-9.60 0.79 0.84
-10.52 0.89 0.71
-11.06 1.01 0.64
-10.87 1.02 0.66
-10.95 1.06 0.65
-11.05 1.10 0.64
-11.02 1.12 0.64
-11.09 1.15 0.63
-10.91 1.16 0.65
-10.91 1.19 0.65
-11.06 1.23 0.63
-10.94 1.25 0.65
-11.06 1.29 0.63
-11.09 1.32 0.63
-10.83 1.32 0.66
-4.09 0.54 1.57
-10.41 1.40 0.71
-4.08 0.63 1.57
-9.96 1.47 0.77
-9.63 1.45 0.82
-9.60 1.54 0.82
-9.74 1.61 0.79
-8.97 1.51 0.90
-9.48 1.62 0.83
-9.22 1.60 0.86
-9.47 1.66 0.83
-9.47 1.69 0.83
-4.20 -1.68 1.26
-4.21 -1.67 1.26
-4.17 -1.64 1.27
-4.42 -1.65 1.23
-4.74 -1.69 1.19
-4.36 -1.58 1.24
-3.98 -1.48 1.29
-4.20 -1.50 1.27
-4.23 -1.49 1.26
-4.19 -1.46 1.27
-4.15 -1.42 1.27
-4.29 -1.43 1.25
-4.30 -1.42 1.25
-4.24 -1.39 1.26
-4.03 -1.32 1.29
-3.87 -1.27 1.31
-3.97 -1.26 1.30
-4.05 -1.25 1.29
-4.14 -1.26 1.28
-4.90 -1.36 1.17
-4.73 -1.31 1.20
-3.85 -1.14 1.32
-4.49 -1.22 1.23
-4.02 -1.12 1.29
-4.28 -1.15 1.26
-4.19 -1.12 1.27
-4.93 -1.20 1.17
-4.57 -1.13 1.22
-4.77 -1.13 1.19
-5.31 -1.19 1.12
-5.57 -1.21 1.09
-5.30 -1.13 1.12
-5.78 -1.18 1.06
-5.07 -1.06 1.15
-5.01 -1.02 1.16
-4.84 -0.97 1.18
-5.07 -0.99 1.15
-5.09 -0.97 1.15
-5.21 -0.95 1.13
-5.22 -0.93 1.13
-5.17 -0.89 1.14
-5.26 -0.88 1.13
-5.82 -0.92 1.05
-5.84 -0.88 1.05
-5.88 -0.87 1.05
-5.82 -0.84 1.05
-5.69 -0.79 1.07
-5.53 -0.75 1.09
-5.58 -0.74 1.09
-5.49 -0.71 1.10
-5.45 -0.67 1.10
-5.37 -0.65 1.11
-5.32 -0.60 1.12
-7.39 -0.74 0.84
-5.09 -0.55 1.15
-5.26 -0.54 1.13
-7.39 -0.64 0.84
-7.47 -0.62 0.83
-7.30 -0.57 0.85
-7.02 -0.53 0.89
-6.75 -0.49 0.93
-6.68 -0.46 0.94
-6.79 -0.43 0.92
-6.84 -0.41 0.91
-6.75 -0.36 0.93
-6.64 -0.33 0.94
-6.55 -0.31 0.95
-6.28 -0.28 0.99
-6.28 -0.23 0.99
-6.03 -0.21 1.02
-6.01 -0.17 1.02
-5.96 -0.14 1.03
-8.05 -0.12 1.06
-8.78 -0.11 0.96
-7.61 -0.07 1.12
-7.06 -0.05 1.19
-7.21 -0.03 1.17
-8.52 -0.02 0.99
-5.89 -0.00 0.98
-5.63 0.02 1.01
-5.43 0.04 1.04
-5.69 0.06 1.01
-5.70 0.08 1.00
-4.09 0.08 1.23
-5.50 0.11 1.03
-4.37 0.11 1.19
-5.25 0.15 1.07
-5.30 0.17 1.06
-5.21 0.18 1.07
-8.98 0.25 0.86
-8.98 0.27 0.86
-8.99 0.29 0.86
-9.27 0.32 0.82
-8.77 0.33 0.89
-8.75 0.35 0.89
-8.83 0.37 0.88
-8.98 0.40 0.86
-9.37 0.44 0.81
-9.85 0.49 0.74
-9.19 0.48 0.83
-6.27 0.35 1.24
-9.22 0.53 0.82
-9.54 0.57 0.78
-9.72 0.60 0.75
-9.83 0.63 0.74
-10.06 0.67 0.70
-9.89 0.69 0.73
-10.03 0.72 0.71
-10.27 0.76 0.67
-10.01 0.77 0.71
-9.83 0.78 0.73
-10.70 0.87 0.61
-10.73 0.90 0.60
-11.04 0.96 0.56
-11.04 0.98 0.56
-11.12 1.02 0.55
-11.19 1.05 0.54
-11.01 1.09 0.56
-10.85 1.37 0.58
-9.97 1.47 0.69
-9.38 1.53 0.77
-9.19 1.57 0.80
-9.25 1.60 0.79
-9.40 1.65 0.77
-9.29 1.66 0.78
-9.20 1.66 0.79
-9.22 1.69 0.79
-9.01 1.68 0.82
-8.97 1.69 0.83
-1.35 -1.17 1.62
-2.16 -1.21 1.51
-4.13 -1.63 1.22
-4.18 -1.62 1.22
-4.42 -1.66 1.18
-4.26 -1.61 1.21
-4.35 -1.61 1.19
-4.73 -1.69 1.14
-4.56 -1.63 1.17
-4.28 -1.55 1.21
-4.06 -1.48 1.24
-5.00 -1.66 1.10
-4.30 -1.48 1.20
-4.13 -1.41 1.23
-4.14 -1.40 1.23
-4.20 -1.40 1.22
-4.15 -1.37 1.23
-4.02 -1.33 1.25
-4.02 -1.31 1.25
-4.07 -1.30 1.24
-4.17 -1.31 1.22
-4.09 -1.26 1.24
-3.96 -1.22 1.26
-3.97 -1.19 1.25
-4.24 -1.22 1.21
-3.97 -1.16 1.25
-4.03 -1.15 1.25
-4.24 -1.17 1.22
-4.26 -1.16 1.21
-4.08 -1.11 1.24
-4.04 -1.09 1.24
-4.16 -1.09 1.23
-4.20 -1.08 1.22
-4.54 -1.12 1.17
-4.24 -1.06 1.22
-4.91 -1.14 1.12
-4.79 -1.11 1.14
-5.00 -1.12 1.11
-5.29 -1.15 1.07
-5.41 -1.14 1.05
-5.42 -1.13 1.05
-5.52 -1.12 1.04
-4.62 -0.98 1.16
-5.52 -1.08 1.04
-5.51 -1.06 1.04
-4.78 -0.95 1.14
-5.88 -1.03 0.99
-5.71 -0.99 1.01
-5.37 -0.93 1.06
-6.93 -1.09 0.84
-4.77 -0.82 1.14
-3.94 -0.72 1.26
-5.25 -0.80 1.07
-5.64 -0.82 1.02
-5.06 -0.75 1.10
-5.94 -0.81 0.98
-5.56 -0.76 1.03
-5.88 -0.77 0.99
-5.45 -0.71 1.05
-5.25 -0.67 1.07
-5.18 -0.65 1.08
-5.21 -0.63 1.08
-5.04 -0.60 1.11
-5.02 -0.58 1.11
-5.19 -0.57 1.08
-4.85 -0.53 1.13
-5.38 -0.55 1.06
-4.55 -0.48 1.17
-5.01 -0.49 1.11
-7.20 -0.61 0.80
-7.78 -0.62 0.72
-7.23 -0.56 0.79
-7.34 -0.54 0.78
-6.56 -0.48 0.89
-7.01 -0.48 0.82
-6.68 -0.44 0.87
-6.58 -0.42 0.89
-6.38 -0.39 0.91
-6.58 -0.37 0.88
-6.66 -0.35 0.87
-6.24 -0.32 0.93
-5.98 -0.29 0.97
-6.47 -0.28 0.90
-6.43 -0.26 0.91
-6.25 -0.23 0.93
-6.11 -0.21 0.95
-6.20 -0.19 0.94
-6.21 -0.17 0.94
-5.93 -0.14 0.97
-6.14 -0.13 0.95
-5.76 -0.10 1.00
-6.08 -0.08 0.95
-5.77 -0.06 1.00
-5.99 -0.04 0.96
-6.67 -0.02 0.87
-9.04 0.00 0.78
-8.47 0.02 0.87
-8.34 0.04 0.89
-8.44 0.07 0.87
-8.40 0.09 0.88
-5.36 0.07 1.33
-8.32 0.13 0.89
-5.77 0.10 1.27
-5.14 0.11 1.36
-5.09 0.12 1.37
-5.15 0.13 1.36
-4.94 0.14 1.39
-4.91 0.15 1.39
-4.92 0.17 1.39
-8.74 0.31 0.82
-8.96 0.34 0.79
-6.24 0.25 1.19
-6.11 0.26 1.21
-8.66 0.39 0.83
-8.65 0.41 0.83
-9.00 0.45 0.78
-6.31 0.34 1.18
-6.35 0.36 1.18
-9.31 0.53 0.73
-9.46 0.56 0.71
-9.36 0.58 0.72
-9.35 0.61 0.73
-10.13 0.68 0.61
-6.38 0.45 1.17
-6.74 0.49 1.12
-10.56 0.79 0.54
-7.31 0.57 1.03
-10.90 0.89 0.49
-11.01 0.93 0.47
-10.84 0.97 0.50
-11.14 1.02 0.45
-11.12 1.05 0.45
-11.12 1.07 0.45
-11.02 1.09 0.47
-10.76 1.09 0.51
-10.86 1.16 0.49
-9.27 1.18 0.72
-4.50 0.65 1.44
-9.80 1.37 0.64
-9.72 1.38 0.65
-9.79 1.42 0.64
-9.92 1.46 0.62
-9.75 1.46 0.64
-9.75 1.49 0.64
-9.53 1.55 0.67
-9.19 1.52 0.72
-9.33 1.57 0.70
-9.15 1.56 0.73
-9.31 1.61 0.70
-9.23 1.62 0.71
-9.46 1.69 0.68
-8.95 1.69 0.75
-8.57 1.69 0.81
-0.93 -1.10 1.65
-4.13 -1.68 1.17
-4.27 -1.69 1.15
-3.91 -1.57 1.20
-4.23 -1.63 1.15
-4.06 -1.57 1.18
-4.21 -1.59 1.16
-4.20 -1.57 1.16
-4.21 -1.55 1.16
-4.32 -1.56 1.14
-4.44 -1.57 1.12
-4.35 -1.53 1.14
-4.31 -1.51 1.14
-4.06 -1.44 1.18
-4.44 -1.50 1.13
-4.24 -1.44 1.16
-4.07 -1.39 1.18
-4.01 -1.36 1.19
-4.07 -1.36 1.18
-4.03 -1.33 1.19
-4.07 -1.33 1.18
-4.10 -1.31 1.18
-3.83 -1.25 1.22
-4.00 -1.26 1.19
-3.96 -1.24 1.20
-4.00 -1.23 1.20
-4.23 -1.26 1.16
-3.92 -1.19 1.21
-3.92 -1.17 1.21
-4.58 -1.27 1.11
-4.63 -1.26 1.10
-4.44 -1.21 1.13
-4.18 -1.15 1.17
-4.16 -1.13 1.17
-4.12 -1.11 1.18
-4.15 -1.10 1.17
-4.41 -1.12 1.13
-4.69 -1.15 1.09
-4.45 -1.09 1.13
-4.14 -1.03 1.18
-4.41 -1.05 1.14
-4.47 -1.05 1.13
-4.30 -1.00 1.15
-4.12 -0.96 1.18
-4.30 -0.97 1.15
-4.33 -0.96 1.15
-4.49 -0.96 1.12
-4.50 -0.95 1.12
-4.29 -0.91 1.15
-3.80 -0.83 1.23
-5.51 -1.03 0.97
-3.62 -0.77 1.25
-5.56 -0.99 0.96
-4.82 -0.88 1.08
-3.91 -0.76 1.21
-3.61 -0.71 1.26
-4.83 -0.83 1.07
-4.90 -0.82 1.06
-4.74 -0.79 1.09
-4.83 -0.78 1.07
-4.76 -0.74 1.08
-4.96 -0.74 1.05
-5.52 -0.78 0.97
-4.73 -0.68 1.09
-5.12 -0.70 1.03
-4.80 -0.65 1.08
-5.44 -0.69 0.98
-5.17 -0.65 1.02
-5.19 -0.63 1.02
-5.09 -0.61 1.04
-7.14 -0.74 0.73
-7.21 -0.73 0.72
-5.26 -0.56 1.01
-5.07 -0.53 1.04
-6.87 -0.63 0.77
-4.82 -0.48 1.08
-4.85 -0.46 1.07
-4.80 -0.44 1.08
-5.01 -0.44 1.05
-4.68 -0.40 1.10
-4.74 -0.39 1.09
-6.07 -0.44 0.89
-6.03 -0.41 0.89
-6.18 -0.40 0.87
-6.20 -0.38 0.87
-6.25 -0.36 0.86
-6.18 -0.34 0.87
-7.19 -0.25 1.06
-6.98 -0.22 1.09
-7.17 -0.21 1.06
-7.18 -0.20 1.06
-7.38 -0.18 1.03
-7.47 -0.17 1.02
-7.04 -0.14 1.08
-7.08 -0.12 1.08
-7.12 -0.10 1.07
-7.63 -0.09 0.99
-7.54 -0.07 1.01
-8.12 -0.06 0.92
-8.14 -0.04 0.92
-8.25 -0.02 0.90
-8.22 0.02 0.49
-8.47 0.05 0.45
-8.38 0.10 0.46
-9.09 0.14 0.35
-8.64 0.16 0.42
-8.60 0.21 0.43
-9.00 0.24 0.36
-8.84 0.27 0.39
-3.57 0.16 1.21
-3.34 0.18 1.25
-3.52 0.20 1.22
-3.44 0.21 1.23
-9.89 0.49 0.58
-10.56 0.57 0.47
-9.33 0.56 0.66
-9.20 0.57 0.68
-9.06 0.59 0.71
-9.07 0.61 0.70
-11.70 0.81 0.29
-9.55 1.38 0.61
-9.17 1.61 0.66
-3.72 0.73 1.52
-9.01 1.68 0.68
-2.98 0.64 1.64
-3.44 0.80 1.56
-1.09 -1.45 1.59
-4.35 -1.60 1.09
-1.02 -0.80 1.62
-4.91 -1.63 1.00
-4.21 -1.41 1.12
-4.40 -1.23 1.09
-3.90 -1.08 1.17
-3.75 -0.98 1.19
-4.56 -0.92 1.07
-4.42 -0.87 1.09
-5.54 -0.97 0.91
-4.12 -0.70 1.13
-7.11 -0.90 0.67
-7.16 -0.88 0.66
-7.07 -0.85 0.67
-7.24 -0.84 0.65
-7.24 -0.82 0.65
-7.07 -0.78 0.67
-7.16 -0.74 0.66
-7.29 -0.73 0.64
-7.20 -0.70 0.65
-7.41 -0.69 0.62
-7.33 -0.66 0.63
-7.41 -0.64 0.62
-5.03 -0.47 0.99
-7.26 -0.59 0.64
-7.32 -0.57 0.63
-7.02 -0.53 0.68
-7.41 -0.53 0.62
-7.19 -0.49 0.65
-6.28 -0.40 0.80
-7.53 -0.44 0.60
-6.53 -0.37 0.76
-6.70 -0.36 0.73
-6.90 -0.34 0.70
-7.00 -0.32 0.68
-6.47 -0.28 0.76
-6.15 -0.25 0.82
-6.12 -0.23 0.82
-6.14 -0.21 0.82
-6.21 -0.19 0.81
-6.04 -0.17 0.83
-5.92 -0.10 0.85
-5.96 -0.08 0.84
-6.11 -0.02 0.82
-8.26 0.00 0.77
-8.05 0.02 0.80
-5.05 0.03 1.29
-5.02 0.04 1.30
-5.10 0.05 1.28
-8.75 0.11 0.68
-8.46 0.13 0.73
-8.77 0.15 0.68
-8.99 0.18 0.64
-9.12 0.21 0.62
-4.19 0.11 1.43
-9.16 0.25 0.61
-9.17 0.27 0.61
-10.04 0.32 0.47
-10.52 0.36 0.39
-9.50 0.35 0.56
-10.20 0.40 0.44
-9.61 0.41 0.54
-9.59 0.43 0.54
-10.62 0.50 0.37
-10.91 0.54 0.32
-10.63 0.55 0.37
-6.15 0.34 1.10
-10.18 0.58 0.44
-6.36 0.39 1.07
-9.68 0.60 0.52
-10.55 0.73 0.38
-10.86 0.81 0.32
-10.58 0.81 0.37
-10.23 1.25 0.41
-9.83 1.23 0.48
-10.23 1.30 0.41
-10.02 1.30 0.45
-9.93 1.44 0.46
-3.62 0.57 1.51
-4.03 0.64 1.44
-4.15 0.67 1.42
-3.82 0.63 1.47
-9.41 1.49 0.54
-9.55 1.53 0.52
-9.29 1.52 0.56
-4.05 0.72 1.43
-9.47 1.62 0.53
-9.31 1.61 0.55
-8.77 1.55 0.64
-9.15 1.63 0.58
-8.96 1.63 0.61
-3.80 0.75 1.47
-3.56 0.71 1.51
-3.89 0.78 1.45
-1.43 -1.50 1.50
-1.25 -1.39 1.53
-4.35 -1.67 1.03
-3.93 -1.54 1.10
-4.97 -1.69 0.93
-4.58 -1.57 0.99
-4.58 -1.55 0.99
-4.84 -1.59 0.95
-4.35 -1.47 1.03
-4.59 -1.50 0.99
-4.76 -1.52 0.96
-4.20 -1.39 1.06
-4.20 -1.37 1.06
-4.28 -1.37 1.04
-4.28 -1.35 1.04
-4.02 -1.29 1.09
-4.14 -1.29 1.07
-4.02 -1.25 1.09
-4.44 -1.32 1.02
-4.38 -1.29 1.03
-4.26 -1.25 1.05
-4.27 -1.23 1.05
-4.63 -1.28 0.99
-4.47 -1.24 1.01
-4.30 -1.19 1.04
-4.64 -1.23 0.99
-4.33 -1.16 1.04
-4.63 -1.19 0.99
-4.23 -1.11 1.06
-4.25 -1.10 1.05
-4.60 -1.14 0.99
-4.06 -1.04 1.08
-4.11 -1.03 1.08
-4.19 -1.02 1.06
-4.07 -0.99 1.08
-4.35 -1.01 1.04
-4.33 -0.99 1.04
-4.10 -0.95 1.08
-5.82 -1.15 0.79
-6.14 -1.17 0.74
-5.98 -1.13 0.77
-6.35 -1.13 0.71
-5.88 -1.05 0.79
-5.38 -0.97 0.87
-5.72 -0.99 0.81
-5.67 -0.97 0.82
-5.29 -0.91 0.88
-5.92 -0.96 0.78
-5.40 -0.88 0.86
-4.60 -0.77 1.00
-6.24 -0.93 0.73
-1.44 -0.42 1.52
-6.53 -0.90 0.68
-4.67 -0.68 0.99
-6.84 -0.86 0.63
-6.77 -0.83 0.64
-4.63 -0.62 0.99
-4.12 -0.56 1.08
-4.27 -0.56 1.05
-4.34 -0.55 1.04
-4.90 -0.57 0.95
-4.55 -0.53 1.00
-5.85 -0.61 0.79
-5.66 -0.57 0.82
-5.70 -0.56 0.82
-5.48 -0.52 0.85
-6.95 -0.59 0.61
-6.90 -0.57 0.62
-6.79 -0.54 0.63
-7.51 -0.43 0.89
-7.77 -0.42 0.85
-7.69 -0.40 0.86
-7.51 -0.37 0.89
-7.78 -0.37 0.85
-7.44 -0.33 0.90
-7.77 -0.33 0.85
-7.76 -0.31 0.85
-7.55 -0.28 0.89
-7.62 -0.26 0.87
-7.37 -0.24 0.91
-7.08 -0.21 0.96
-7.04 -0.19 0.97
-7.12 -0.18 0.95
-6.77 -0.15 1.01
-6.63 -0.13 1.04
-7.18 -0.12 0.94
-5.93 -0.09 1.15
-7.83 -0.10 0.84
-7.54 -0.07 0.88
-8.15 -0.06 0.78
-6.69 -0.03 1.02
-8.30 -0.02 0.76
-4.51 0.01 0.95
-6.00 0.04 0.69
-5.28 0.04 1.21
-5.22 0.05 1.22
-4.94 0.06 1.27
-4.97 0.08 1.26
-5.09 0.09 1.24
-8.17 0.16 0.71
-9.42 0.21 0.50
-4.79 0.12 1.29
-4.87 0.14 1.28
-9.06 0.27 0.56
-9.17 0.30 0.54
-9.14 0.32 0.54
-4.12 0.16 1.41
-9.30 0.37 0.51
-9.45 0.40 0.49
-9.43 0.42 0.49
-6.41 0.31 1.01
-9.56 0.47 0.47
-6.33 0.34 1.02
-9.94 0.57 0.40
-9.65 0.57 0.45
-9.84 0.61 0.42
-9.89 0.64 0.41
-10.03 0.67 0.38
-10.24 0.71 0.34
-9.64 1.13 0.44
-10.01 1.19 0.37
-9.55 1.21 0.45
-9.43 1.22 0.47
-4.05 0.62 1.40
-4.07 0.64 1.40
-3.76 0.61 1.45
-9.47 1.47 0.45
-3.98 0.66 1.41
-3.99 0.68 1.41
-9.16 1.49 0.50
-4.20 0.75 1.37
-9.15 1.58 0.50
-4.01 0.75 1.40
-3.67 0.70 1.46
-3.56 0.69 1.48
-3.70 0.73 1.46
-3.69 0.73 1.46
-3.76 0.76 1.45
-8.80 1.68 0.56
-3.73 0.77 1.45
-4.13 0.87 1.38
-0.77 -1.50 1.58
-1.25 -1.56 1.50
-0.86 -1.14 1.58
-0.87 -0.95 1.58
-4.01 -1.57 1.03
-3.90 -1.51 1.05
-3.95 -1.46 1.05
-4.61 -1.54 0.93
-3.92 -1.36 1.05
-5.03 -1.53 0.86
-4.02 -1.31 1.04
-4.33 -1.34 0.98
-4.28 -1.30 0.99
-4.40 -1.31 0.97
-4.43 -1.29 0.97
-4.35 -1.26 0.98
-4.25 -1.23 1.00
-4.16 -1.18 1.01
-4.21 -1.15 1.01
-3.96 -1.10 1.05
-4.08 -1.10 1.03
-3.94 -1.06 1.05
-3.71 -1.01 1.09
-3.77 -0.99 1.08
-3.76 -0.96 1.09
-3.81 -0.95 1.08
-3.69 -0.92 1.10
-3.74 -0.91 1.09
-3.73 -0.88 1.09
-4.03 -0.90 1.04
-3.66 -0.82 1.10
-3.68 -0.81 1.10
-4.71 -0.92 0.92
-4.11 -0.83 1.03
-3.52 -0.69 1.13
-3.20 -0.64 1.18
-3.74 -0.68 1.09
-2.43 -0.53 1.32
-4.29 -0.71 0.99
-6.51 -0.89 0.61
-4.50 -0.68 0.96
-4.42 -0.65 0.97
-4.41 -0.64 0.97
-4.33 -0.61 0.99
-4.29 -0.59 0.99
-4.25 -0.57 1.00
-4.70 -0.58 0.92
-6.76 -0.69 0.57
-4.63 -0.52 0.94
-6.07 -0.60 0.69
-5.81 -0.56 0.73
-6.50 -0.59 0.61
-6.35 -0.54 0.64
-6.55 -0.50 0.60
-6.72 -0.49 0.57
-6.61 -0.46 0.59
-6.31 -0.43 0.64
-6.15 -0.40 0.67
-5.97 -0.35 0.70
-6.26 -0.32 0.65
-6.08 -0.29 0.68
-6.30 -0.28 0.65
-6.02 -0.25 0.69
-5.84 -0.22 0.72
-6.35 -0.20 0.64
-6.16 -0.15 0.67
-6.20 -0.13 0.66
-5.98 -0.11 0.70
-6.21 -0.09 0.66
-6.02 -0.07 0.69
-6.16 -0.02 0.67
-7.62 0.00 0.74
-6.77 0.02 0.90
-6.79 0.03 0.89
-6.79 0.05 0.89
-7.11 0.07 0.83
-6.91 0.09 0.87
-7.09 0.11 0.84
-7.39 0.13 0.78
-8.14 0.16 0.65
-5.58 0.13 1.11
-5.96 0.15 1.04
-5.66 0.16 1.09
-9.14 0.27 0.47
-6.23 0.21 0.99
-6.39 0.23 0.96
-6.39 0.24 0.96
-6.12 0.25 1.01
-6.27 0.27 0.98
-6.18 0.28 1.00
-6.45 0.31 0.95
-6.36 0.32 0.96
-6.07 0.32 1.02
-6.21 0.35 0.99
-6.12 0.36 1.01
-6.24 0.38 0.98
-6.23 0.39 0.98
-6.13 0.40 1.00
-6.23 0.43 0.98
-6.41 0.45 0.95
-6.13 0.45 1.00
-6.29 0.48 0.97
-6.08 0.48 1.01
-6.18 0.50 0.99
-6.02 0.51 1.02
-5.99 0.52 1.02
-5.96 0.61 1.03
-5.89 0.62 1.04
-6.17 0.68 0.99
-5.71 0.64 1.07
-5.37 0.62 1.13
-5.67 0.67 1.08
-5.65 0.68 1.08
-5.48 0.68 1.11
-5.72 0.72 1.07
-5.48 0.70 1.11
-6.01 0.78 1.01
-5.30 0.71 1.14
-5.38 0.73 1.13
-5.41 0.75 1.12
-5.31 0.77 1.14
-5.38 0.79 1.12
-5.72 0.85 1.06
-5.14 0.79 1.16
-5.23 0.81 1.15
-5.41 0.85 1.11
-5.74 0.92 1.05
-9.13 1.44 0.43
-5.49 0.91 1.10
-5.27 0.89 1.14
-9.38 1.55 0.38
-4.48 0.79 1.28
-4.78 0.85 1.23
-4.90 0.88 1.20
-5.42 0.98 1.11
-4.86 0.90 1.21
-4.25 0.81 1.32
-4.57 0.88 1.26
-4.45 0.87 1.28
-4.64 0.92 1.25
-4.55 0.91 1.26
-4.57 0.93 1.26
-4.51 0.93 1.27
-4.29 0.90 1.31
-4.59 0.97 1.25
-5.95 1.25 1.00
-5.64 1.20 1.06
-5.33 1.20 1.11
-5.27 1.21 1.12
-6.09 1.42 0.97
-4.49 1.12 1.26
-4.19 1.08 1.32
-5.95 1.57 0.98
-5.19 1.41 1.12
-1.86 -1.34 1.36
-4.29 -1.66 0.93
-4.16 -1.61 0.95
-4.29 -1.62 0.93
-4.10 -1.56 0.96
-4.10 -1.54 0.96
-4.60 -1.62 0.87
-4.30 -1.52 0.93
-4.70 -1.59 0.85
-4.64 -1.56 0.86
-4.73 -1.57 0.85
-4.52 -1.50 0.89
-4.87 -1.56 0.82
-4.65 -1.50 0.86
-4.81 -1.51 0.84
-4.14 -1.36 0.96
-4.57 -1.43 0.88
-4.37 -1.37 0.92
-4.60 -1.40 0.88
-4.20 -1.30 0.95
-4.34 -1.31 0.92
-4.12 -1.26 0.96
-4.17 -1.23 0.96
-4.15 -1.21 0.96
-4.27 -1.22 0.94
-4.29 -1.20 0.93
-4.19 -1.17 0.95
-4.03 -1.11 0.98
-3.88 -1.05 1.01
-4.03 -1.06 0.98
-3.92 -1.03 1.00
-3.99 -1.02 0.99
-4.03 -1.01 0.98
-3.73 -0.94 1.04
-3.86 -0.94 1.01
-3.85 -0.92 1.02
-3.92 -0.92 1.00
-3.96 -0.91 1.00
-4.76 -1.00 0.85
-4.10 -0.90 0.97
-4.13 -0.87 0.97
-4.65 -0.92 0.87
-4.76 -0.91 0.85
-4.44 -0.86 0.91
-4.14 -0.81 0.96
-4.02 -0.78 0.99
-3.76 -0.73 1.03
-3.97 -0.72 1.00
-4.36 -0.73 0.93
-3.92 -0.67 1.01
-7.04 -0.97 0.44
-6.96 -0.94 0.45
-3.51 -0.58 1.08
-4.62 -0.67 0.88
-4.37 -0.63 0.92
-4.49 -0.63 0.90
-4.43 -0.61 0.91
-4.41 -0.59 0.92
-4.90 -0.61 0.83
-4.63 -0.57 0.88
-4.63 -0.55 0.88
-6.23 -0.65 0.59
-6.04 -0.62 0.62
-6.11 -0.60 0.61
-6.06 -0.58 0.62
-6.44 -0.58 0.55
-6.42 -0.56 0.55
-6.38 -0.54 0.56
-6.36 -0.52 0.56
-5.82 -0.46 0.66
-6.59 -0.49 0.52
-6.18 -0.44 0.60
-6.40 -0.43 0.55
-6.24 -0.40 0.58
-6.32 -0.39 0.57
-6.28 -0.36 0.58
-6.19 -0.34 0.59
-5.83 -0.30 0.66
-5.96 -0.29 0.63
-6.01 -0.27 0.63
-6.02 -0.25 0.62
-5.98 -0.23 0.63
-5.98 -0.21 0.63
-5.87 -0.19 0.65
-5.68 -0.16 0.68
-7.39 -0.11 0.79
-7.34 -0.09 0.79
-7.74 -0.08 0.72
-7.70 -0.06 0.73
-7.50 -0.04 0.77
-6.86 -0.02 0.88
-5.86 -0.00 0.58
-5.87 0.02 0.58
-4.64 0.03 0.81
-5.73 0.05 0.60
-4.00 0.06 0.93
-3.99 0.07 0.93
-3.99 0.09 0.93
-3.94 0.11 0.94
-3.86 0.12 0.95
-4.04 0.14 0.92
-3.90 0.15 0.94
-5.10 0.14 1.15
-6.13 0.19 0.95
-9.03 0.29 0.41
-5.41 0.19 1.09
-6.04 0.23 0.97
-5.50 0.22 1.07
-5.82 0.25 1.01
-5.70 0.26 1.03
-5.73 0.28 1.03
-5.86 0.30 1.00
-3.64 0.23 1.42
-6.28 0.68 0.91
-4.09 0.50 1.33
-3.41 0.44 1.45
-3.61 0.47 1.42
-4.05 0.65 1.33
-3.99 0.67 1.34
-4.09 0.69 1.32
-4.21 0.73 1.29
-4.23 0.75 1.29
-4.17 0.75 1.30
-4.17 0.76 1.30
-3.97 0.74 1.34
-4.19 0.79 1.29
-4.16 0.79 1.30
-4.23 0.82 1.29
-4.33 0.84 1.27
-4.38 0.87 1.26
-4.31 0.86 1.27
-4.26 0.87 1.28
-4.28 0.88 1.27
-4.21 0.88 1.28
-4.08 0.87 1.31
-4.38 0.94 1.25
-4.18 0.91 1.29
-4.17 0.92 1.29
-1.18 -1.62 1.44
-1.08 -1.56 1.46
-0.73 -1.39 1.53
-1.00 -1.42 1.48
-1.23 -1.49 1.44
-1.00 -1.34 1.49
-0.77 -1.21 1.53
-1.32 -1.31 1.43
-1.26 -1.26 1.44
-1.26 -1.22 1.44
-1.59 -1.31 1.38
-0.98 -1.10 1.50
-1.47 -1.12 1.41
-1.48 -1.08 1.41
-0.85 -0.81 1.53
-4.14 -1.57 0.90
-4.72 -1.69 0.78
-4.05 -1.51 0.92
-4.06 -1.50 0.91
-4.03 -1.46 0.92
-3.71 -1.36 0.98
-4.23 -1.42 0.88
-3.87 -1.30 0.95
-4.43 -1.40 0.85
-4.54 -1.38 0.83
-4.49 -1.35 0.84
-4.65 -1.37 0.80
-4.42 -1.31 0.85
-4.33 -1.28 0.87
-4.12 -1.22 0.91
-4.05 -1.19 0.92
-4.10 -1.18 0.91
-4.10 -1.17 0.91
-4.00 -1.13 0.93
-4.18 -1.15 0.90
-3.88 -1.08 0.95
-3.86 -1.06 0.96
-3.83 -1.04 0.96
-3.72 -1.01 0.99
-3.86 -1.02 0.96
-3.66 -0.97 1.00
-3.71 -0.96 0.99
-3.69 -0.94 0.99
-3.67 -0.93 1.00
-3.83 -0.94 0.97
-3.68 -0.90 0.99
-1.47 -0.57 1.42
-1.62 -0.58 1.39
-3.38 -0.81 1.05
-3.78 -0.85 0.98
-3.49 -0.80 1.03
-3.95 -0.84 0.94
-3.44 -0.76 1.04
-3.47 -0.75 1.04
-3.44 -0.73 1.04
-3.92 -0.78 0.95
-3.85 -0.75 0.96
-4.12 -0.77 0.91
-4.56 -0.80 0.83
-4.05 -0.73 0.93
-4.01 -0.71 0.93
-5.08 -0.81 0.73
-3.34 -0.61 1.06
-4.64 -0.73 0.81
-3.76 -0.62 0.98
-3.20 -0.55 1.09
-3.20 -0.54 1.09
-3.34 -0.54 1.06
-3.19 -0.51 1.09
-3.85 -0.55 0.96
-3.92 -0.55 0.95
-4.07 -0.54 0.92
-3.86 -0.51 0.96
-6.47 -0.69 0.47
-6.56 -0.68 0.45
-4.81 -0.53 0.78
-6.22 -0.61 0.51
-6.13 -0.58 0.53
-6.54 -0.59 0.45
-6.39 -0.56 0.48
-6.48 -0.54 0.46
-6.40 -0.52 0.48
-5.97 -0.47 0.56
-5.26 -0.41 0.70
-6.07 -0.44 0.54
-5.85 -0.41 0.58
-6.35 -0.41 0.49
-6.47 -0.39 0.47
-5.99 -0.35 0.56
-5.78 -0.32 0.60
-5.57 -0.30 0.64
-5.61 -0.28 0.63
-5.42 -0.25 0.66
-5.85 -0.25 0.58
-5.68 -0.22 0.61
-5.67 -0.20 0.62
-5.75 -0.18 0.60
-5.68 -0.16 0.61
-5.90 -0.15 0.57
-4.43 -0.10 0.85
-4.57 -0.09 0.82
-4.82 -0.07 0.77
-5.88 -0.07 0.57
-5.85 -0.04 0.58
-4.68 -0.02 0.80
-6.98 -0.00 0.73
-7.01 0.02 0.72
-7.24 0.04 0.68
-7.10 0.05 0.70
-7.11 0.07 0.70
-7.07 0.09 0.71
-6.64 0.10 0.79
-6.99 0.12 0.72
-6.92 0.14 0.74
-7.09 0.16 0.70
-7.06 0.18 0.71
-7.22 0.20 0.68
-7.21 0.22 0.68
-7.14 0.23 0.69
-6.76 0.24 0.77
-6.69 0.25 0.78
-6.25 0.25 0.87
-6.43 0.28 0.83
-6.51 0.30 0.82
-6.55 0.31 0.81
-6.85 0.34 0.75
-5.94 0.32 0.93
-6.25 0.35 0.86
-5.64 0.33 0.98
-5.97 0.36 0.92
-5.54 0.35 1.00
-5.55 0.37 1.00
-5.40 0.37 1.03
-5.49 0.39 1.01
-5.59 0.41 0.99
-5.89 0.45 0.93
-5.79 0.46 0.95
-5.83 0.47 0.94
-5.60 0.47 0.99
-5.86 0.51 0.94
-5.97 0.53 0.91
-6.01 0.55 0.90
-6.05 0.57 0.90
-5.75 0.56 0.96
-5.64 0.56 0.98
-5.96 0.61 0.91
-5.51 0.58 1.00
-5.56 0.60 0.99
-5.57 0.61 0.99
-5.41 0.61 1.02
-5.47 0.63 1.01
-5.49 0.65 1.00
-5.21 0.66 1.06
-5.56 0.71 0.99
-4.96 0.66 1.11
-5.34 0.72 1.03
-5.64 0.77 0.97
-5.50 0.76 1.00
-5.26 0.75 1.04
-5.34 0.77 1.03
-5.54 0.81 0.99
-5.42 0.81 1.01
-5.57 0.85 0.98
-5.37 0.83 1.02
-5.52 0.87 0.99
-5.40 0.87 1.01
-5.29 0.86 1.03
-5.31 0.88 1.03
-5.23 0.88 1.04
-4.72 0.82 1.14
-4.54 0.80 1.18
-4.44 0.79 1.20
-4.35 0.79 1.22
-4.28 0.79 1.23
-4.23 0.80 1.24
-4.29 0.82 1.23
-4.30 0.83 1.22
-4.32 0.85 1.22
-4.60 0.91 1.16
-5.28 1.04 1.03
-4.54 0.92 1.17
-4.48 0.93 1.18
-4.72 0.98 1.14
-5.78 1.20 0.92
-5.29 1.13 1.02
-5.53 1.24 0.97
-5.68 1.29 0.94
-5.62 1.29 0.95
-6.32 1.49 0.80
-1.67 -1.23 1.32
-3.95 -1.69 0.87
-3.92 -1.67 0.87
-4.04 -1.68 0.85
-3.97 -1.65 0.86
-3.86 -1.60 0.89
-4.02 -1.63 0.85
-3.78 -1.55 0.90
-3.83 -1.55 0.89
-3.79 -1.52 0.90
-3.84 -1.52 0.89
-3.92 -1.52 0.88
-3.87 -1.49 0.89
-3.88 -1.48 0.89
-3.85 -1.46 0.89
-3.98 -1.47 0.87
-3.96 -1.45 0.87
-3.92 -1.43 0.88
-4.00 -1.43 0.86
-3.91 -1.39 0.88
-3.88 -1.37 0.89
-4.00 -1.38 0.86
-5.38 -1.65 0.59
-3.97 -1.34 0.87
-4.10 -1.35 0.84
-5.76 -1.67 0.51
-4.46 -1.39 0.77
-4.42 -1.36 0.78
-4.84 -1.43 0.70
-4.01 -1.25 0.87
-4.38 -1.31 0.79
-4.41 -1.29 0.79
-4.02 -1.20 0.87
-4.20 -1.22 0.83
-4.20 -1.21 0.83
-4.24 -1.20 0.82
-4.25 -1.18 0.82
-4.09 -1.14 0.85
-4.03 -1.11 0.86
-4.19 -1.12 0.83
-4.29 -1.12 0.81
-3.87 -1.04 0.90
-3.91 -1.03 0.89
-3.97 -1.02 0.88
-3.87 -0.99 0.90
-3.84 -0.97 0.90
-3.81 -0.95 0.91
-3.90 -0.95 0.89
-3.72 -0.91 0.93
-3.66 -0.88 0.94
-3.62 -0.86 0.95
-3.62 -0.85 0.95
-3.63 -0.84 0.95
-3.60 -0.82 0.95
-3.76 -0.82 0.92
-3.58 -0.78 0.96
-3.57 -0.77 0.96
-3.77 -0.78 0.92
-3.64 -0.75 0.94
-3.91 -0.76 0.89
-3.86 -0.74 0.90
-4.04 -0.75 0.87
-3.73 -0.70 0.93
-3.70 -0.68 0.93
-4.20 -0.72 0.83
-4.90 -0.77 0.69
-3.94 -0.66 0.89
-4.00 -0.65 0.87
-3.74 -0.61 0.93
-3.66 -0.58 0.94
-3.85 -0.59 0.90
-3.98 -0.58 0.88
-4.01 -0.57 0.87
-4.05 -0.56 0.86
-4.13 -0.55 0.85
-4.05 -0.53 0.86
-4.55 -0.55 0.76
-4.66 -0.54 0.74
-6.48 -0.65 0.38
-6.47 -0.63 0.38
-6.37 -0.60 0.40
-5.93 -0.55 0.49
-5.42 -0.50 0.59
-6.16 -0.53 0.44
-6.25 -0.51 0.43
-5.57 -0.45 0.56
-5.90 -0.45 0.50
-5.71 -0.42 0.53
-5.43 -0.39 0.59
-5.52 -0.37 0.57
-5.51 -0.35 0.57
-5.68 -0.34 0.54
-5.60 -0.32 0.55
-7.43 -0.28 0.64
-7.46 -0.26 0.64
-7.58 -0.25 0.61
-7.60 -0.23 0.61
-7.44 -0.20 0.64
-7.47 -0.19 0.63
-7.34 -0.17 0.66
-7.30 -0.15 0.67
-7.10 -0.12 0.71
-7.18 -0.11 0.69
-7.05 -0.09 0.71
-6.94 -0.07 0.74
-7.08 -0.05 0.71
-7.24 -0.04 0.68
-7.07 -0.02 0.71
-4.46 -0.01 0.72
-4.69 0.01 0.67
-3.98 0.04 0.82
-3.75 0.06 0.87
-3.98 0.07 0.82
-1.62 0.06 1.31
-3.79 0.10 0.86
-3.92 0.12 0.83
-1.20 0.08 1.39
-1.50 0.10 1.33
-1.46 0.11 1.34
-3.65 0.19 0.89
-3.80 0.21 0.86
-1.72 0.15 1.28
-3.87 0.24 0.84
-3.72 0.25 0.87
-3.48 0.27 0.92
-6.43 0.32 0.78
-4.60 0.32 1.15
-4.49 0.34 1.18
-4.40 0.34 1.19
-3.37 0.29 1.41
-3.36 0.36 1.40
-3.46 0.40 1.38
-3.69 0.44 1.33
-3.43 0.46 1.39
-3.53 0.48 1.36
-3.87 0.58 1.29
-3.79 0.58 1.31
-3.94 0.61 1.28
-3.91 0.62 1.28
-3.87 0.62 1.29
-3.69 0.61 1.32
-3.88 0.65 1.29
-3.91 0.66 1.28
-4.03 0.69 1.25
-4.03 0.70 1.25
-4.09 0.72 1.24
-4.01 0.72 1.26
-3.97 0.73 1.26
-4.01 0.75 1.25
-4.17 0.79 1.22
-4.16 0.80 1.22
-4.12 0.81 1.23
-4.28 0.85 1.19
-4.20 0.84 1.21
-4.27 0.87 1.19
-2.89 0.78 1.47
-1.23 -1.16 1.38
-1.23 -1.11 1.39
-1.37 -1.13 1.36
-1.49 -1.01 1.34
-1.12 -0.91 1.42
-1.24 -0.91 1.39
-1.51 -0.97 1.33
-1.09 -0.86 1.42
-4.56 -1.32 0.70
-4.48 -1.23 0.72
-4.37 -1.20 0.74
-4.26 -1.16 0.77
-4.28 -1.13 0.76
-3.51 -0.96 0.92
-3.94 -1.01 0.83
-1.56 -0.63 1.33
-1.33 -0.59 1.38
-1.18 -0.55 1.41
-3.95 -0.92 0.83
-3.74 -0.88 0.88
-1.12 -0.50 1.42
-3.51 -0.82 0.92
-3.45 -0.79 0.94
-3.69 -0.74 0.89
-3.71 -0.72 0.88
-3.64 -0.70 0.90
-3.45 -0.65 0.94
-3.50 -0.61 0.93
-3.87 -0.63 0.85
-3.75 -0.61 0.87
-3.86 -0.60 0.85
-3.58 -0.55 0.91
-4.09 -0.56 0.81
-4.07 -0.54 0.81
-4.18 -0.53 0.79
-4.41 -0.54 0.74
-4.31 -0.51 0.76
-3.63 -0.43 0.90
-2.92 -0.34 1.05
-3.00 -0.34 1.03
-5.97 -0.49 0.42
-6.10 -0.48 0.39
-5.79 -0.42 0.45
-5.63 -0.38 0.49
-5.81 -0.36 0.45
-5.85 -0.35 0.44
-6.03 -0.33 0.40
-5.88 -0.27 0.43
-5.80 -0.22 0.45
-5.92 -0.21 0.42
-6.01 -0.19 0.40
-5.84 -0.17 0.44
-5.55 -0.14 0.50
-5.89 -0.13 0.43
-5.04 -0.10 0.60
-5.28 -0.06 0.55
-4.99 -0.04 0.61
-4.94 -0.02 0.62
-6.94 -0.00 0.60
-6.74 0.02 0.65
-6.88 0.03 0.62
-6.87 0.05 0.62
-6.76 0.07 0.64
-6.96 0.09 0.60
-6.97 0.10 0.60
-6.99 0.12 0.59
-6.89 0.14 0.61
-6.24 0.14 0.75
-6.21 0.16 0.76
-6.35 0.18 0.73
-6.28 0.19 0.74
-6.36 0.21 0.72
-6.28 0.22 0.74
-6.33 0.24 0.73
-6.40 0.26 0.72
-6.57 0.28 0.68
-6.36 0.29 0.72
-6.53 0.31 0.69
-6.53 0.33 0.69
-6.36 0.34 0.72
-5.78 0.32 0.85
-5.56 0.33 0.89
-5.37 0.33 0.93
-5.25 0.34 0.96
-5.24 0.35 0.96
-5.27 0.36 0.95
-5.25 0.38 0.96
-5.33 0.40 0.94
-5.54 0.42 0.89
-5.36 0.43 0.93
-5.46 0.45 0.91
-5.15 0.44 0.98
-5.13 0.45 0.98
-5.13 0.46 0.98
-5.17 0.48 0.97
-5.16 0.49 0.97
-5.19 0.51 0.97
-5.12 0.51 0.98
-5.34 0.55 0.93
-5.27 0.56 0.95
-5.31 0.57 0.94
-5.31 0.59 0.94
-5.32 0.60 0.93
-5.28 0.61 0.94
-5.34 0.63 0.93
-5.41 0.65 0.91
-5.38 0.66 0.92
-5.57 0.70 0.88
-5.17 0.67 0.96
-5.44 0.71 0.90
-5.35 0.72 0.92
-5.24 0.72 0.95
-5.22 0.73 0.95
-5.32 0.76 0.93
-5.29 0.77 0.93
-5.49 0.81 0.89
-5.15 0.77 0.96
-4.57 0.71 1.09
-4.74 0.74 1.05
-4.96 0.79 1.00
-4.16 0.68 1.18
-4.23 0.70 1.16
-4.42 0.74 1.12
-4.15 0.71 1.18
-4.18 0.73 1.17
-4.23 0.75 1.16
-4.29 0.77 1.14
-4.28 0.78 1.14
-4.40 0.81 1.12
-4.29 0.81 1.14
-4.47 0.85 1.10
-4.48 0.86 1.10
-4.50 0.88 1.09
-4.50 0.89 1.09
-4.55 0.91 1.08
-4.51 0.92 1.09
-4.48 0.93 1.09
-4.96 1.03 0.99
-5.29 1.10 0.92
-5.31 1.12 0.91
-5.50 1.18 0.87
-5.85 1.26 0.79
-7.30 1.57 0.47
-6.06 1.33 0.74
-5.94 1.32 0.77
-5.91 1.33 0.77
-4.36 1.02 1.11
-6.13 1.41 0.72
-6.41 1.49 0.66
-5.70 1.38 0.81
-5.66 1.48 0.81
-5.16 1.41 0.92
-4.07 -1.66 0.72
-4.25 -1.67 0.68
-3.96 -1.58 0.75
-1.16 -0.89 1.36
-1.84 -1.05 1.21
-4.00 -1.54 0.74
-4.03 -1.53 0.73
-3.79 -1.46 0.79
-3.74 -1.43 0.80
-3.91 -1.46 0.76
-3.71 -1.40 0.81
-3.75 -1.39 0.80
-3.80 -1.39 0.79
-3.61 -1.33 0.83
-4.22 -1.44 0.70
-4.21 -1.43 0.70
-3.96 -1.36 0.75
-3.88 -1.32 0.77
-3.80 -1.29 0.79
-4.26 -1.37 0.69
-4.04 -1.31 0.74
-3.88 -1.26 0.77
-4.02 -1.27 0.74
-4.06 -1.26 0.73
-4.28 -1.29 0.69
-3.99 -1.22 0.75
-4.09 -1.22 0.73
-4.10 -1.21 0.73
-4.32 -1.23 0.68
-4.17 -1.19 0.71
-4.19 -1.17 0.71
-4.20 -1.16 0.71
-3.99 -1.11 0.75
-4.12 -1.11 0.72
-4.24 -1.12 0.70
-4.01 -1.06 0.75
-4.28 -1.09 0.69
-3.96 -1.02 0.76
-4.03 -1.02 0.74
-3.89 -0.98 0.77
-3.86 -0.96 0.78
-3.83 -0.94 0.79
-3.79 -0.92 0.80
-3.71 -0.89 0.81
-3.65 -0.87 0.83
-3.68 -0.86 0.82
-3.78 -0.86 0.80
-3.72 -0.83 0.81
-3.50 -0.79 0.86
-3.54 -0.78 0.85
-3.59 -0.77 0.84
-3.64 -0.76 0.83
-3.66 -0.75 0.83
-3.49 -0.72 0.86
-3.46 -0.70 0.87
-4.79 -0.83 0.58
-3.41 -0.66 0.88
-3.38 -0.65 0.89
-3.56 -0.65 0.85
-3.57 -0.64 0.85
-4.34 -0.70 0.68
-3.92 -0.64 0.77
-3.67 -0.60 0.83
-3.93 -0.61 0.77
-4.15 -0.62 0.72
-4.34 -0.62 0.68
-4.67 -0.63 0.61
-4.67 -0.61 0.61
-4.26 -0.56 0.70
-4.20 -0.54 0.71
-4.28 -0.53 0.69
-4.28 -0.51 0.69
-4.26 -0.50 0.70
-4.21 -0.48 0.71
-4.30 -0.47 0.69
-4.27 -0.45 0.69
-4.21 -0.43 0.71
-6.50 -0.38 0.70
-7.44 -0.41 0.50
-7.27 -0.38 0.54
-7.40 -0.37 0.51
-7.29 -0.35 0.53
-7.12 -0.32 0.57
-7.16 -0.31 0.56
-7.42 -0.30 0.50
-7.46 -0.28 0.50
-7.37 -0.26 0.52
-7.14 -0.23 0.56
-7.21 -0.22 0.55
