# .PCD v0.7 - Point Cloud Data file format
VERSION 0.7
FIELDS x y z
SIZE 4 4 4
TYPE F F F
COUNT 1 1 1
WIDTH 293
HEIGHT 1
VIEWPOINT 0 0 0 1 0 0 0
POINTS 293
DATA ASCII
-4.35 1.03 1.23
-4.16 1.02 1.27
-4.60 1.13 1.14
-6.86 0.31 0.68
-5.34 0.98 0.95
-5.19 1.01 0.98
-4.67 1.04 1.08
-4.14 0.95 1.19
-4.85 1.23 1.04
-3.84 0.81 1.22
-5.60 0.34 0.81
-5.47 0.49 0.84
-4.88 0.56 0.96
-5.04 0.61 0.92
-5.45 0.66 0.83
-5.07 0.64 0.92
-5.07 0.65 0.92
-5.26 0.69 0.87
-4.58 0.70 1.02
-4.13 0.66 1.12
-4.68 0.75 0.99
-4.96 0.80 0.93
-5.13 0.93 0.89
-4.81 0.89 0.96
-4.18 0.83 1.10
-4.95 0.97 0.93
-4.93 0.98 0.93
-4.76 0.98 0.97
-5.14 1.06 0.88
-5.38 1.12 0.83
-4.82 1.03 0.95
-5.40 1.15 0.82
-4.43 0.98 1.04
-5.41 1.18 0.82
-5.39 1.20 0.82
-5.39 1.21 0.82
-4.92 1.13 0.92
-5.34 1.23 0.83
-5.29 1.24 0.84
-5.45 1.28 0.80
-5.40 1.29 0.81
-5.42 1.33 0.81
-5.41 1.34 0.81
-5.48 1.37 0.79
-5.38 1.36 0.81
-3.87 -0.11 1.19
-3.85 -0.00 0.86
-4.80 0.64 0.92
-4.33 0.66 1.03
-4.51 0.73 0.98
-4.43 0.87 0.99
-5.01 0.98 0.86
-4.18 0.87 1.05
-4.45 0.93 0.98
-4.33 0.94 1.01
-4.15 0.92 1.05
-4.32 0.96 1.01
-6.02 0.37 0.59
-6.02 0.43 0.59
-2.43 0.73 0.71
-2.04 0.86 0.66
-2.55 0.80 0.62
-1.68 0.87 0.57
-3.49 0.76 0.64
-2.47 0.69 0.57
-4.13 0.44 0.63
-1.93 0.82 0.53
-1.31 -0.89 0.54
-3.23 0.22 0.55
-3.63 0.37 0.57
-1.99 0.88 0.49
-2.81 0.62 0.46
-2.90 0.74 0.46
-2.55 0.66 0.46
-2.26 0.77 0.47
-2.20 0.80 0.47
-2.07 0.90 0.47
-2.80 0.61 0.44
-2.27 0.85 0.45
-2.13 0.81 0.45
-3.24 0.04 0.41
-3.36 0.23 0.40
-3.02 0.28 0.41
-3.03 0.61 0.41
-1.59 -0.79 0.46
-4.53 0.35 0.33
-2.87 0.64 0.39
-2.72 0.66 0.39
-2.36 0.63 0.41
-2.38 0.71 0.41
-1.75 0.82 0.43
-1.68 0.87 0.43
-1.70 0.99 0.43
-3.49 0.24 0.34
-3.00 0.60 0.36
-2.91 0.65 0.36
-2.71 0.66 0.37
-2.62 0.69 0.37
-2.30 0.60 0.39
-3.28 0.22 0.29
-3.08 0.45 0.30
-3.06 0.53 0.30
-2.87 0.56 0.31
-2.74 0.75 0.32
-2.42 0.66 0.35
-3.31 0.13 0.25
-2.68 0.16 0.32
-3.54 0.45 0.23
-2.85 0.55 0.29
-2.86 0.72 0.28
-2.65 0.70 0.30
-2.36 0.77 0.33
-1.67 1.04 0.36
-2.87 0.25 0.27
-2.93 0.50 0.26
-2.77 0.53 0.27
-2.57 0.53 0.30
-2.77 0.68 0.27
-2.46 0.68 0.30
-2.31 0.67 0.32
-1.85 0.69 0.36
-1.75 0.89 0.35
-3.17 0.56 0.20
-2.77 0.52 0.25
-2.68 0.80 0.25
-2.33 0.68 0.29
-2.27 0.71 0.30
-2.20 0.86 0.30
-2.00 0.83 0.32
-1.92 0.82 0.33
-2.63 0.77 0.23
-2.16 0.99 0.27
-1.87 0.90 0.31
-1.59 0.98 0.32
-1.05 -0.83 0.38
-1.57 -0.57 0.38
-2.47 0.69 0.24
-2.29 0.66 0.26
-2.08 0.71 0.29
-1.15 -0.82 0.37
-2.58 0.53 0.21
-2.46 0.68 0.22
-1.86 0.89 0.28
-1.05 -0.84 0.36
-1.15 -1.09 0.32
-2.38 0.64 0.21
-2.31 0.67 0.22
-2.15 0.64 0.25
-1.23 -0.89 0.33
-2.24 0.69 0.21
-1.91 0.53 0.28
-2.01 0.65 0.25
-1.88 0.84 0.25
-1.00 -0.87 0.33
-2.09 0.65 0.22
-2.10 0.72 0.21
-1.92 0.76 0.24
-1.81 0.70 0.26
-1.00 -0.89 0.31
-1.94 0.71 0.23
-1.80 0.64 0.26
-1.75 0.82 0.24
-1.32 -0.77 0.31
-1.63 -0.72 0.29
-1.82 -0.93 0.23
-1.77 -0.56 0.29
-2.04 -0.68 0.22
-1.88 0.71 0.22
-1.60 0.81 0.25
-1.36 -0.70 0.31
-1.71 -0.93 0.23
-1.84 0.53 0.24
-1.74 0.75 0.22
-1.75 0.83 0.21
-1.57 0.76 0.25
-1.41 -0.87 0.26
-1.18 -0.79 0.27
-1.37 -0.74 0.27
-1.52 -0.55 0.29
-1.18 -0.78 0.26
-1.47 -0.83 0.22
-0.93 -0.84 0.23
-1.08 -0.82 0.24
-1.68 -0.62 0.21
-1.08 -0.77 0.23
-1.44 -0.73 0.22
-1.18 -0.73 0.22
-1.15 -0.71 0.21
-1.65 -0.35 0.20
-9.85 0.01 1.00
-9.80 0.03 1.00
-9.77 0.06 1.01
-9.77 0.09 1.01
-9.75 0.12 1.01
-9.74 0.15 1.01
-9.72 0.17 1.01
-9.72 0.20 1.01
-9.73 0.23 1.01
-9.70 0.26 1.01
-9.91 -0.02 0.99
-12.07 -0.76 0.69
-11.74 -0.71 0.72
-9.67 0.00 0.86
-9.68 0.03 0.86
-9.67 0.06 0.86
-9.61 0.09 0.87
-9.59 0.11 0.87
-9.65 0.14 0.86
-9.68 0.17 0.86
-9.68 0.20 0.86
-9.67 0.23 0.86
-9.66 0.25 0.86
-9.67 0.28 0.86
-9.65 0.31 0.86
-10.99 -0.70 0.72
-11.87 -0.65 0.62
-10.87 -0.54 0.73
-10.02 -0.25 0.83
-9.79 -0.22 0.85
-9.76 -0.19 0.86
-9.75 -0.16 0.86
-9.72 -0.13 0.86
-9.71 -0.11 0.86
-9.69 -0.08 0.86
-9.67 -0.05 0.86
-9.68 -0.02 0.86
-12.37 -0.71 0.62
-9.67 0.00 0.70
-9.67 0.03 0.70
-11.75 -0.65 0.44
-10.46 -0.32 0.61
-9.85 -0.22 0.68
-9.80 -0.19 0.69
-9.77 -0.16 0.69
-9.72 -0.14 0.70
-9.70 -0.11 0.70
-9.72 -0.08 0.70
-9.71 -0.05 0.70
-9.66 -0.02 0.70
-12.18 -0.70 0.29
-12.19 -0.67 0.29
-12.01 -0.63 0.31
-11.99 -0.59 0.31
-9.84 -0.22 0.60
-9.63 -0.19 0.63
-9.50 0.00 0.56
-9.50 0.03 0.56
-9.49 0.06 0.56
-9.48 0.08 0.56
-9.49 0.11 0.56
-9.47 0.14 0.56
-9.46 0.17 0.56
-9.46 0.19 0.56
-9.46 0.22 0.56
-9.47 0.25 0.56
-9.46 0.27 0.56
-10.11 -0.26 0.48
-9.78 -0.22 0.52
-9.64 -0.19 0.54
-9.60 -0.16 0.55
-9.57 -0.13 0.55
-9.54 -0.11 0.55
-9.53 -0.08 0.56
-9.51 -0.05 0.56
-9.51 -0.02 0.56
-9.66 0.00 0.36
-9.62 0.03 0.37
-9.62 0.06 0.37
-9.62 0.08 0.37
-9.67 0.11 0.36
-9.62 0.14 0.37
-9.63 0.17 0.37
-9.59 0.19 0.37
-9.58 0.22 0.37
-9.59 0.25 0.37
-9.58 0.28 0.37
-9.57 0.30 0.37
-9.57 0.33 0.37
-9.56 0.36 0.37
-9.57 0.39 0.37
-9.56 0.41 0.37
-9.57 0.44 0.37
-9.50 0.47 0.38
-9.50 0.49 0.38
-10.12 -0.26 0.29
-10.01 -0.23 0.31
-9.95 -0.20 0.32
-9.99 -0.17 0.31
-9.79 -0.14 0.34
-9.75 -0.11 0.35
-9.70 -0.08 0.36
-9.68 -0.05 0.36
-9.67 -0.03 0.36
