# .PCD v0.7 - Point Cloud Data file format
VERSION 0.7
FIELDS x y z
SIZE 4 4 4
TYPE F F F
COUNT 1 1 1
WIDTH 302
HEIGHT 1
VIEWPOINT 0 0 0 1 0 0 0
POINTS 302
DATA ASCII
-3.65 0.51 1.99
-4.37 -1.01 1.80
-7.99 0.13 1.46
-4.69 1.51 1.71
-10.51 0.01 1.08
-10.50 0.04 1.08
-10.72 -0.11 1.06
-10.61 -0.08 1.07
-10.55 -0.05 1.08
-10.53 -0.02 1.08
-10.70 -0.23 0.99
-10.22 0.01 0.96
-10.17 0.04 0.96
-10.13 0.06 0.97
-10.09 0.09 0.97
-10.09 0.12 0.97
-10.08 0.15 0.97
-10.08 0.18 0.97
-10.07 0.21 0.97
-10.07 0.24 0.97
-10.07 0.26 0.97
-4.00 1.21 1.69
-14.93 -1.00 0.49
-10.55 -0.26 0.93
-10.37 -0.23 0.95
-10.36 -0.20 0.95
-10.34 -0.17 0.95
-10.33 -0.14 0.95
-10.30 -0.11 0.95
-10.29 -0.08 0.95
-10.26 -0.05 0.96
-10.24 -0.02 0.96
-8.40 0.03 1.21
-14.83 -0.91 0.39
-14.95 -0.88 0.38
-8.45 -0.30 1.21
-10.23 0.01 0.80
-10.10 0.03 0.81
-10.07 0.06 0.82
-10.04 0.09 0.82
-10.05 0.12 0.82
-10.05 0.15 0.82
-10.05 0.18 0.82
-10.05 0.21 0.82
-10.04 0.23 0.82
-10.03 0.26 0.82
-10.03 0.29 0.82
-10.03 0.32 0.82
-10.02 0.35 0.82
-10.03 0.38 0.82
-10.02 0.41 0.82
-10.02 0.43 0.82
-9.99 0.46 0.82
-10.00 0.49 0.82
-10.02 0.52 0.82
-10.84 -0.33 0.73
-10.32 -0.26 0.79
-10.23 -0.23 0.80
-10.22 -0.20 0.80
-10.20 -0.17 0.81
-10.28 -0.14 0.80
-10.24 -0.11 0.80
-10.17 -0.08 0.81
-10.17 -0.05 0.81
-10.23 -0.02 0.80
-15.30 -0.83 0.27
-9.97 0.00 0.67
-9.95 0.03 0.67
-10.95 -0.36 0.54
-10.77 -0.33 0.57
-10.78 -0.30 0.56
-10.29 -0.26 0.63
-10.08 -0.23 0.65
-10.10 -0.20 0.65
-10.08 -0.17 0.65
-10.04 -0.14 0.66
-10.07 -0.11 0.65
-10.07 -0.08 0.65
-10.00 -0.05 0.66
-10.02 -0.02 0.66
-11.12 -0.49 0.43
-10.66 -0.30 0.49
-10.37 -0.26 0.53
-10.18 -0.23 0.55
-10.03 0.00 0.48
-10.03 0.03 0.48
-10.00 0.06 0.49
-9.98 0.09 0.49
-9.97 0.12 0.49
-9.95 0.14 0.49
-9.97 0.17 0.49
-9.98 0.20 0.49
-9.98 0.23 0.49
-10.05 0.26 0.48
-10.11 0.29 0.47
-10.49 -0.26 0.42
-10.41 -0.23 0.43
-10.20 -0.20 0.46
-10.12 -0.17 0.47
-10.06 -0.14 0.48
-10.03 -0.11 0.49
-10.05 -0.08 0.48
-10.03 -0.05 0.48
-10.03 -0.03 0.48
-7.36 0.23 0.98
-7.37 -0.62 0.79
-7.13 -0.52 0.82
-7.40 -0.38 0.78
-10.07 0.26 0.30
-10.13 0.32 0.29
-10.06 0.35 0.30
-10.06 0.37 0.30
-10.04 0.40 0.30
-10.03 0.43 0.30
-9.98 0.46 0.31
-9.98 0.49 0.31
-9.98 0.51 0.31
-10.55 -0.27 0.23
-10.41 -0.23 0.25
-10.49 -0.21 0.24
-10.48 -0.18 0.24
-10.45 -0.15 0.24
-10.45 -0.12 0.24
-10.52 -0.09 0.23
-8.53 0.02 0.67
-8.66 0.05 0.65
-8.91 0.50 0.60
-7.92 -0.45 0.77
-7.82 -0.40 0.79
-7.85 -0.37 0.78
-7.72 -0.32 0.80
-8.47 -0.02 0.68
-8.72 0.20 0.56
-8.70 0.34 0.56
-7.72 -0.21 0.51
-8.60 0.02 0.50
-8.68 0.09 0.49
-8.56 0.11 0.51
-8.55 0.20 0.51
-8.49 0.22 0.52
-8.57 0.26 0.51
-8.73 0.29 0.48
-8.97 0.32 0.44
-8.97 0.34 0.44
-8.79 0.36 0.47
-8.99 0.39 0.43
-8.95 0.41 0.44
-9.08 0.44 0.41
-9.35 0.50 0.36
-9.16 0.52 0.40
-9.24 0.59 0.38
-9.36 0.62 0.36
-9.34 0.67 0.36
-9.44 0.70 0.34
-9.66 0.77 0.30
-9.59 0.78 0.31
-7.25 -0.35 0.52
-7.36 -0.33 0.50
-7.35 -0.31 0.50
-7.71 -0.25 0.43
-7.71 -0.23 0.43
-7.86 -0.21 0.40
-8.09 -0.10 0.60
-8.28 -0.09 0.56
-8.25 -0.04 0.57
-8.86 0.32 0.37
-8.88 0.34 0.37
-7.83 -0.21 0.33
-7.92 -0.19 0.31
-8.46 -0.00 0.37
-8.17 0.08 0.43
-6.72 0.09 0.71
-7.05 0.15 0.65
-6.76 -0.46 0.45
-7.98 -0.29 0.47
-8.14 -0.25 0.44
-7.86 -0.20 0.49
-7.99 -0.13 0.46
-8.31 -0.09 0.40
-6.32 -0.71 0.47
-6.83 0.23 0.55
-7.13 0.26 0.49
-7.12 0.28 0.49
-6.98 0.33 0.52
-5.53 0.34 0.83
-5.50 0.38 0.83
-5.32 0.59 0.87
-5.12 0.58 0.91
-5.08 0.61 0.92
-5.20 0.68 0.89
-5.61 0.76 0.80
-5.25 0.80 0.87
-2.19 0.86 0.62
-3.29 0.60 0.65
-2.60 0.83 0.58
-2.57 0.90 0.58
-3.78 0.50 0.58
-2.79 0.85 0.54
-2.45 0.68 0.47
-2.21 0.87 0.47
-3.08 0.45 0.44
-2.12 1.59 0.45
-1.90 1.67 0.46
-3.47 0.15 0.40
-2.69 0.72 0.42
-2.24 0.69 0.43
-2.15 0.75 0.43
-1.66 0.92 0.44
-3.18 0.48 0.38
-3.08 0.54 0.38
-2.67 0.71 0.39
-2.51 0.71 0.40
-2.26 0.64 0.41
-2.26 0.70 0.41
-2.31 0.80 0.41
-2.17 0.77 0.41
-4.69 0.22 0.27
-2.71 0.16 0.38
-3.23 0.40 0.35
-2.42 0.73 0.38
-2.25 0.69 0.39
-2.82 0.25 0.35
-2.78 0.31 0.35
-2.44 0.67 0.36
-2.28 0.78 0.37
-1.98 0.75 0.39
-1.63 1.06 0.39
-1.20 -1.04 0.43
-2.84 0.25 0.32
-2.77 0.38 0.33
-2.65 0.63 0.33
-2.30 0.66 0.35
-2.35 0.76 0.35
-2.37 0.85 0.34
-1.64 0.89 0.39
-1.85 -0.68 0.40
-3.17 0.21 0.27
-2.72 0.30 0.31
-2.52 0.38 0.33
-2.66 0.79 0.30
-2.51 0.78 0.31
-2.23 0.68 0.34
-3.39 0.33 0.21
-2.78 0.31 0.28
-2.67 0.35 0.29
-2.56 0.39 0.30
-2.35 0.76 0.31
-2.24 0.76 0.32
-1.83 0.85 0.35
-1.77 0.93 0.35
-2.74 0.75 0.24
-2.31 0.67 0.30
-2.34 0.76 0.29
-2.10 0.79 0.31
-1.99 0.75 0.33
-1.77 0.85 0.34
-2.99 0.35 0.20
-2.63 0.62 0.24
-2.11 0.73 0.30
-1.69 1.08 0.31
-2.66 0.42 0.22
-2.71 0.65 0.20
-2.41 0.80 0.24
-1.97 0.80 0.29
-1.78 0.95 0.30
-2.60 0.47 0.21
-2.41 0.66 0.23
-2.12 0.56 0.28
-2.30 0.73 0.24
-1.65 0.92 0.30
-2.31 0.43 0.24
-2.44 0.61 0.20
-2.26 0.71 0.22
-2.21 0.87 0.22
-2.26 0.64 0.21
-2.26 0.71 0.21
-1.08 -0.86 0.33
-1.30 -0.70 0.35
-2.19 0.66 0.20
-2.18 0.71 0.20
-1.86 0.82 0.24
-0.96 -0.89 0.31
-2.02 0.79 0.20
-1.73 0.74 0.26
-1.75 0.99 0.21
-1.77 -0.40 0.31
-1.94 0.77 0.20
-1.74 0.81 0.23
-1.60 0.82 0.23
-1.44 -0.73 0.29
-1.23 -0.94 0.24
-1.31 -0.75 0.28
-1.73 0.68 0.21
-1.55 0.81 0.21
-1.11 -0.97 0.23
-0.96 -0.89 0.23
-1.27 -0.96 0.21
-1.60 -0.75 0.22
-0.97 -0.86 0.22
-1.00 -0.86 0.21
-1.34 -0.76 0.22
-1.36 -0.72 0.22
