# .PCD v0.7 - Point Cloud Data file format
VERSION 0.7
FIELDS x y z
SIZE 4 4 4
TYPE F F F
COUNT 1 1 1
WIDTH 324
HEIGHT 1
VIEWPOINT 0 0 0 1 0 0 0
POINTS 324
DATA ASCII
-4.23 0.62 2.00
-2.98 0.47 2.01
-3.40 0.16 1.95
-6.37 1.36 1.73
-3.89 0.98 1.89
-5.74 0.84 1.71
-7.15 1.60 1.51
-10.73 0.01 1.06
-10.73 0.04 1.06
-10.72 0.07 1.06
-10.76 -0.02 1.06
-10.83 -0.21 0.98
-10.46 0.01 0.94
-10.44 0.04 0.94
-10.42 0.06 0.94
-10.39 0.09 0.94
-10.37 0.12 0.94
-10.38 0.15 0.94
-10.37 0.18 0.94
-10.37 0.21 0.94
-10.37 0.24 0.94
-10.37 0.27 0.94
-10.36 0.30 0.94
-12.04 -0.76 0.78
-10.72 -0.27 0.91
-10.63 -0.23 0.92
-10.57 -0.20 0.93
-10.56 -0.17 0.93
-10.52 -0.14 0.93
-10.51 -0.11 0.93
-10.49 -0.08 0.93
-10.47 -0.05 0.93
-10.46 -0.02 0.94
-11.80 -0.71 0.72
-11.80 -0.68 0.72
-10.49 0.00 0.77
-10.42 0.03 0.78
-10.37 0.06 0.78
-10.36 0.09 0.78
-10.42 0.12 0.78
-10.42 0.15 0.78
-10.42 0.18 0.78
-10.40 0.21 0.78
-10.40 0.24 0.78
-10.38 0.27 0.78
-10.40 0.30 0.78
-10.39 0.33 0.78
-10.40 0.36 0.78
-10.39 0.39 0.78
-10.38 0.42 0.78
-10.37 0.45 0.78
-10.38 0.48 0.78
-10.37 0.50 0.78
-10.37 0.53 0.78
-10.33 0.56 0.78
-12.08 -0.76 0.59
-12.19 -0.74 0.58
-11.74 -0.68 0.63
-10.61 -0.26 0.76
-10.57 -0.23 0.76
-10.54 -0.20 0.77
-10.52 -0.17 0.77
-10.51 -0.14 0.77
-10.49 -0.11 0.77
-10.47 -0.08 0.77
-10.46 -0.05 0.77
-10.50 -0.02 0.77
-10.31 0.03 0.62
-10.30 0.06 0.62
-8.68 0.29 0.99
-10.77 -0.30 0.56
-10.45 -0.26 0.61
-10.37 -0.20 0.61
-10.34 -0.17 0.62
-10.31 -0.14 0.62
-10.34 -0.08 0.62
-10.29 -0.05 0.62
-10.32 -0.03 0.62
-12.48 -0.82 0.25
-12.55 -0.79 0.24
-12.50 -0.75 0.24
-12.49 -0.72 0.24
-10.91 -0.30 0.45
-10.70 -0.27 0.48
-10.50 -0.23 0.51
-10.43 -0.20 0.52
-10.33 0.00 0.44
-10.31 0.03 0.44
-10.31 0.06 0.44
-10.30 0.09 0.44
-10.30 0.12 0.44
-10.29 0.18 0.44
-10.31 0.24 0.44
-10.33 0.27 0.44
-10.33 0.30 0.44
-8.75 0.29 0.85
-7.28 -0.46 0.87
-10.80 -0.30 0.38
-10.55 -0.24 0.41
-10.45 -0.20 0.42
-10.40 -0.17 0.43
-10.37 -0.14 0.44
-10.35 -0.11 0.44
-10.36 -0.06 0.44
-10.32 0.44 0.25
-10.28 0.47 0.26
-10.29 0.50 0.26
-10.29 0.53 0.26
-10.28 0.56 0.26
-9.56 0.19 0.50
-8.28 -0.24 0.71
-7.40 -0.20 0.56
-7.68 -0.14 0.51
-7.47 -0.11 0.55
-8.55 0.09 0.51
-8.66 0.18 0.49
-8.31 0.69 0.55
-6.90 1.58 0.76
-6.53 -0.26 0.64
-7.09 -0.22 0.54
-7.23 -0.15 0.52
-7.89 -0.06 0.63
-8.45 -0.05 0.53
-6.30 -0.47 0.61
-7.45 -0.20 0.40
-7.66 -0.02 0.35
-7.51 -0.00 0.56
-7.71 0.02 0.52
-7.70 0.04 0.52
-7.62 0.06 0.54
-8.13 0.10 0.43
-7.60 0.16 0.54
-8.37 0.19 0.39
-7.94 0.22 0.47
-5.47 0.41 0.95
-5.44 0.54 0.95
-6.89 1.49 0.63
-6.04 -0.29 0.59
-8.19 -0.26 0.43
-8.38 -0.24 0.39
-6.85 -0.15 0.69
-8.15 -0.13 0.43
-7.38 -0.10 0.59
-6.94 -0.07 0.67
-7.27 -0.06 0.61
-8.52 -0.05 0.36
-8.36 -0.02 0.39
-6.69 -0.19 0.39
-7.39 0.02 0.44
-6.66 0.03 0.59
-7.32 0.07 0.45
-7.33 0.09 0.45
-6.55 0.10 0.62
-5.05 0.24 0.94
-5.49 0.28 0.84
-5.44 0.29 0.85
-5.36 0.30 0.87
-5.17 0.31 0.91
-5.25 0.32 0.89
-5.40 0.35 0.86
-5.13 0.35 0.92
-5.38 0.38 0.86
-5.40 0.39 0.86
-5.24 0.40 0.89
-5.21 0.41 0.90
-5.22 0.42 0.89
-5.26 0.44 0.88
-5.23 0.45 0.89
-5.48 0.49 0.84
-5.43 0.50 0.85
-5.19 0.49 0.90
-5.24 0.51 0.89
-5.25 0.53 0.88
-5.18 0.53 0.90
-5.00 0.53 0.94
-5.22 0.58 0.89
-5.36 0.61 0.86
-5.17 0.60 0.90
-5.66 0.76 0.79
-5.45 1.01 0.82
-5.87 1.11 0.73
-7.02 1.36 0.47
-5.94 -0.70 0.47
-5.75 -0.48 0.51
-6.35 -0.50 0.38
-5.81 -0.45 0.50
-7.76 -0.43 0.36
-7.87 -0.19 0.34
-7.67 -0.16 0.38
-7.69 -0.14 0.37
-7.15 -0.10 0.49
-7.69 -0.08 0.37
-6.19 -0.05 0.70
-6.70 -0.04 0.59
-6.41 -0.02 0.65
-4.68 -0.00 0.67
-6.35 0.10 0.59
-5.44 0.25 0.79
-5.31 -0.30 0.53
-5.86 -0.26 0.41
-5.71 -0.15 0.44
-5.79 0.17 0.66
-5.19 0.22 0.79
-4.94 -0.14 0.55
-0.12 1.09 0.71
-1.58 -0.84 0.73
-0.93 -0.87 0.62
-1.75 -0.63 0.56
-1.77 0.85 0.53
-2.82 0.70 0.54
-3.92 0.53 0.54
-10.63 -0.19 0.75
-10.68 -0.20 0.62
-2.28 0.47 0.46
-10.51 -0.19 0.48
-2.74 0.67 0.44
-2.11 0.79 0.45
-4.54 0.21 0.37
-4.15 0.44 0.38
-2.78 0.68 0.42
-2.83 0.79 0.41
-2.41 0.73 0.42
-2.27 0.77 0.43
-1.53 -0.68 0.46
-2.26 -0.70 0.44
-3.03 0.61 0.38
-2.95 0.67 0.36
-2.14 0.75 0.40
-1.71 -0.71 0.43
-3.80 0.62 0.28
-2.69 0.57 0.35
-1.98 -0.63 0.40
-2.81 0.46 0.32
-3.35 0.61 0.24
-2.39 0.65 0.33
-2.10 0.79 0.35
-2.71 0.65 0.28
-2.16 0.64 0.33
-1.19 -0.86 0.40
-2.69 0.43 0.26
-2.39 0.71 0.29
-2.09 0.65 0.32
-1.97 0.95 0.31
-3.02 0.19 0.20
-2.64 0.70 0.23
-2.05 -0.75 0.32
-2.49 0.25 0.26
-2.75 0.37 0.21
-2.54 0.45 0.24
-2.49 0.63 0.24
-2.12 0.67 0.28
-1.81 0.83 0.31
-1.36 -1.00 0.34
-1.73 -0.87 0.32
-1.70 -0.75 0.34
-2.54 0.14 0.23
-2.28 0.42 0.26
-2.40 0.53 0.24
-2.57 0.67 0.20
-2.24 0.63 0.25
-1.22 -0.83 0.35
-1.59 -0.89 0.32
-1.83 -0.94 0.29
-1.85 -0.81 0.30
-2.21 -0.74 0.26
-2.49 0.50 0.20
-2.27 0.64 0.23
-2.05 0.81 0.25
-0.99 -0.78 0.35
-0.99 -0.95 0.33
-1.25 -0.81 0.34
-2.10 0.78 0.22
-1.92 0.69 0.26
-1.52 0.83 0.29
-1.23 -0.97 0.31
-2.11 0.73 0.21
-2.09 0.78 0.21
-2.06 0.82 0.21
-1.82 0.65 0.27
-1.80 0.75 0.26
-1.82 0.84 0.24
-1.15 -0.87 0.31
-2.03 0.67 0.22
-2.00 0.77 0.21
-1.77 0.72 0.25
-1.76 0.77 0.25
-1.69 0.74 0.26
-1.62 -0.78 0.28
-1.85 0.74 0.22
-1.82 0.77 0.22
-1.58 0.78 0.26
-1.23 -0.94 0.27
-1.74 -0.89 0.23
-1.62 -0.64 0.29
-1.82 0.72 0.22
-1.77 0.78 0.21
-1.05 -0.83 0.28
-1.25 -1.19 0.20
-1.27 -0.99 0.24
-1.55 -0.80 0.26
-1.71 -0.85 0.22
-1.75 0.76 0.21
-1.15 -0.86 0.27
-1.31 -0.96 0.23
-1.54 -0.88 0.23
-1.57 -0.85 0.23
-1.66 -0.84 0.22
-1.69 0.75 0.21
-1.67 0.78 0.20
-1.15 -0.93 0.23
-1.23 -1.00 0.21
-0.96 -0.89 0.23
-1.04 -0.90 0.23
-1.19 -0.93 0.22
-1.23 -0.93 0.22
-1.54 -0.79 0.22
-1.58 -0.79 0.21
-1.61 0.63 0.22
-1.15 -0.80 0.24
-1.32 -0.82 0.23
-1.47 -0.83 0.21
-1.08 -0.83 0.22
-1.11 -0.81 0.22
-1.37 -0.74 0.21
