# .PCD v0.7 - Point Cloud Data file format
VERSION 0.7
FIELDS x y z
SIZE 4 4 4
TYPE F F F
COUNT 1 1 1
WIDTH 228
HEIGHT 1
VIEWPOINT 0 0 0 1 0 0 0
POINTS 228
DATA ASCII
-5.95 0.27 1.98
-7.68 0.37 1.92
-12.03 0.01 1.09
-12.01 0.04 1.09
-12.01 0.08 1.09
-12.01 0.11 1.09
-11.98 0.14 1.10
-11.98 0.18 1.10
-11.97 0.21 1.10
-11.97 0.25 1.09
-11.96 0.28 1.10
-11.95 0.31 1.10
-11.95 0.35 1.10
-11.95 0.38 1.10
-11.94 0.41 1.10
-11.95 0.45 1.09
-11.94 0.48 1.10
-11.93 0.51 1.10
-11.93 0.55 1.10
-11.93 0.58 1.09
-11.94 0.61 1.09
-11.93 0.65 1.09
-12.21 -0.16 1.08
-12.12 -0.12 1.09
-12.07 -0.09 1.09
-12.07 -0.06 1.09
-12.03 -0.02 1.09
-11.68 0.01 0.97
-11.64 0.04 0.97
-11.61 0.07 0.97
-12.05 -0.29 0.93
-11.85 -0.26 0.95
-11.83 -0.22 0.95
-11.79 -0.19 0.96
-11.79 -0.16 0.96
-11.77 -0.12 0.96
-11.74 -0.09 0.96
-11.75 -0.06 0.96
-11.72 -0.02 0.96
-11.84 -0.29 0.87
-11.73 -0.26 0.88
-11.74 -0.22 0.88
-11.64 0.01 0.80
-11.58 0.04 0.81
-11.59 0.07 0.81
-11.62 0.11 0.80
-11.63 0.14 0.80
-11.63 0.17 0.80
-11.62 0.20 0.80
-11.62 0.24 0.80
-11.61 0.27 0.80
-11.61 0.30 0.80
-11.59 0.33 0.80
-11.84 -0.29 0.79
-11.75 -0.26 0.79
-11.73 -0.22 0.80
-11.73 -0.19 0.80
-11.74 -0.16 0.79
-11.71 -0.12 0.80
-11.67 -0.09 0.80
-11.72 -0.06 0.80
-11.70 -0.02 0.80
-11.47 0.01 0.64
-11.50 0.04 0.64
-11.47 0.07 0.64
-11.50 0.10 0.64
-11.47 0.14 0.64
-11.48 0.17 0.64
-11.47 0.20 0.64
-11.49 0.23 0.64
-11.50 0.27 0.64
-11.48 0.30 0.64
-11.50 0.33 0.64
-11.52 0.36 0.63
-11.52 0.40 0.63
-11.52 0.43 0.63
-11.52 0.46 0.63
-11.53 0.49 0.63
-11.53 0.53 0.63
-11.52 0.56 0.63
-11.54 0.59 0.63
-11.57 0.63 0.63
-12.08 -0.33 0.58
-11.81 -0.29 0.61
-11.63 -0.25 0.63
-11.64 -0.22 0.63
-11.59 -0.19 0.63
-11.55 -0.16 0.64
-11.51 -0.12 0.64
-11.59 -0.09 0.63
-11.55 -0.06 0.63
-11.51 -0.03 0.64
-11.56 0.01 0.44
-11.55 0.04 0.45
-11.53 0.07 0.45
-12.02 -0.33 0.39
-11.93 -0.26 0.40
-11.72 -0.23 0.43
-11.64 -0.19 0.44
-11.61 -0.16 0.44
-11.58 -0.13 0.44
-11.60 -0.09 0.44
-11.59 -0.06 0.44
-7.43 0.41 1.07
-12.05 -0.33 0.28
-11.97 -0.30 0.29
-12.00 -0.26 0.29
-11.95 -0.23 0.30
-7.54 0.02 0.81
-7.91 0.19 0.61
-8.47 0.46 0.50
-9.45 0.73 0.32
-5.75 -0.85 0.76
-6.03 -0.76 0.71
-5.95 -0.73 0.72
-5.68 -0.26 0.77
-5.72 -0.24 0.76
-7.51 0.14 0.35
-8.07 0.25 0.42
-6.18 -0.85 0.53
-5.44 -0.60 0.68
-6.09 -0.87 0.40
-5.84 -0.78 0.46
-5.84 -0.73 0.46
-5.43 -0.67 0.54
-5.47 -0.66 0.54
-5.83 -0.67 0.46
-5.42 -0.62 0.55
-5.53 -0.61 0.52
-5.45 -0.58 0.54
-5.71 -0.56 0.48
-5.38 -0.50 0.56
-5.68 -0.51 0.49
-4.85 -0.44 0.67
-5.87 -0.48 0.45
-6.99 -0.37 0.50
-6.78 -0.34 0.55
-5.86 -0.67 0.38
-5.54 -0.59 0.38
-1.37 -0.81 0.56
-2.31 0.80 0.56
-1.80 0.97 0.52
-1.86 0.82 0.48
-2.32 0.88 0.47
-2.15 0.76 0.45
-2.22 -0.61 0.46
-2.06 0.75 0.40
-1.63 -0.60 0.44
-2.42 0.73 0.36
-1.72 -0.78 0.42
-2.13 0.80 0.36
-2.02 0.85 0.37
-3.13 0.21 0.27
-2.58 0.33 0.32
-2.66 0.79 0.30
-2.28 0.71 0.33
-2.14 0.82 0.34
-2.97 0.59 0.25
-2.20 0.66 0.33
-1.45 0.86 0.37
-1.51 -0.59 0.40
-1.68 0.79 0.35
-2.59 0.40 0.26
-2.10 -0.78 0.31
-2.64 0.09 0.24
-2.62 0.22 0.24
-2.73 0.30 0.22
-2.62 0.54 0.22
-2.60 0.83 0.21
-2.18 0.71 0.27
-2.14 0.81 0.27
-1.97 0.73 0.30
-1.91 -0.63 0.32
-2.54 0.33 0.22
-2.46 0.49 0.23
-2.60 0.61 0.20
-1.95 0.78 0.28
-1.42 0.88 0.32
-1.32 0.99 0.31
-2.03 -0.67 0.29
-2.57 0.21 0.20
-2.41 0.53 0.22
-2.15 0.75 0.24
-1.95 0.66 0.28
-2.19 0.79 0.21
-1.79 0.80 0.27
-2.21 -0.74 0.22
-2.06 0.82 0.21
-1.94 0.84 0.22
-1.25 -1.14 0.26
-2.18 0.33 0.22
-1.82 0.65 0.26
-1.89 0.67 0.23
-1.94 0.78 0.20
-1.91 0.80 0.20
-1.60 0.91 0.23
-1.50 0.78 0.27
-0.83 -0.82 0.29
-0.90 -0.98 0.27
-1.51 0.72 0.27
-0.91 -0.94 0.26
-1.79 0.74 0.20
-1.71 0.77 0.21
-1.59 0.79 0.23
-1.52 0.82 0.23
-1.46 0.77 0.25
-0.82 -0.83 0.26
-0.91 -0.93 0.25
-1.00 -0.88 0.26
-1.11 -1.04 0.22
-1.31 -0.75 0.28
-1.62 0.78 0.21
-0.85 -0.86 0.25
-1.11 -0.98 0.22
-1.46 -0.91 0.22
-1.58 0.72 0.22
-1.53 0.77 0.21
-1.49 0.77 0.22
-0.88 -0.90 0.23
-0.88 -0.88 0.22
-1.21 -0.70 0.27
-1.29 -0.84 0.22
-1.48 -0.84 0.20
-0.79 -0.81 0.21
-0.93 -0.84 0.22
-0.97 -0.85 0.21
-1.39 -0.82 0.21
-1.28 -0.75 0.21
