# .PCD v0.7 - Point Cloud Data file format
VERSION 0.7
FIELDS x y z
SIZE 4 4 4
TYPE F F F
COUNT 1 1 1
WIDTH 172
HEIGHT 1
VIEWPOINT 0 0 0 1 0 0 0
POINTS 172
DATA ASCII
-15.85 -0.89 0.98
-15.90 -0.85 0.98
-15.89 -0.80 0.98
-15.56 -0.92 0.91
-15.63 -0.88 0.91
-15.99 -0.85 0.88
-15.65 -0.79 0.90
-13.59 0.01 0.97
-13.56 0.05 0.97
-13.53 0.08 0.97
-13.53 0.12 0.97
-13.51 0.16 0.97
-13.51 0.20 0.97
-13.50 0.23 0.97
-13.49 0.27 0.97
-13.50 0.31 0.97
-13.49 0.34 0.97
-13.48 0.38 0.97
-13.48 0.42 0.97
-13.47 0.45 0.97
-13.48 0.49 0.97
-13.48 0.53 0.97
-13.48 0.57 0.97
-13.52 0.61 0.97
-13.48 0.64 0.97
-13.47 0.68 0.97
-13.47 0.72 0.97
-15.55 -0.87 0.82
-15.48 -0.83 0.83
-15.53 -0.79 0.82
-14.06 -0.22 0.93
-14.02 -0.18 0.94
-13.95 -0.14 0.94
-13.86 -0.10 0.95
-13.77 -0.07 0.95
-13.65 -0.03 0.96
-6.03 0.49 1.61
-6.11 0.60 1.60
-5.13 -1.18 1.58
-13.45 0.01 0.80
-13.39 0.04 0.81
-15.16 -0.85 0.66
-13.57 -0.25 0.80
-13.50 -0.22 0.80
-13.47 -0.18 0.80
-13.47 -0.14 0.80
-13.42 -0.10 0.81
-13.42 -0.07 0.81
-13.42 -0.03 0.81
-14.01 -0.38 0.66
-14.12 -0.30 0.65
-14.02 -0.26 0.66
-13.42 0.01 0.62
-13.47 0.04 0.61
-13.42 0.08 0.62
-13.38 0.12 0.62
-13.35 0.15 0.63
-13.34 0.19 0.63
-13.33 0.23 0.63
-13.33 0.30 0.63
-13.33 0.34 0.63
-13.34 0.37 0.62
-13.51 -0.22 0.61
-13.49 -0.18 0.61
-13.46 -0.14 0.62
-13.47 -0.10 0.62
-13.45 -0.07 0.62
-4.60 0.92 1.59
-5.42 -1.16 1.37
-13.37 0.01 0.42
-13.35 0.04 0.42
-13.33 0.08 0.43
-13.29 0.12 0.43
-13.29 0.15 0.43
-13.29 0.19 0.43
-13.31 0.23 0.43
-13.40 0.26 0.42
-13.42 0.30 0.41
-13.44 0.34 0.41
-13.41 0.38 0.41
-13.33 0.41 0.42
-13.41 0.45 0.41
-13.40 0.49 0.41
-13.40 0.52 0.41
-13.40 0.56 0.41
-13.36 0.60 0.42
-13.40 0.63 0.41
-13.39 0.67 0.41
-13.40 0.71 0.41
-13.80 -0.26 0.38
-13.57 -0.22 0.40
-13.44 -0.18 0.42
-13.37 -0.14 0.42
-13.36 -0.11 0.43
-13.36 -0.07 0.42
-13.37 -0.03 0.42
-3.79 0.28 1.60
-9.75 -1.16 0.67
-8.60 -1.28 0.66
-7.87 0.29 0.89
-7.86 0.31 0.89
-5.51 0.60 1.23
-8.29 -1.32 0.46
-5.58 0.36 1.08
-5.51 0.50 1.09
-3.95 0.41 1.36
-5.47 0.46 1.04
-6.13 0.81 0.91
-5.92 0.46 0.90
-4.59 0.71 1.10
-6.76 -0.41 0.41
-5.81 -0.33 0.60
-4.68 0.69 1.03
-6.92 0.02 0.52
-6.14 0.39 0.68
-4.76 0.36 0.97
-5.24 0.68 0.86
-5.37 0.74 0.83
-5.16 0.74 0.87
-4.76 0.72 0.96
-6.34 -1.47 0.33
-7.77 -0.45 0.34
-4.70 0.38 0.93
-3.15 0.56 0.82
-2.77 0.60 0.54
-2.20 0.79 0.47
-5.42 0.45 0.41
-1.66 0.83 0.46
-1.12 -0.84 0.48
-2.93 0.42 0.36
-2.69 0.03 0.34
-2.76 0.38 0.33
-2.61 0.34 0.32
-2.34 0.75 0.33
-2.70 0.16 0.29
-2.71 0.36 0.29
-2.49 0.37 0.31
-2.10 0.78 0.33
-1.56 0.91 0.36
-2.80 0.03 0.26
-2.84 0.25 0.25
-2.86 0.48 0.24
-2.19 0.78 0.30
-1.90 0.79 0.33
-1.38 0.87 0.36
-2.78 0.03 0.24
-2.60 0.76 0.24
-2.05 0.74 0.30
-1.56 -0.74 0.36
-2.29 0.72 0.24
-1.92 0.82 0.28
-2.35 0.39 0.22
-2.22 0.81 0.20
-1.28 -0.77 0.34
-1.91 0.68 0.24
-1.85 0.81 0.23
-0.91 -1.40 0.20
-1.15 -1.01 0.27
-1.37 -0.86 0.29
-1.71 0.59 0.26
-1.24 -0.68 0.31
-1.32 -0.99 0.24
-1.50 -0.79 0.25
-1.15 -0.92 0.24
-1.28 -1.01 0.21
-1.42 0.79 0.22
-0.79 -0.91 0.22
-1.23 -0.96 0.21
-1.27 -0.95 0.21
-1.43 -0.92 0.20
-1.30 -0.92 0.20
-1.20 -0.64 0.23
