# .PCD v0.7 - Point Cloud Data file format
VERSION 0.7
FIELDS x y z
SIZE 4 4 4
TYPE F F F
COUNT 1 1 1
WIDTH 181
HEIGHT 1
VIEWPOINT 0 0 0 1 0 0 0
POINTS 181
DATA ASCII
-14.20 0.01 1.08
-14.16 0.05 1.08
-14.16 0.09 1.08
-14.14 0.13 1.08
-14.12 0.17 1.09
-14.06 0.20 1.09
-14.07 0.24 1.09
-14.09 0.28 1.09
-14.08 0.32 1.09
-14.07 0.36 1.09
-14.08 0.40 1.09
-14.19 -0.03 1.08
-13.52 0.01 0.97
-13.48 0.05 0.97
-13.47 0.08 0.97
-13.45 0.12 0.97
-13.44 0.16 0.97
-13.44 0.20 0.97
-13.43 0.23 0.97
-13.43 0.27 0.97
-13.42 0.31 0.97
-13.42 0.34 0.97
-13.41 0.38 0.97
-13.41 0.42 0.97
-13.40 0.45 0.97
-13.39 0.49 0.97
-13.40 0.53 0.97
-13.38 0.56 0.97
-13.36 0.60 0.97
-13.39 0.64 0.97
-13.40 0.68 0.97
-13.39 0.71 0.97
-14.01 -0.26 0.93
-13.91 -0.22 0.94
-13.85 -0.18 0.94
-13.78 -0.14 0.95
-13.75 -0.10 0.95
-13.68 -0.06 0.96
-13.57 -0.03 0.96
-13.34 0.05 0.81
-15.55 -0.91 0.62
-15.74 -0.84 0.60
-15.30 -0.78 0.64
-14.97 -0.68 0.67
-15.46 -0.62 0.63
-13.53 -0.25 0.79
-13.49 -0.21 0.80
-13.48 -0.14 0.80
-13.44 -0.10 0.80
-13.44 -0.03 0.80
-5.65 0.48 1.57
-15.79 -0.93 0.49
-15.68 -0.84 0.50
-15.18 -0.77 0.55
-15.10 -0.73 0.55
-14.80 -0.68 0.58
-14.85 -0.64 0.58
-14.62 -0.59 0.60
-14.11 -0.49 0.65
-14.15 -0.42 0.64
-14.10 -0.38 0.65
-14.13 -0.34 0.64
-13.64 -0.25 0.69
-13.33 0.01 0.62
-13.34 0.04 0.62
-13.34 0.08 0.62
-13.34 0.12 0.62
-13.38 0.16 0.62
-13.35 0.19 0.62
-13.34 0.23 0.62
-13.35 0.27 0.62
-13.33 0.30 0.62
-13.33 0.34 0.62
-13.33 0.38 0.62
-15.49 -0.87 0.41
-15.77 -0.84 0.38
-15.05 -0.77 0.46
-15.31 -0.74 0.43
-14.82 -0.68 0.48
-14.94 -0.64 0.47
-14.68 -0.59 0.49
-14.17 -0.30 0.54
-13.55 -0.25 0.60
-13.45 -0.21 0.61
-13.37 -0.18 0.62
-13.39 -0.14 0.62
-13.34 -0.10 0.62
-13.37 -0.07 0.62
-13.34 -0.03 0.62
-15.51 -0.79 0.30
-15.04 -0.73 0.34
-14.92 -0.68 0.36
-14.79 -0.64 0.37
-13.37 0.01 0.42
-13.33 0.04 0.42
-13.30 0.08 0.43
-13.29 0.12 0.43
-13.29 0.15 0.43
-13.29 0.19 0.43
-13.30 0.23 0.42
-13.37 0.26 0.42
-13.40 0.30 0.41
-13.40 0.34 0.41
-13.43 0.38 0.41
-13.29 0.41 0.42
-13.30 0.45 0.42
-13.24 0.48 0.43
-13.26 0.52 0.43
-13.26 0.56 0.43
-13.23 0.59 0.43
-13.25 0.63 0.42
-13.24 0.67 0.43
-13.24 0.70 0.43
-13.94 -0.30 0.36
-13.69 -0.26 0.38
-13.46 -0.22 0.41
-13.40 -0.18 0.42
-13.36 -0.14 0.42
-13.35 -0.10 0.42
-13.34 -0.07 0.42
-13.34 -0.03 0.42
-6.76 1.13 1.15
-7.36 0.25 0.71
-6.63 0.85 0.83
-2.70 -0.59 1.30
-6.87 0.55 0.66
-5.48 0.54 0.82
-6.04 0.82 0.69
-6.24 1.42 0.62
-5.72 -0.51 0.48
-7.08 0.20 0.41
-1.59 0.86 0.66
-1.80 0.89 0.61
-2.10 0.78 0.52
-2.01 0.98 0.52
-1.88 1.00 0.49
-2.26 0.84 0.39
-1.99 0.89 0.40
-2.00 0.98 0.40
-2.44 0.97 0.33
-2.07 0.89 0.36
-2.65 0.56 0.31
-2.19 0.94 0.33
-2.25 0.99 0.30
-2.27 0.71 0.30
-2.15 0.70 0.31
-2.38 0.93 0.27
-2.24 0.98 0.28
-1.80 0.89 0.33
-1.48 0.74 0.37
-2.76 0.24 0.24
-2.68 0.57 0.24
-2.63 0.94 0.22
-2.25 0.99 0.26
-0.79 -0.93 0.37
-1.13 -0.60 0.40
-2.08 0.84 0.27
-2.64 0.41 0.20
-2.12 0.88 0.23
-1.95 0.86 0.25
-1.84 1.26 0.21
-1.51 0.91 0.30
-1.92 0.63 0.27
-2.08 0.84 0.22
-1.90 0.74 0.24
-1.58 0.86 0.27
-1.88 0.84 0.22
-1.69 0.89 0.23
-1.57 0.95 0.24
-1.89 0.79 0.21
-1.66 0.76 0.25
-1.67 0.86 0.23
-1.62 0.86 0.24
-1.52 1.06 0.21
-1.80 0.59 0.24
-1.73 0.87 0.20
-1.68 0.88 0.21
-1.64 0.73 0.23
-1.54 0.80 0.22
-0.84 -0.77 0.25
-1.21 -0.69 0.22
