# .PCD v0.7 - Point Cloud Data file format
VERSION 0.7
FIELDS x y z
SIZE 4 4 4
TYPE F F F
COUNT 1 1 1
WIDTH 177
HEIGHT 1
VIEWPOINT 0 0 0 1 0 0 0
POINTS 177
DATA ASCII
-14.05 0.01 1.10
-14.04 0.05 1.10
-13.98 0.09 1.10
-13.97 0.13 1.10
-13.97 0.16 1.10
-13.98 0.20 1.10
-13.96 0.24 1.10
-13.97 0.28 1.10
-13.96 0.32 1.10
-13.94 0.35 1.10
-14.09 -0.11 1.10
-14.07 -0.07 1.10
-14.09 -0.03 1.10
-13.47 0.01 0.98
-13.43 0.05 0.98
-13.42 0.08 0.98
-13.40 0.12 0.98
-13.41 0.16 0.98
-13.39 0.19 0.98
-13.40 0.23 0.98
-13.37 0.27 0.98
-13.36 0.30 0.99
-13.36 0.34 0.98
-13.37 0.38 0.98
-13.37 0.41 0.98
-13.35 0.45 0.98
-13.35 0.49 0.98
-13.36 0.53 0.98
-13.35 0.56 0.98
-13.36 0.60 0.98
-13.36 0.64 0.98
-13.35 0.67 0.98
-14.03 -0.30 0.94
-13.84 -0.26 0.95
-13.78 -0.22 0.96
-13.74 -0.18 0.96
-13.69 -0.14 0.96
-13.64 -0.10 0.97
-13.61 -0.07 0.97
-13.51 -0.03 0.98
-15.85 -0.62 0.81
-15.80 -0.58 0.82
-15.94 -0.47 0.80
-13.41 0.01 0.81
-13.34 0.04 0.82
-15.35 -0.86 0.65
-15.35 -0.82 0.64
-15.14 -0.77 0.66
-14.77 -0.72 0.70
-14.80 -0.68 0.69
-14.72 -0.63 0.70
-13.52 -0.25 0.80
-13.46 -0.21 0.81
-13.44 -0.18 0.81
-13.50 -0.14 0.80
-13.44 -0.10 0.81
-13.41 -0.07 0.81
-13.43 -0.03 0.81
-15.26 -0.82 0.55
-15.11 -0.77 0.56
-14.88 -0.72 0.58
-15.12 -0.69 0.56
-14.81 -0.64 0.59
-14.73 -0.59 0.60
-13.29 0.01 0.64
-13.27 0.04 0.64
-13.28 0.08 0.64
-13.34 0.12 0.63
-13.32 0.15 0.63
-13.33 0.19 0.63
-13.33 0.23 0.63
-13.31 0.26 0.63
-13.31 0.30 0.63
-13.32 0.34 0.63
-15.51 -0.79 0.42
-15.75 -0.76 0.39
-15.74 -0.72 0.39
-15.73 -0.63 0.40
-15.48 -0.58 0.42
-15.40 -0.53 0.43
-15.42 -0.49 0.43
-13.79 -0.30 0.59
-13.45 -0.25 0.62
-13.33 -0.21 0.63
-13.34 -0.18 0.63
-13.34 -0.14 0.63
-13.35 -0.10 0.63
-13.30 -0.07 0.64
-13.32 -0.03 0.63
-13.34 0.00 0.43
-13.31 0.04 0.43
-13.28 0.08 0.43
-13.28 0.11 0.43
-13.28 0.15 0.44
-13.29 0.19 0.43
-13.31 0.23 0.43
-13.35 0.26 0.43
-13.40 0.30 0.42
-13.39 0.34 0.42
-13.29 0.37 0.43
-13.31 0.41 0.43
-13.21 0.44 0.44
-13.22 0.48 0.44
-13.23 0.52 0.44
-13.24 0.55 0.43
-13.22 0.59 0.44
-13.22 0.63 0.44
-13.21 0.66 0.44
-13.73 -0.30 0.39
-13.65 -0.26 0.40
-13.44 -0.22 0.42
-13.37 -0.18 0.43
-13.33 -0.14 0.43
-13.35 -0.11 0.43
-13.33 -0.07 0.43
-13.35 -0.03 0.43
-4.06 1.02 1.43
-3.87 0.72 1.39
-6.15 -0.65 0.82
-5.50 -1.57 0.79
-3.41 1.07 1.35
-3.08 1.07 1.40
-4.55 0.75 1.10
-4.78 0.85 0.95
-5.65 -1.24 0.49
-5.17 -1.02 0.59
-3.76 0.80 1.13
-4.48 0.94 0.96
-0.15 1.36 0.45
-1.57 -1.17 0.66
-3.29 0.32 0.71
-3.42 0.84 0.74
-2.82 0.96 0.68
-2.59 0.83 0.63
-3.62 -0.05 0.64
-2.73 0.82 0.56
-2.19 1.10 0.55
-2.29 0.79 0.47
-0.84 -0.90 0.48
-4.33 0.75 0.33
-3.35 0.82 0.37
-2.97 0.51 0.36
-2.89 0.65 0.36
-2.36 0.91 0.38
-1.43 0.79 0.43
-4.48 0.78 0.23
-2.51 0.95 0.30
-2.80 0.69 0.26
-3.03 0.79 0.21
-2.42 0.96 0.27
-2.44 0.67 0.26
-2.24 0.69 0.29
-2.52 0.87 0.22
-2.37 0.70 0.23
-2.34 0.75 0.23
-2.38 0.51 0.22
-2.09 0.72 0.25
-2.03 0.79 0.25
-1.95 0.78 0.25
-1.59 0.88 0.28
-1.49 0.97 0.27
-1.94 0.71 0.24
-2.01 0.84 0.21
-1.26 -0.90 0.30
-1.73 -0.57 0.30
-1.87 0.91 0.21
-1.79 0.96 0.21
-1.78 0.79 0.23
-1.54 0.58 0.30
-1.44 0.96 0.22
-0.90 -0.96 0.24
-1.58 0.77 0.22
-0.89 -0.85 0.25
-1.56 0.75 0.21
-1.71 -0.60 0.23
-0.79 -0.72 0.24
-1.17 -0.63 0.22
