# .PCD v0.7 - Point Cloud Data file format
VERSION 0.7
FIELDS x y z
SIZE 4 4 4
TYPE F F F
COUNT 1 1 1
WIDTH 219
HEIGHT 1
VIEWPOINT 0 0 0 1 0 0 0
POINTS 219
DATA ASCII
-13.76 0.01 1.12
-13.76 0.09 1.12
-13.75 0.12 1.12
-13.73 0.16 1.12
-13.72 0.20 1.12
-13.72 0.24 1.12
-13.70 0.27 1.12
-13.70 0.31 1.12
-13.70 0.39 1.12
-14.10 -0.18 1.09
-13.94 -0.14 1.11
-13.85 -0.10 1.11
-13.80 -0.07 1.11
-13.77 -0.03 1.12
-13.38 0.04 0.98
-13.35 0.08 0.99
-13.33 0.12 0.99
-13.33 0.16 0.99
-13.33 0.19 0.99
-13.32 0.23 0.99
-13.32 0.27 0.99
-13.32 0.34 0.99
-13.31 0.38 0.99
-13.31 0.41 0.99
-13.30 0.45 0.99
-13.30 0.49 0.99
-13.30 0.52 0.99
-13.30 0.56 0.98
-13.30 0.63 0.98
-13.30 0.67 0.98
-13.31 0.71 0.98
-14.97 -0.72 0.87
-14.99 -0.68 0.86
-15.08 -0.60 0.86
-15.33 -0.57 0.84
-13.92 -0.34 0.95
-13.63 -0.25 0.97
-13.56 -0.22 0.97
-13.53 -0.18 0.97
-13.52 -0.14 0.97
-13.49 -0.10 0.98
-13.49 -0.07 0.98
-13.43 -0.03 0.98
-15.85 -0.54 0.82
-13.38 0.01 0.81
-13.31 0.04 0.82
-14.73 -0.79 0.70
-14.54 -0.75 0.71
-14.64 -0.71 0.70
-14.64 -0.67 0.70
-14.62 -0.63 0.71
-14.58 -0.59 0.71
-14.26 -0.46 0.74
-14.13 -0.42 0.75
-14.21 -0.38 0.74
-13.55 -0.29 0.80
-13.49 -0.25 0.80
-13.47 -0.22 0.80
-13.51 -0.18 0.80
-13.42 -0.14 0.81
-13.41 -0.10 0.81
-13.46 -0.07 0.80
-13.43 -0.03 0.81
-15.76 -0.89 0.50
-15.67 -0.84 0.51
-15.51 -0.79 0.52
-15.44 -0.75 0.53
-14.67 -0.63 0.60
-14.29 -0.58 0.64
-14.31 -0.42 0.63
-13.55 -0.29 0.70
-13.30 0.01 0.63
-13.30 0.04 0.63
-13.29 0.08 0.63
-13.30 0.12 0.63
-13.27 0.15 0.63
-13.28 0.19 0.63
-13.26 0.23 0.63
-13.25 0.26 0.64
-13.26 0.30 0.63
-13.24 0.33 0.64
-15.71 -0.76 0.40
-15.46 -0.70 0.42
-14.55 -0.63 0.51
-15.11 -0.57 0.45
-15.55 -0.54 0.41
-13.72 -0.33 0.59
-13.45 -0.29 0.62
-13.41 -0.25 0.62
-13.37 -0.22 0.63
-13.37 -0.18 0.63
-13.34 -0.14 0.63
-13.31 -0.10 0.63
-13.31 -0.07 0.63
-13.31 -0.03 0.63
-15.88 -0.94 0.26
-15.91 -0.90 0.26
-15.98 -0.86 0.25
-13.35 0.00 0.43
-13.33 0.04 0.43
-13.32 0.11 0.43
-13.31 0.15 0.43
-13.32 0.19 0.43
-13.31 0.26 0.43
-13.31 0.30 0.43
-13.30 0.33 0.43
-13.25 0.41 0.43
-13.26 0.44 0.43
-13.25 0.48 0.43
-13.25 0.55 0.43
-13.25 0.59 0.43
-13.25 0.63 0.43
-13.24 0.70 0.43
-13.64 -0.30 0.39
-13.56 -0.26 0.40
-13.45 -0.18 0.42
-13.41 -0.14 0.42
-13.38 -0.11 0.42
-13.36 -0.03 0.42
-12.03 -0.88 0.28
-9.38 1.00 0.50
-6.14 0.48 0.93
-7.11 -0.02 0.76
-8.12 0.72 0.49
-5.92 0.40 0.85
-5.75 0.41 0.88
-6.20 0.47 0.79
-4.80 -0.45 0.80
-5.08 -0.37 0.75
-6.60 -0.00 0.59
-5.86 0.35 0.74
-6.22 0.43 0.66
-5.83 0.43 0.75
-5.87 0.49 0.74
-5.78 0.50 0.76
-5.92 0.53 0.72
-6.75 0.61 0.54
-5.17 0.66 0.88
-6.08 0.86 0.68
-5.22 0.77 0.86
-5.16 0.77 0.88
-6.09 0.91 0.67
-4.54 0.73 1.01
-6.65 1.05 0.55
-6.89 1.22 0.49
-6.95 1.27 0.48
-7.33 1.35 0.39
-5.33 -0.45 0.56
-5.25 -0.33 0.88
-5.62 0.20 0.74
-6.17 0.43 0.61
-6.38 0.51 0.49
-6.30 0.76 0.50
-4.37 -0.30 0.64
-1.25 -1.02 0.75
-2.74 0.83 0.72
-1.28 -1.45 0.66
-2.07 1.06 0.57
-2.03 1.10 0.57
-1.82 0.83 0.53
-2.85 0.47 0.46
-2.63 0.35 0.42
-2.64 0.48 0.42
-2.55 0.59 0.42
-3.87 0.17 0.35
-2.93 0.34 0.39
-3.12 0.55 0.38
-2.72 0.51 0.40
-2.89 0.64 0.39
-3.17 0.47 0.35
-3.21 0.48 0.32
-2.65 0.63 0.35
-1.91 0.80 0.39
-2.77 0.45 0.30
-2.57 0.52 0.32
-2.40 0.72 0.32
-3.26 0.49 0.22
-3.35 0.61 0.21
-2.82 0.54 0.27
-2.99 0.68 0.24
-2.49 0.63 0.30
-2.00 0.70 0.34
-1.61 0.76 0.37
-3.17 0.47 0.20
-2.79 0.46 0.25
-2.86 0.55 0.24
-3.03 0.79 0.21
-2.90 0.33 0.22
-2.69 0.43 0.24
-2.45 0.68 0.26
-1.60 0.91 0.33
-0.88 -1.58 0.31
-2.67 0.42 0.22
-2.58 0.67 0.22
-2.46 0.68 0.24
-1.70 0.90 0.31
-2.68 0.36 0.20
-2.66 0.42 0.20
-2.44 0.61 0.20
-2.40 0.65 0.21
-2.02 0.85 0.25
-1.66 0.84 0.29
-1.08 -0.85 0.34
-2.14 0.75 0.22
-1.64 0.90 0.27
-1.40 -0.98 0.30
-0.78 -1.21 0.23
-1.47 -0.92 0.27
-1.72 0.72 0.25
-1.45 -0.99 0.25
-1.86 0.75 0.20
-1.73 0.73 0.23
-1.42 -0.89 0.25
-1.50 -1.02 0.22
-1.40 -0.98 0.22
-1.47 -0.91 0.23
-1.48 0.74 0.22
-1.01 -0.81 0.23
-0.99 -0.73 0.24
