# .PCD v0.7 - Point Cloud Data file format
VERSION 0.7
FIELDS x y z
SIZE 4 4 4
TYPE F F F
COUNT 1 1 1
WIDTH 233
HEIGHT 1
VIEWPOINT 0 0 0 1 0 0 0
POINTS 233
DATA ASCII
-13.56 0.01 0.97
-13.56 0.05 0.97
-13.54 0.08 0.98
-13.53 0.12 0.98
-13.51 0.16 0.98
-13.50 0.19 0.98
-13.50 0.27 0.98
-13.50 0.31 0.98
-13.49 0.34 0.98
-13.49 0.38 0.98
-13.50 0.42 0.98
-13.49 0.45 0.98
-13.47 0.49 0.98
-13.49 0.57 0.97
-13.48 0.60 0.97
-13.49 0.64 0.97
-13.48 0.68 0.97
-13.48 0.71 0.97
-14.26 -0.30 0.92
-14.13 -0.26 0.93
-14.02 -0.22 0.94
-13.94 -0.18 0.95
-13.83 -0.14 0.95
-13.71 -0.10 0.96
-13.64 -0.07 0.97
-13.59 -0.03 0.97
-15.63 -0.57 0.83
-15.86 -0.54 0.81
-13.33 0.01 0.82
-13.27 0.04 0.82
-15.30 -0.90 0.65
-15.06 -0.85 0.67
-15.20 -0.82 0.66
-15.35 -0.78 0.65
-14.99 -0.72 0.68
-14.86 -0.68 0.69
-14.75 -0.63 0.70
-14.29 -0.46 0.74
-14.22 -0.42 0.74
-14.30 -0.38 0.74
-13.84 -0.33 0.78
-13.50 -0.29 0.81
-13.47 -0.25 0.81
-13.42 -0.22 0.81
-13.42 -0.18 0.81
-13.40 -0.14 0.81
-13.40 -0.10 0.81
-13.39 -0.07 0.81
-13.37 -0.03 0.82
-14.92 -0.89 0.58
-15.27 -0.86 0.55
-14.84 -0.76 0.59
-14.99 -0.73 0.58
-14.98 -0.68 0.58
-14.76 -0.64 0.60
-14.53 -0.59 0.62
-14.18 -0.42 0.65
-14.25 -0.38 0.64
-13.48 -0.29 0.71
-13.41 0.01 0.63
-13.35 0.04 0.63
-13.31 0.08 0.63
-13.31 0.12 0.63
-13.29 0.15 0.64
-13.30 0.19 0.63
-13.29 0.23 0.64
-13.30 0.26 0.63
-13.28 0.30 0.64
-13.28 0.34 0.64
-15.00 -0.89 0.47
-15.02 -0.85 0.47
-15.11 -0.81 0.46
-15.04 -0.77 0.47
-15.17 -0.73 0.45
-15.07 -0.69 0.46
-15.31 -0.66 0.44
-14.82 -0.60 0.49
-14.04 -0.42 0.57
-14.26 -0.38 0.54
-14.23 -0.34 0.55
-13.53 -0.29 0.62
-13.53 -0.26 0.62
-13.46 -0.22 0.62
-13.47 -0.18 0.62
-13.46 -0.14 0.62
-13.43 -0.11 0.63
-13.44 -0.07 0.62
-13.44 -0.03 0.62
-15.43 -0.70 0.31
-15.24 -0.66 0.33
-13.29 0.04 0.44
-13.27 0.08 0.44
-13.27 0.11 0.44
-13.32 0.19 0.43
-13.33 0.22 0.43
-13.35 0.26 0.43
-13.34 0.33 0.43
-13.26 0.37 0.44
-13.32 0.41 0.43
-13.34 0.48 0.43
-13.28 0.52 0.43
-13.31 0.55 0.43
-13.33 0.63 0.43
-13.35 0.67 0.42
-13.34 0.70 0.42
-13.72 -0.33 0.39
-13.44 -0.25 0.42
-13.38 -0.22 0.43
-13.32 -0.18 0.43
-13.32 -0.11 0.43
-13.34 -0.07 0.43
-13.30 -0.03 0.44
-9.08 -1.66 0.33
-6.04 -0.65 0.71
-2.53 0.48 1.54
-1.61 -0.82 1.47
-5.21 0.03 0.88
-7.40 0.69 0.40
-4.94 -0.15 0.94
-5.17 -0.07 0.89
-4.94 -0.05 0.94
-5.24 -0.04 0.88
-4.97 -0.03 0.93
-4.98 -0.01 0.93
-2.29 -0.41 1.18
-5.66 -0.38 0.35
-4.30 -0.23 0.67
-2.32 1.59 0.36
-1.88 -0.64 0.79
-2.18 1.01 0.63
-2.47 0.62 0.55
-2.28 0.78 0.52
-2.20 1.03 0.53
-13.52 -0.25 0.66
-2.72 0.44 0.46
-2.65 0.78 0.47
-13.46 -0.26 0.32
-2.86 0.48 0.42
-2.39 0.64 0.43
-2.04 0.74 0.43
-1.69 0.98 0.44
-2.37 0.70 0.41
-2.75 0.45 0.37
-2.71 0.51 0.37
-2.39 0.65 0.39
-2.88 1.00 0.35
-2.16 0.70 0.40
-2.37 0.51 0.37
-2.28 0.53 0.38
-2.46 0.68 0.36
-3.48 0.55 0.26
-2.63 0.62 0.33
-2.18 0.65 0.36
-1.92 0.82 0.37
-2.79 0.38 0.30
-2.46 0.68 0.32
-1.85 1.04 0.35
-2.79 0.38 0.28
-2.62 0.48 0.29
-2.40 0.46 0.32
-2.32 0.55 0.32
-2.13 0.81 0.32
-1.82 1.00 0.34
-1.50 0.88 0.37
-2.29 -0.54 0.33
-3.00 0.43 0.23
-2.70 0.50 0.26
-2.46 0.62 0.28
-2.25 0.64 0.30
-2.10 0.72 0.32
-2.07 0.83 0.31
-1.98 0.88 0.32
-2.22 1.23 0.27
-1.84 0.95 0.32
-1.63 0.96 0.34
-1.54 0.87 0.35
-1.38 0.90 0.36
-2.90 0.26 0.22
-2.38 0.78 0.26
-2.06 1.05 0.28
-1.90 0.94 0.30
-1.77 0.86 0.32
-1.63 0.96 0.32
-1.53 0.96 0.33
-2.70 0.58 0.21
-2.56 0.66 0.22
-1.98 0.74 0.30
-1.84 0.87 0.30
-1.87 1.08 0.27
-1.49 0.85 0.33
-2.55 0.59 0.21
-2.40 0.72 0.22
-2.09 0.71 0.27
-1.79 0.88 0.29
-1.66 0.84 0.31
-2.30 -0.54 0.26
-2.36 0.70 0.21
-2.22 0.68 0.23
-2.25 0.77 0.22
-1.66 0.70 0.31
-1.82 1.10 0.24
-1.54 1.11 0.26
-2.24 0.76 0.20
-2.12 0.74 0.23
-2.06 0.75 0.23
-2.11 0.87 0.21
-1.93 0.76 0.25
-1.91 0.88 0.24
-1.58 0.87 0.28
-1.08 -0.88 0.33
-2.13 0.74 0.21
-2.00 0.70 0.23
-1.97 0.80 0.23
-1.91 0.88 0.22
-1.86 0.90 0.23
-2.04 0.74 0.20
-2.00 0.76 0.21
-1.85 0.69 0.25
-1.77 0.78 0.24
-1.71 1.02 0.21
-1.59 0.88 0.25
-1.56 0.91 0.25
-1.87 0.76 0.22
-1.74 0.88 0.22
-1.71 0.92 0.21
-1.65 0.90 0.22
-1.57 -0.85 0.26
-1.57 0.77 0.25
-1.69 0.74 0.22
-1.67 0.85 0.20
-1.25 -0.82 0.26
-0.90 -0.71 0.23
-1.05 -0.78 0.21
