# .PCD v0.7 - Point Cloud Data file format
VERSION 0.7
FIELDS x y z
SIZE 4 4 4
TYPE F F F
COUNT 1 1 1
WIDTH 177
HEIGHT 1
VIEWPOINT 0 0 0 1 0 0 0
POINTS 177
DATA ASCII
-13.26 0.02 1.00
-13.25 0.05 1.00
-13.26 0.09 1.00
-13.25 0.13 1.00
-13.25 0.16 1.00
-13.24 0.20 1.00
-13.23 0.24 1.00
-13.23 0.27 1.00
-13.23 0.31 1.00
-13.23 0.35 1.00
-13.23 0.38 1.00
-13.23 0.42 1.00
-13.22 0.45 1.00
-13.22 0.49 1.00
-13.23 0.53 1.00
-13.22 0.56 1.00
-13.23 0.60 1.00
-13.21 0.64 1.00
-13.22 0.67 1.00
-6.00 -1.06 1.56
-13.71 -0.32 0.97
-13.48 -0.24 0.99
-13.39 -0.20 1.00
-13.34 -0.17 1.00
-13.31 -0.13 1.00
-13.31 -0.09 1.00
-13.29 -0.06 1.00
-13.28 -0.02 1.00
-15.85 1.55 0.78
-15.87 1.59 0.78
-15.72 1.62 0.79
-15.96 1.68 0.77
-13.05 0.02 0.85
-13.04 0.05 0.85
-15.69 1.54 0.71
-15.68 1.57 0.71
-15.70 1.62 0.70
-15.95 1.68 0.68
-14.02 -0.64 0.77
-14.02 -0.60 0.77
-13.97 -0.56 0.77
-13.69 -0.43 0.80
-13.27 -0.39 0.83
-13.19 -0.35 0.84
-13.13 -0.31 0.85
-13.12 -0.27 0.85
-13.09 -0.24 0.85
-13.08 -0.20 0.85
-13.07 -0.16 0.85
-13.05 -0.13 0.85
-13.03 -0.09 0.85
-12.99 -0.06 0.86
-13.03 -0.02 0.85
-15.36 1.54 0.64
-15.66 1.61 0.61
-14.02 -0.64 0.67
-14.20 -0.60 0.66
-14.29 -0.57 0.65
-13.54 -0.43 0.72
-13.21 -0.39 0.75
-13.14 -0.35 0.75
-13.15 -0.31 0.75
-13.22 -0.28 0.75
-13.00 0.01 0.67
-13.01 0.05 0.67
-13.01 0.09 0.67
-13.02 0.12 0.67
-13.04 0.16 0.67
-13.04 0.19 0.67
-13.04 0.23 0.67
-13.03 0.27 0.67
-13.03 0.30 0.67
-13.04 0.34 0.67
-14.38 -0.57 0.54
-14.73 -0.54 0.50
-13.25 -0.39 0.65
-13.26 -0.35 0.65
-13.19 -0.31 0.66
-13.19 -0.28 0.66
-13.19 -0.24 0.66
-13.14 -0.20 0.66
-13.12 -0.17 0.66
-13.13 -0.13 0.66
-13.09 -0.09 0.67
-13.05 -0.06 0.67
-13.02 -0.02 0.67
-9.92 -0.31 1.04
-12.95 0.01 0.48
-12.95 0.05 0.48
-12.96 0.08 0.48
-12.97 0.12 0.48
-12.95 0.16 0.48
-12.95 0.19 0.48
-12.94 0.23 0.48
-12.94 0.26 0.48
-12.94 0.30 0.48
-12.93 0.33 0.48
-12.93 0.37 0.48
-12.93 0.41 0.48
-12.92 0.44 0.48
-12.95 0.48 0.48
-12.96 0.51 0.48
-12.96 0.55 0.48
-12.95 0.59 0.48
-12.95 0.62 0.48
-12.96 0.66 0.47
-13.47 -0.43 0.43
-13.17 -0.39 0.46
-13.07 -0.35 0.47
-13.03 -0.31 0.48
-13.02 -0.27 0.48
-13.02 -0.24 0.48
-13.02 -0.20 0.48
-13.02 -0.17 0.48
-13.00 -0.13 0.48
-12.98 -0.09 0.48
-12.96 -0.06 0.48
-12.95 -0.02 0.48
-13.23 0.01 0.24
-13.17 0.05 0.25
-9.77 -0.33 0.68
-13.42 -0.39 0.22
-13.34 -0.36 0.23
-13.33 -0.32 0.23
-13.41 -0.28 0.22
-13.46 -0.25 0.21
-13.38 -0.06 0.22
-13.54 -0.03 0.20
-9.73 -0.02 0.51
-9.99 0.25 0.57
-7.90 1.08 0.72
-7.00 0.31 0.76
-7.35 0.33 0.56
-8.33 0.58 0.36
-2.34 0.90 0.63
-2.02 0.85 0.59
-2.74 1.01 0.62
-1.91 -0.67 0.56
-3.28 0.59 0.62
-2.64 0.55 0.51
-2.84 0.55 0.49
-2.55 0.66 0.44
-2.15 0.76 0.41
-3.17 0.95 0.34
-2.27 0.77 0.39
-1.61 0.82 0.42
-3.41 -0.05 0.31
-2.88 0.33 0.32
-2.60 0.68 0.33
-2.79 0.85 0.26
-3.04 0.70 0.21
-2.84 0.71 0.23
-2.72 0.90 0.24
-1.62 0.94 0.34
-2.10 0.79 0.29
-1.68 0.96 0.32
-2.57 0.98 0.20
-2.07 0.90 0.27
-2.09 1.09 0.25
-2.02 0.85 0.26
-2.18 0.53 0.25
-1.96 0.80 0.26
-2.14 0.75 0.22
-2.07 0.76 0.23
-1.98 0.75 0.25
-2.06 0.89 0.22
-1.98 0.81 0.20
-1.93 0.83 0.21
-1.88 0.84 0.22
-1.58 0.96 0.24
-1.84 -0.40 0.29
-1.68 0.73 0.25
-1.65 0.83 0.22
-1.69 0.75 0.22
-1.60 0.74 0.22
-1.29 -0.85 0.21
-1.18 -0.85 0.20
