# .PCD v0.7 - Point Cloud Data file format
VERSION 0.7
FIELDS x y z
SIZE 4 4 4
TYPE F F F
COUNT 1 1 1
WIDTH 116
HEIGHT 1
VIEWPOINT 0 0 0 1 0 0 0
POINTS 116
DATA ASCII
-1.38 1.31 0.78
-1.19 -0.83 0.62
-1.92 0.74 0.62
-1.91 0.80 0.61
-1.44 0.94 0.60
-1.79 0.80 0.58
-1.27 -0.92 0.54
-2.50 0.85 0.53
-2.10 0.78 0.52
-2.08 0.83 0.52
-2.94 0.58 0.51
-3.09 0.72 0.52
-1.56 0.91 0.49
-1.48 0.93 0.49
-2.34 0.90 0.46
-2.03 0.79 0.47
-1.70 0.54 0.47
-2.77 0.68 0.44
-1.57 -0.63 0.46
-2.21 0.67 0.43
-1.82 -0.77 0.43
-1.83 0.29 0.37
-2.36 0.77 0.26
-1.66 0.59 0.36
-2.39 0.65 0.23
-2.20 0.73 0.25
-1.96 0.86 0.27
-1.80 0.89 0.28
-1.34 0.62 0.36
-2.35 0.56 0.22
-2.28 0.72 0.22
-2.16 0.77 0.23
-1.85 0.81 0.27
-1.91 0.96 0.24
-1.77 0.85 0.28
-1.72 0.86 0.28
-1.47 0.64 0.34
-2.19 0.79 0.21
-2.08 0.84 0.22
-1.74 0.82 0.27
-1.56 0.61 0.32
-1.41 0.59 0.34
-1.39 0.59 0.34
-0.77 -0.63 0.34
-2.02 0.79 0.22
-1.94 0.77 0.23
-1.84 0.79 0.25
-1.90 0.95 0.21
-1.40 0.63 0.33
-1.37 0.62 0.33
-1.69 0.53 0.29
-1.87 0.76 0.23
-1.86 0.90 0.21
-1.73 0.80 0.24
-1.71 1.01 0.21
-1.35 0.67 0.31
-0.85 -0.61 0.33
-1.81 0.84 0.21
-1.72 0.86 0.22
-1.56 0.74 0.27
-1.61 0.94 0.22
-1.52 0.84 0.25
-0.90 -0.57 0.33
-0.85 -0.87 0.26
-1.79 0.81 0.21
-1.67 0.86 0.21
-1.63 0.87 0.22
-1.42 0.60 0.30
-0.82 -0.60 0.31
-0.87 -0.63 0.30
-0.92 -0.59 0.32
-0.95 -0.59 0.32
-1.30 -0.70 0.29
-1.61 0.75 0.23
-1.43 0.63 0.28
-1.39 0.60 0.30
-1.33 0.61 0.30
-1.28 0.60 0.31
-0.86 -0.59 0.30
-1.00 -0.60 0.31
-0.99 -0.73 0.28
-1.52 0.68 0.25
-1.52 0.83 0.21
-1.33 0.60 0.29
-0.82 -0.60 0.29
-0.86 -0.59 0.29
-1.00 -0.58 0.31
-1.32 -0.67 0.28
-1.76 0.60 0.21
-1.41 0.59 0.27
-1.31 0.60 0.28
-1.28 0.61 0.29
-0.88 -0.88 0.21
-0.95 -0.92 0.20
-1.04 -0.84 0.23
-1.36 -0.59 0.28
-1.48 0.61 0.25
-1.45 0.61 0.26
-1.40 0.62 0.26
-0.83 -0.65 0.26
-0.93 -0.55 0.29
-1.05 -0.48 0.32
-1.06 -0.68 0.26
-1.94 0.02 0.20
-0.93 -0.55 0.28
-0.99 -0.52 0.30
-1.04 -0.68 0.25
-1.07 -0.65 0.25
-1.18 -0.75 0.22
-1.86 0.10 0.20
-0.95 -0.56 0.26
-0.98 -0.57 0.26
-1.05 -0.47 0.30
-1.27 -0.69 0.22
-1.63 -0.51 0.20
-1.20 -0.54 0.24
