# .PCD v0.7 - Point Cloud Data file format
VERSION 0.7
FIELDS x y z
SIZE 4 4 4
TYPE F F F
COUNT 1 1 1
WIDTH 301
HEIGHT 1
VIEWPOINT 0 0 0 1 0 0 0
POINTS 301
DATA ASCII
-6.57 1.62 2.24
-2.69 0.80 0.83
-1.87 1.29 0.79
-1.84 0.67 0.64
-1.89 0.92 0.68
-1.99 0.97 0.68
-2.13 0.88 0.67
-2.16 0.83 0.65
-1.91 0.88 0.61
-1.62 0.58 0.56
-1.73 0.86 0.60
-2.07 0.82 0.60
-1.71 0.55 0.55
-2.03 0.93 0.61
-1.61 0.62 0.55
-1.75 0.89 0.59
-1.46 0.86 0.57
-2.92 0.83 0.65
-1.92 0.82 0.58
-1.87 0.82 0.57
-1.73 0.72 0.56
-1.55 0.60 0.54
-1.47 0.89 0.57
-1.52 -0.91 0.57
-2.43 0.74 0.59
-2.46 0.91 0.60
-1.80 0.69 0.55
-1.81 0.89 0.56
-1.73 0.87 0.56
-1.68 0.87 0.56
-1.65 0.89 0.56
-1.46 0.69 0.53
-2.74 0.74 0.58
-2.50 0.78 0.57
-1.92 0.69 0.54
-1.94 0.77 0.54
-1.93 0.82 0.55
-1.87 0.83 0.54
-1.85 0.88 0.55
-1.70 0.75 0.53
-1.49 0.62 0.52
-1.52 0.91 0.54
-2.02 -0.92 0.56
-2.73 0.74 0.56
-2.33 0.62 0.54
-2.46 0.76 0.55
-2.33 0.82 0.54
-2.17 0.77 0.54
-2.17 0.84 0.54
-2.01 0.77 0.53
-2.02 0.85 0.53
-1.70 0.58 0.51
-1.86 0.82 0.53
-1.73 0.73 0.52
-1.75 0.90 0.53
-1.49 0.61 0.51
-2.73 0.59 0.53
-2.17 0.84 0.52
-1.80 0.69 0.51
-1.65 0.63 0.50
-1.67 0.85 0.51
-1.64 0.88 0.51
-1.58 0.85 0.51
-1.56 0.91 0.51
-2.21 0.74 0.50
-2.11 0.72 0.50
-2.13 0.80 0.50
-1.91 0.74 0.50
-1.66 0.58 0.49
-1.69 0.89 0.50
-1.58 0.77 0.49
-1.39 0.93 0.50
-2.55 0.73 0.48
-2.59 0.83 0.49
-2.38 0.78 0.48
-2.44 0.89 0.49
-2.21 0.80 0.48
-1.75 0.54 0.48
-1.96 0.79 0.48
-1.62 0.59 0.48
-1.68 0.73 0.48
-1.58 0.65 0.48
-1.57 0.75 0.48
-1.61 0.92 0.49
-1.68 -0.96 0.49
-2.60 0.83 0.46
-2.16 0.76 0.46
-2.06 0.82 0.47
-1.80 0.64 0.47
-1.65 0.58 0.47
-1.83 0.85 0.47
-1.57 0.75 0.47
-1.56 0.92 0.47
-1.51 0.89 0.47
-0.84 -0.63 0.48
-3.15 0.56 0.43
-2.45 0.82 0.44
-1.90 0.86 0.45
-1.78 0.87 0.45
-1.60 0.90 0.46
-1.44 0.63 0.46
-0.99 -0.55 0.47
-1.59 0.61 0.45
-1.46 -0.69 0.44
-1.61 -0.63 0.44
-2.36 0.70 0.39
-2.71 0.65 0.25
-2.43 0.81 0.27
-2.80 0.70 0.21
-2.68 0.72 0.22
-1.77 0.56 0.35
-2.42 0.73 0.24
-1.93 0.64 0.31
-1.98 0.75 0.29
-2.06 0.89 0.27
-1.57 0.63 0.35
-1.48 0.60 0.36
-2.49 0.70 0.21
-2.43 0.74 0.21
-2.35 0.76 0.22
-2.17 0.71 0.25
-2.11 0.73 0.26
-2.07 0.76 0.26
-2.08 0.83 0.26
-2.00 0.83 0.27
-1.91 0.81 0.28
-1.69 0.89 0.29
-1.33 0.59 0.37
-1.02 -1.05 0.31
-2.38 0.71 0.20
-2.25 0.70 0.22
-1.91 0.52 0.30
-2.13 0.74 0.24
-2.11 0.80 0.24
-1.98 0.74 0.26
-1.83 0.67 0.29
-1.65 0.58 0.33
-1.63 0.61 0.33
-1.52 0.61 0.34
-1.49 0.61 0.34
-1.46 0.70 0.33
-1.39 0.60 0.35
-1.32 0.65 0.35
-2.22 0.68 0.21
-2.21 0.73 0.21
-2.12 0.73 0.22
-1.94 0.65 0.26
-2.06 0.82 0.22
-1.75 0.58 0.30
-1.89 0.79 0.25
-1.84 0.80 0.26
-1.65 0.62 0.31
-1.57 0.58 0.33
-1.55 0.60 0.33
-1.49 0.61 0.33
-1.46 0.62 0.33
-1.55 0.89 0.28
-1.40 0.63 0.34
-1.36 0.61 0.34
-2.12 0.68 0.21
-2.11 0.73 0.21
-2.03 0.73 0.22
-1.95 0.78 0.23
-1.90 0.80 0.24
-1.83 0.78 0.25
-1.64 0.61 0.30
-1.73 0.79 0.26
-1.51 0.54 0.33
-1.52 0.60 0.32
-1.50 0.63 0.32
-1.46 0.62 0.32
-1.40 0.61 0.33
-1.42 0.91 0.27
-1.32 0.64 0.33
-0.74 -0.75 0.30
-0.96 -0.89 0.29
-1.11 -1.00 0.27
-2.27 0.12 0.21
-1.96 0.73 0.22
-1.90 0.80 0.22
-1.70 0.64 0.28
-1.64 0.62 0.29
-1.58 0.60 0.30
-1.55 0.60 0.31
-1.49 0.62 0.31
-1.44 0.59 0.32
-1.44 0.64 0.31
-1.42 0.91 0.26
-0.94 -0.60 0.34
-0.87 -0.93 0.27
-0.88 -1.07 0.24
-1.15 -0.80 0.30
-1.79 0.58 0.26
-1.82 0.66 0.24
-1.75 0.70 0.24
-1.65 0.63 0.27
-1.59 0.61 0.29
-1.52 0.61 0.30
-1.49 0.61 0.30
-1.44 0.59 0.31
-1.43 0.63 0.30
-1.40 0.63 0.31
-0.84 -0.63 0.31
-0.92 -0.90 0.26
-1.30 -0.89 0.26
-1.83 0.67 0.22
-1.83 0.79 0.20
-1.78 0.79 0.21
-1.67 0.72 0.24
-1.56 0.62 0.28
-1.47 0.53 0.31
-1.49 0.61 0.29
-1.43 0.63 0.29
-1.39 0.60 0.30
-1.28 0.61 0.31
-0.85 -0.60 0.31
-0.84 -0.89 0.24
-1.00 -0.72 0.29
-1.36 -0.82 0.26
-1.70 0.58 0.25
-1.63 0.61 0.26
-1.67 0.72 0.23
-1.51 0.59 0.28
-1.48 0.60 0.28
-1.46 0.62 0.28
-1.39 0.60 0.30
-0.84 -0.62 0.29
-0.89 -0.58 0.31
-0.90 -0.83 0.25
-1.04 -0.89 0.24
-1.33 -0.84 0.24
-1.79 0.63 0.21
-1.75 0.70 0.20
-1.61 0.63 0.24
-1.54 0.58 0.27
-1.59 0.72 0.23
-1.45 0.60 0.28
-1.43 0.62 0.28
-1.43 0.69 0.26
-1.34 0.64 0.28
-1.30 0.58 0.30
-0.88 -0.76 0.25
-1.00 -0.72 0.27
-1.08 -0.85 0.24
-1.11 -0.87 0.23
-1.56 0.61 0.25
-1.52 0.61 0.25
-1.50 0.64 0.25
-1.43 0.62 0.27
-1.39 0.59 0.28
-1.36 0.60 0.28
-1.08 -0.87 0.22
-1.15 -0.88 0.21
-1.18 -0.79 0.24
-1.22 -0.78 0.24
-1.28 -0.76 0.24
-1.55 0.67 0.22
-1.48 0.59 0.25
-1.49 0.76 0.21
-1.41 0.67 0.24
-1.29 0.64 0.27
-0.87 -0.57 0.28
-0.85 -0.75 0.23
-1.00 -0.70 0.25
-1.15 -0.79 0.23
-1.31 -0.76 0.23
-1.54 0.71 0.20
-1.47 0.64 0.23
-1.39 0.61 0.25
-1.36 0.61 0.26
-1.31 0.64 0.25
-0.90 -0.62 0.26
-0.98 -0.58 0.28
-1.12 -0.80 0.21
-1.25 -0.77 0.22
-1.43 0.63 0.23
-1.38 0.65 0.23
-1.04 -0.67 0.24
-1.15 -0.78 0.21
-1.28 -0.75 0.21
-1.41 0.66 0.21
-1.31 0.62 0.24
-0.97 -0.70 0.22
-1.00 -0.70 0.22
-1.07 -0.65 0.24
-1.10 -0.64 0.24
-1.26 0.63 0.23
-1.09 -0.69 0.22
-1.15 -0.57 0.26
-1.29 -0.66 0.22
-1.50 -0.53 0.23
-1.23 -0.66 0.21
-1.35 -0.58 0.23
-1.75 0.19 0.21
-1.36 -0.61 0.21
-1.11 -0.36 0.31
-1.19 -0.49 0.22
-0.82 -0.01 0.20
-0.84 -0.06 0.21
-0.86 -0.15 0.21
-1.21 -0.04 0.24
