# .PCD v0.7 - Point Cloud Data file format
VERSION 0.7
FIELDS x y z
SIZE 4 4 4
TYPE F F F
COUNT 1 1 1
WIDTH 1278
HEIGHT 1
VIEWPOINT 0 0 0 1 0 0 0
POINTS 1278
DATA ASCII
-9.04 0.15 1.93
-8.55 0.19 1.89
-10.69 0.34 1.82
-10.53 0.36 1.82
-14.31 0.34 1.60
-10.42 0.46 1.75
-10.09 0.47 1.68
-8.40 0.07 1.68
-8.68 0.14 1.67
-10.23 0.82 1.58
-8.44 0.16 1.60
-10.60 0.31 1.46
-9.05 0.29 1.56
-8.80 0.08 1.48
-8.50 0.18 1.50
-8.72 0.21 1.48
-8.45 0.23 1.50
-8.66 0.25 1.49
-8.55 0.32 1.49
-14.19 0.54 1.08
-9.30 -0.28 1.45
-13.26 -0.22 1.16
-8.44 0.07 1.41
-8.61 0.14 1.39
-8.39 0.18 1.41
-8.77 0.21 1.38
-8.56 0.25 1.39
-8.57 0.27 1.39
-13.69 0.59 0.96
-9.21 0.03 1.23
-9.02 0.05 1.25
-8.96 0.08 1.25
-9.22 0.10 1.23
-9.23 0.12 1.23
-8.72 0.34 1.27
-4.31 0.60 1.69
-8.62 0.11 1.11
-8.46 0.24 1.13
-8.78 0.25 1.21
-4.33 0.60 1.65
-4.45 0.62 1.64
-4.25 0.61 1.66
-4.14 0.62 1.67
-6.59 -0.68 1.32
-6.36 -0.65 1.34
-9.76 -0.79 1.00
-7.18 -0.55 1.26
-7.36 -0.54 1.24
-7.14 -0.48 1.26
-6.75 -0.44 1.30
-7.06 -0.35 1.27
-7.78 -0.25 1.20
-8.60 -0.25 1.12
-7.87 -0.16 1.19
-8.51 -0.07 1.12
-8.44 -0.02 1.13
-8.89 0.03 1.14
-8.92 0.07 1.14
-9.18 0.10 1.11
-8.96 0.17 1.13
-9.14 0.22 1.11
-8.83 0.23 1.14
-8.69 0.25 1.16
-8.63 0.27 1.16
-8.78 0.30 1.15
-8.88 0.33 1.14
-8.85 0.35 1.14
-8.73 0.39 1.15
-4.23 0.60 1.63
-6.25 -0.76 1.30
-6.81 -0.74 1.24
-6.51 -0.68 1.27
-6.49 -0.66 1.27
-6.48 -0.63 1.27
-6.78 -0.64 1.24
-6.71 -0.61 1.25
-6.76 -0.59 1.24
-7.23 -0.60 1.19
-7.00 -0.56 1.22
-7.10 -0.55 1.21
-7.15 -0.53 1.20
-7.20 -0.51 1.20
-8.66 -0.08 1.16
-9.23 -0.04 1.10
-6.89 -0.60 1.17
-6.78 -0.49 1.18
-9.00 -0.37 0.93
-7.07 -0.22 1.15
-8.52 -0.15 0.98
-8.70 -0.12 0.96
-8.67 -0.10 0.97
-12.65 0.36 0.55
-2.71 0.14 1.76
-8.94 0.44 1.00
-10.87 -1.46 0.63
-10.64 -1.28 0.66
-10.51 -1.23 0.68
-10.62 -1.21 0.66
-10.78 -1.20 0.64
-10.12 -1.05 0.72
-6.87 -0.64 1.11
-6.89 -0.54 1.11
-6.90 -0.51 1.11
-8.39 0.03 0.85
-8.72 0.32 0.96
-5.48 0.64 1.37
-5.59 0.68 1.36
-5.60 0.99 1.35
-5.74 1.05 1.33
-10.80 -1.51 0.55
-10.92 -1.46 0.53
-10.92 -1.43 0.53
-10.85 -1.36 0.54
-6.04 -0.80 1.15
-5.70 -0.75 1.19
-5.63 -0.70 1.20
-5.77 -0.70 1.18
-5.68 -0.67 1.20
-5.88 -0.67 1.17
-6.23 -0.66 1.13
-6.80 -0.62 1.05
-7.29 -0.58 0.99
-7.10 -0.55 1.02
-6.89 -0.51 1.04
-6.74 -0.48 1.06
-6.73 -0.46 1.06
-6.71 -0.44 1.07
-6.72 -0.42 1.07
-6.80 -0.40 1.05
-9.13 -0.48 0.76
-7.33 -0.38 0.99
-6.54 -0.31 1.09
-7.10 -0.30 1.02
-6.93 -0.28 1.04
-7.07 -0.26 1.02
-7.11 -0.24 1.02
-8.37 -0.25 0.86
-8.52 -0.22 0.84
-8.56 -0.20 0.83
-6.94 -0.15 1.04
-8.91 -0.15 0.79
-7.55 -0.02 0.96
-11.02 0.06 0.59
-9.05 0.14 0.85
-11.76 0.21 0.49
-8.93 0.23 0.87
-8.66 0.25 0.90
-8.57 0.27 0.92
-8.54 0.31 0.92
-6.99 0.28 1.13
-6.75 0.29 1.16
-6.74 0.32 1.16
-6.50 0.33 1.19
-9.41 0.49 0.80
-9.61 0.59 0.77
-9.51 0.61 0.78
-5.37 0.65 1.34
-5.36 0.66 1.34
-5.33 0.67 1.34
-11.12 -1.58 0.41
-11.31 -1.51 0.39
-11.02 -1.41 0.43
-10.88 -1.36 0.45
-10.91 -1.34 0.44
-5.39 -0.74 1.18
-5.66 -0.75 1.14
-5.77 -0.74 1.13
-5.66 -0.71 1.14
-5.57 -0.68 1.15
-5.77 -0.68 1.13
-5.88 -0.67 1.11
-5.76 -0.64 1.13
-5.60 -0.61 1.15
-5.58 -0.59 1.15
-6.14 -0.61 1.08
-6.48 -0.62 1.03
-6.72 -0.61 1.00
-7.06 -0.61 0.96
-6.25 -0.54 1.06
-6.04 -0.51 1.09
-7.24 -0.56 0.93
-7.35 -0.54 0.92
-7.20 -0.51 0.94
-6.72 -0.46 1.00
-6.65 -0.44 1.01
-6.80 -0.42 0.99
-6.86 -0.40 0.98
-6.69 -0.38 1.00
-6.68 -0.35 1.01
-6.70 -0.33 1.00
-6.75 -0.32 1.00
-7.05 -0.30 0.96
-6.74 -0.27 1.00
-6.60 -0.25 1.02
-6.97 -0.24 0.97
-6.90 -0.21 0.98
-7.86 -0.21 0.85
-7.40 -0.18 0.91
-8.42 -0.17 0.77
-7.23 -0.11 1.10
-8.97 -0.09 0.87
-8.99 -0.07 0.86
-8.81 -0.04 0.89
-7.46 -0.02 1.07
-7.67 0.00 0.80
-6.71 0.02 0.93
-8.59 0.06 0.67
-6.86 0.07 0.91
-7.23 0.09 0.86
-7.81 0.12 0.78
-6.44 0.13 0.97
-6.76 0.15 0.93
-6.34 0.19 0.99
-6.42 0.21 0.97
-8.28 0.30 0.89
-6.67 0.28 1.12
-5.33 0.51 1.30
-5.24 0.53 1.32
-5.30 0.56 1.31
-5.44 0.59 1.29
-5.34 0.63 1.30
-5.40 0.65 1.29
-5.52 0.68 1.27
-5.48 0.69 1.28
-11.06 -1.60 0.33
-11.10 -1.51 0.32
-10.87 -1.39 0.35
-10.87 -1.36 0.35
-5.46 -0.78 1.11
-10.90 -1.30 0.35
-10.71 -1.25 0.38
-10.80 -1.23 0.36
-5.46 -0.71 1.11
-5.47 -0.69 1.11
-5.54 -0.68 1.10
-5.53 -0.66 1.10
-5.45 -0.63 1.12
-5.41 -0.61 1.12
-5.62 -0.61 1.09
-5.63 -0.59 1.09
-5.54 -0.57 1.10
-7.48 -0.69 0.83
-7.09 -0.64 0.89
-7.18 -0.62 0.87
-7.73 -0.63 0.79
-7.57 -0.60 0.82
-7.58 -0.58 0.82
-7.03 -0.52 0.89
-7.73 -0.54 0.79
-6.90 -0.47 0.91
-7.33 -0.47 0.85
-6.90 -0.43 0.91
-6.60 -0.39 0.95
-6.46 -0.37 0.97
-6.82 -0.36 0.92
-6.96 -0.35 0.90
-6.73 -0.32 0.93
-6.81 -0.30 0.92
-6.58 -0.27 0.96
-6.69 -0.25 0.94
-6.65 -0.23 0.95
-6.60 -0.21 0.95
-7.06 -0.19 0.89
-6.96 -0.17 0.90
-8.24 -0.17 0.72
-7.58 -0.14 0.81
-6.85 -0.10 0.92
-8.18 -0.07 0.73
-6.50 -0.04 0.97
-7.55 -0.02 0.82
-8.46 0.00 0.80
-8.43 0.02 0.80
-8.10 0.04 0.85
-11.63 0.09 0.32
-6.37 0.09 1.11
-6.74 0.11 1.05
-6.41 0.12 1.10
-6.31 0.14 1.12
-6.46 0.16 1.09
-6.35 0.17 1.11
-6.29 0.19 1.12
-6.41 0.21 1.10
-6.67 0.23 1.06
-6.33 0.24 1.11
-6.37 0.26 1.11
-8.84 0.39 0.73
-9.19 0.43 0.68
-9.36 0.48 0.65
-9.20 0.55 0.68
-5.23 0.36 1.28
-9.04 0.65 0.70
-5.46 0.46 1.24
-9.23 0.79 0.67
-5.31 0.54 1.26
-5.39 0.56 1.25
-5.59 0.61 1.22
-5.59 0.62 1.22
-5.41 0.66 1.24
-5.27 0.66 1.26
-5.40 0.69 1.24
-5.35 0.70 1.25
-11.19 -1.65 0.20
-11.20 -1.59 0.20
-11.02 -1.54 0.23
-11.00 -1.50 0.23
-10.92 -1.46 0.24
-10.82 -1.42 0.26
-10.85 -1.39 0.25
-10.79 -1.36 0.26
-3.91 -0.62 1.28
-5.55 -0.77 1.04
-5.49 -0.75 1.05
-5.49 -0.73 1.05
-5.49 -0.71 1.05
-5.48 -0.69 1.05
-5.52 -0.68 1.04
-5.39 -0.65 1.06
-5.57 -0.64 1.04
-5.50 -0.62 1.05
-5.52 -0.60 1.04
-5.50 -0.58 1.05
-5.55 -0.57 1.04
-5.60 -0.55 1.03
-5.55 -0.53 1.04
-5.54 -0.51 1.04
-7.53 -0.62 0.75
-7.52 -0.60 0.75
-7.29 -0.56 0.78
-7.46 -0.55 0.76
-6.74 -0.49 0.86
-7.84 -0.52 0.70
-8.98 -0.55 0.53
-7.07 -0.44 0.82
-7.46 -0.43 0.76
-6.76 -0.38 0.86
-6.60 -0.35 0.88
-6.66 -0.33 0.88
-6.95 -0.32 0.83
-6.96 -0.24 1.02
-4.19 -0.14 1.44
-7.16 -0.20 0.99
-8.78 -0.22 0.75
-8.79 -0.20 0.75
-7.35 -0.15 0.96
-7.47 -0.13 0.95
-8.37 -0.13 0.81
-8.69 -0.11 0.76
-8.63 -0.09 0.77
-8.02 -0.06 0.86
-8.55 -0.04 0.78
-11.73 -0.03 0.30
-7.47 0.00 0.69
-7.68 0.03 0.65
-8.31 0.05 0.55
-7.26 0.09 0.72
-7.42 0.14 0.69
-7.55 0.19 0.67
-7.13 0.20 0.74
-7.36 0.32 0.70
-6.68 0.34 0.80
-7.12 0.38 0.73
-6.62 0.38 0.81
-8.96 0.46 0.65
-8.95 0.48 0.65
-8.97 0.55 0.64
-9.16 0.64 0.61
-9.28 0.67 0.59
-5.66 -0.69 0.97
-5.69 -0.64 0.96
-5.67 -0.58 0.97
-7.20 -0.67 0.73
-7.19 -0.64 0.73
-7.12 -0.62 0.74
-7.41 -0.59 0.70
-6.89 -0.52 0.78
-6.91 -0.50 0.77
-6.63 -0.44 0.82
-8.99 -0.53 0.45
-8.23 -0.47 0.57
-7.45 -0.41 0.69
-6.81 -0.34 0.79
-7.17 -0.33 0.73
-8.83 -0.36 0.48
-6.79 -0.28 0.79
-7.02 -0.26 0.76
-6.99 -0.22 0.76
-6.83 -0.17 0.79
-6.79 -0.15 0.79
-8.62 -0.15 0.51
-8.09 -0.12 0.59
-7.66 -0.09 0.66
-7.27 -0.04 0.72
-7.60 0.00 0.80
-7.04 0.02 0.89
-7.87 0.04 0.75
-8.09 0.06 0.71
-8.39 0.09 0.67
-8.17 0.11 0.70
-7.59 0.12 0.80
-6.79 0.14 0.93
-7.19 0.17 0.86
-7.58 0.20 0.80
-7.84 0.23 0.75
-8.08 0.25 0.71
-8.32 0.28 0.67
-8.62 0.31 0.62
-8.32 0.32 0.67
-8.82 0.39 0.59
-5.98 0.29 1.06
-5.86 0.30 1.08
-5.47 0.30 1.14
-8.87 0.48 0.58
-9.16 0.52 0.53
-5.55 0.35 1.13
-9.23 0.57 0.52
-9.26 0.60 0.51
-9.56 0.64 0.46
-9.23 0.64 0.52
-9.37 0.68 0.49
-9.10 0.78 0.53
-4.81 0.74 1.24
-7.57 -1.30 0.59
-7.43 -1.26 0.61
-7.50 -1.25 0.60
-7.45 -1.19 0.61
-7.87 -1.12 0.54
-7.48 -0.99 0.60
-7.60 -0.98 0.59
-7.52 -0.95 0.60
-7.43 -0.91 0.61
-7.70 -0.92 0.57
-7.67 -0.89 0.58
-7.48 -0.85 0.61
-5.75 -0.68 0.89
-7.46 -0.80 0.61
-5.70 -0.64 0.90
-7.43 -0.75 0.61
-7.43 -0.73 0.61
-7.25 -0.69 0.64
-7.16 -0.67 0.66
-7.08 -0.64 0.67
-7.23 -0.63 0.65
-7.26 -0.61 0.64
-7.20 -0.58 0.65
-6.84 -0.54 0.71
-7.29 -0.54 0.64
-9.47 -0.53 0.49
-9.70 -0.52 0.45
-10.01 -0.51 0.40
-9.81 -0.47 0.43
-9.61 -0.44 0.47
-9.63 -0.42 0.47
-9.77 -0.40 0.44
-9.14 -0.35 0.54
-7.59 -0.28 0.80
-9.40 -0.31 0.50
-7.37 -0.23 0.84
-7.20 -0.21 0.87
-9.82 -0.25 0.43
-9.38 -0.22 0.50
-8.79 -0.18 0.60
-6.85 -0.12 0.92
-8.69 -0.13 0.62
-8.85 -0.11 0.59
-7.66 -0.08 0.79
-8.78 -0.07 0.60
-7.18 -0.04 0.87
-7.66 -0.02 0.79
-7.38 0.00 0.54
-7.36 0.02 0.55
-7.60 0.05 0.51
-7.78 0.06 0.70
-6.82 0.07 0.87
-7.83 0.10 0.69
-8.75 0.14 0.53
-7.70 0.14 0.71
-7.05 0.15 0.82
-7.78 0.18 0.70
-7.60 0.20 0.73
-7.57 0.22 0.73
-8.42 0.26 0.59
-7.97 0.27 0.66
-8.12 0.29 0.64
-7.79 0.30 0.69
-8.62 0.38 0.55
-8.68 0.40 0.54
-8.80 0.43 0.52
-8.16 0.44 0.63
-8.20 0.49 0.62
-8.93 0.55 0.49
-8.91 0.57 0.49
-9.00 0.60 0.48
-9.05 0.63 0.47
-8.90 0.64 0.50
-9.29 0.69 0.43
-9.36 0.72 0.41
-9.02 0.72 0.47
-8.98 0.74 0.48
-8.72 0.74 0.52
-8.67 0.76 0.53
-5.20 0.73 1.13
-4.42 0.68 1.27
-4.40 0.69 1.27
-4.57 0.73 1.24
-4.77 0.77 1.20
-7.49 -1.45 0.52
-7.44 -1.42 0.53
-7.52 -1.41 0.52
-7.49 -1.38 0.52
-7.50 -1.36 0.52
-7.35 -1.32 0.55
-7.67 -1.32 0.49
-7.63 -1.29 0.50
-7.77 -1.28 0.47
-7.68 -1.25 0.49
-7.92 -1.25 0.45
-7.83 -1.19 0.46
-7.68 -1.15 0.49
-7.61 -1.07 0.50
-7.53 -1.04 0.52
-7.67 -1.03 0.49
-7.59 -1.00 0.51
-7.47 -0.96 0.53
-7.55 -0.95 0.51
-7.75 -0.94 0.48
-7.57 -0.90 0.51
-7.44 -0.87 0.53
-7.37 -0.84 0.55
-5.47 -0.66 0.87
-5.45 -0.64 0.88
-5.75 -0.64 0.83
-7.58 -0.77 0.51
-7.24 -0.72 0.57
-7.33 -0.70 0.55
-7.31 -0.68 0.56
-7.18 -0.64 0.58
-7.21 -0.62 0.57
-8.23 -0.67 0.40
-8.69 -0.67 0.32
-7.04 -0.55 0.60
-7.15 -0.53 0.59
-7.59 -0.53 0.51
-7.09 -0.48 0.60
-6.74 -0.44 0.66
-6.99 -0.43 0.61
-7.02 -0.41 0.61
-7.07 -0.39 0.60
-7.25 -0.38 0.57
-7.13 -0.35 0.59
-7.01 -0.33 0.61
-7.58 -0.32 0.51
-7.11 -0.29 0.59
-7.12 -0.26 0.59
-7.02 -0.24 0.61
-7.34 -0.22 0.55
-6.93 -0.19 0.62
-6.56 -0.16 0.69
-7.14 -0.15 0.59
-6.46 -0.12 0.70
-6.52 -0.10 0.69
-6.86 -0.08 0.63
-7.18 -0.07 0.58
-6.77 -0.04 0.65
-7.30 -0.02 0.56
-6.75 0.00 0.82
-7.27 0.02 0.72
-7.37 0.04 0.70
-7.73 0.06 0.64
-7.38 0.08 0.70
-8.18 0.11 0.56
-8.21 0.13 0.55
-8.03 0.15 0.58
-8.01 0.17 0.59
-7.36 0.17 0.70
-8.32 0.22 0.53
-8.34 0.24 0.53
-7.91 0.25 0.60
-8.00 0.27 0.59
-8.06 0.29 0.58
-7.83 0.31 0.62
-7.59 0.32 0.66
-7.38 0.33 0.70
-7.91 0.37 0.60
-7.71 0.38 0.64
-7.99 0.42 0.58
-5.52 0.31 1.03
-7.94 0.45 0.59
-7.81 0.47 0.62
-7.79 0.49 0.62
-5.38 0.36 1.06
-5.56 0.39 1.03
-5.54 0.40 1.03
-5.46 0.41 1.04
-5.51 0.43 1.03
-5.28 0.43 1.08
-9.48 0.75 0.31
-8.94 0.76 0.41
-9.20 0.80 0.36
-8.75 0.79 0.44
-4.17 0.42 1.28
-8.61 0.82 0.46
-4.69 0.49 1.18
-4.36 0.48 1.24
-4.74 0.53 1.17
-4.81 0.55 1.16
-4.76 0.55 1.17
-4.89 0.58 1.14
-4.63 0.57 1.19
-4.94 0.61 1.13
-4.93 0.62 1.13
-4.90 0.64 1.14
-4.75 0.63 1.17
-5.14 0.72 1.09
-5.20 0.77 1.08
-4.95 0.75 1.12
-4.89 0.76 1.14
-4.78 0.76 1.16
-4.74 0.76 1.16
-4.74 0.78 1.16
-4.96 0.82 1.12
-5.00 0.84 1.11
-4.83 0.85 1.14
-4.45 0.85 1.21
-7.52 -1.48 0.43
-7.52 -1.46 0.43
-7.59 -1.45 0.42
-7.46 -1.40 0.45
-7.56 -1.40 0.43
-7.55 -1.37 0.43
-4.72 -0.92 0.94
-7.64 -1.29 0.42
-4.86 -0.91 0.92
-4.66 -0.87 0.95
-7.74 -1.23 0.40
-7.67 -1.20 0.41
-8.04 -1.22 0.35
-4.93 -0.83 0.91
-4.46 -0.76 0.99
-4.65 -0.77 0.96
-4.80 -0.77 0.93
-4.82 -0.75 0.93
-7.12 -0.97 0.51
-7.06 -0.95 0.52
-7.10 -0.93 0.52
-7.12 -0.91 0.51
-6.92 -0.87 0.55
-7.16 -0.87 0.51
-7.37 -0.86 0.47
-7.33 -0.84 0.47
-2.96 -0.44 1.26
-6.70 -0.74 0.59
-6.41 -0.70 0.64
-7.36 -0.75 0.47
-3.68 -0.45 1.13
-7.16 -0.69 0.51
-6.88 -0.65 0.56
-2.61 -0.33 1.32
-8.18 -0.69 0.32
-8.34 -0.67 0.30
-7.66 -0.61 0.42
-7.07 -0.55 0.52
-7.96 -0.58 0.36
-7.23 -0.51 0.50
-7.30 -0.50 0.48
-7.27 -0.47 0.49
-7.32 -0.45 0.48
-6.90 -0.41 0.55
-6.55 -0.37 0.62
-2.18 -0.18 1.40
-6.71 -0.34 0.59
-6.64 -0.31 0.60
-6.71 -0.30 0.59
-6.83 -0.28 0.57
-6.93 -0.26 0.55
-6.81 -0.23 0.57
-6.31 -0.20 0.66
-7.35 -0.20 0.47
-7.14 -0.18 0.51
-7.35 -0.16 0.47
-7.22 -0.11 0.73
-8.02 -0.10 0.59
-7.48 -0.08 0.69
-7.41 -0.06 0.70
-7.42 -0.04 0.70
-7.36 -0.02 0.71
-7.45 0.00 0.37
-7.45 0.02 0.37
-7.50 0.05 0.36
-7.28 0.07 0.40
-7.73 0.10 0.32
-7.24 0.11 0.41
-7.37 0.14 0.38
-7.88 0.17 0.29
-6.54 0.17 0.54
-6.50 0.19 0.55
-6.51 0.21 0.54
-7.64 0.24 0.58
-7.38 0.25 0.63
-7.54 0.27 0.60
-7.73 0.30 0.56
-7.94 0.33 0.52
-8.14 0.36 0.48
-8.25 0.38 0.46
-7.80 0.38 0.55
-7.75 0.40 0.56
-7.89 0.43 0.53
-7.50 0.43 0.60
-7.41 0.46 0.62
-8.24 0.53 0.46
-5.77 0.43 0.93
-9.16 0.68 0.28
-8.86 0.73 0.34
-8.91 0.76 0.33
-9.43 0.85 0.23
-4.75 0.59 1.12
-4.78 0.61 1.11
-4.70 0.64 1.13
-4.77 0.74 1.11
-4.72 0.75 1.12
-4.96 0.79 1.07
-4.99 0.82 1.07
-4.39 0.75 1.18
-7.60 -1.47 0.33
-7.52 -1.44 0.35
-7.66 -1.43 0.33
-7.30 -1.34 0.39
-7.47 -1.34 0.36
-7.68 -1.34 0.32
-7.77 -1.33 0.31
-7.72 -1.30 0.32
-7.70 -1.27 0.32
-7.60 -1.24 0.34
-7.36 -1.18 0.38
-7.21 -1.14 0.41
-7.26 -1.12 0.40
-7.18 -1.09 0.42
-7.04 -1.05 0.45
-6.93 -1.02 0.47
-6.98 -1.00 0.46
-7.08 -0.99 0.44
-6.86 -0.95 0.48
-6.79 -0.92 0.49
-6.74 -0.89 0.50
-6.88 -0.88 0.48
-6.61 -0.84 0.53
-6.67 -0.82 0.52
-6.66 -0.80 0.52
-7.19 -0.83 0.42
-6.46 -0.72 0.56
-6.41 -0.70 0.57
-6.51 -0.68 0.55
-6.43 -0.66 0.56
-6.61 -0.65 0.53
-6.48 -0.62 0.55
-6.34 -0.59 0.58
-6.10 -0.55 0.63
-6.39 -0.55 0.57
-6.35 -0.53 0.58
-6.66 -0.53 0.52
-7.54 -0.53 0.35
-6.91 -0.39 0.47
-6.54 -0.35 0.54
-6.73 -0.34 0.51
-7.10 -0.33 0.44
-6.92 -0.30 0.47
-6.66 -0.27 0.52
-6.38 -0.24 0.57
-6.47 -0.23 0.56
-6.36 -0.20 0.58
-7.13 -0.20 0.43
-7.21 -0.18 0.42
-7.21 -0.16 0.42
-7.01 -0.13 0.45
-6.78 -0.11 0.50
-7.58 -0.09 0.35
-6.61 -0.06 0.53
-6.86 -0.04 0.48
-7.21 -0.02 0.42
-7.30 -0.00 0.58
-7.12 0.02 0.61
-6.84 0.04 0.67
-7.17 0.06 0.60
-6.99 0.07 0.64
-7.26 0.09 0.58
-7.24 0.11 0.59
-6.96 0.13 0.64
-7.61 0.16 0.51
-7.63 0.18 0.51
-7.61 0.20 0.51
-7.66 0.22 0.50
-6.97 0.22 0.64
-7.68 0.26 0.50
-6.86 0.25 0.66
-6.92 0.27 0.65
-7.07 0.30 0.62
-7.10 0.32 0.61
-7.50 0.35 0.53
-7.29 0.36 0.57
-6.88 0.36 0.65
-7.38 0.40 0.55
-6.81 0.39 0.67
-7.41 0.45 0.55
-7.11 0.45 0.61
-5.64 0.38 0.90
-8.21 0.55 0.38
-7.82 0.55 0.46
-8.10 0.59 0.41
-7.80 0.59 0.46
-8.37 0.65 0.35
-8.93 0.74 0.24
-5.08 0.47 1.01
-4.95 0.48 1.03
-4.89 0.48 1.05
-5.00 0.51 1.02
-4.74 0.50 1.07
-4.82 0.52 1.06
-4.74 0.55 1.07
-4.74 0.58 1.07
-4.89 0.61 1.04
-4.66 0.60 1.09
-4.75 0.62 1.07
-4.83 0.64 1.05
-4.73 0.66 1.07
-4.97 0.71 1.02
-5.14 0.75 0.99
-4.80 0.72 1.05
-4.85 0.74 1.04
-4.81 0.75 1.05
-4.85 0.77 1.04
-4.31 0.71 1.15
-4.37 0.73 1.14
-4.33 0.73 1.15
-4.32 0.74 1.15
-4.35 0.76 1.14
-4.30 0.77 1.15
-4.23 0.78 1.16
-7.25 -1.49 0.32
-7.17 -1.45 0.33
-7.24 -1.44 0.32
-4.79 -1.05 0.80
-7.44 -1.43 0.28
-7.33 -1.39 0.30
-7.16 -1.34 0.34
-4.70 -0.97 0.82
-4.61 -0.94 0.84
-4.72 -0.94 0.82
-4.67 -0.92 0.83
-7.32 -1.25 0.31
-4.67 -0.89 0.83
-4.74 -0.88 0.82
-4.70 -0.86 0.82
-4.58 -0.82 0.85
-4.77 -0.83 0.81
-4.74 -0.81 0.82
-4.64 -0.78 0.84
-4.92 -0.80 0.78
-4.81 -0.77 0.80
-4.95 -0.77 0.77
-4.84 -0.74 0.80
-4.71 -0.71 0.82
-6.72 -0.89 0.43
-6.61 -0.86 0.45
-6.61 -0.84 0.45
-6.52 -0.81 0.47
-6.65 -0.80 0.44
-6.72 -0.79 0.43
-6.53 -0.75 0.47
-6.56 -0.73 0.46
-6.27 -0.68 0.52
-6.30 -0.67 0.51
-6.22 -0.64 0.53
-6.19 -0.62 0.53
-6.32 -0.61 0.51
-6.14 -0.58 0.54
-6.22 -0.56 0.53
-5.83 -0.52 0.61
-5.64 -0.48 0.64
-5.84 -0.48 0.60
-5.82 -0.46 0.61
-5.63 -0.43 0.64
-5.59 -0.41 0.65
-5.91 -0.41 0.59
-5.93 -0.39 0.59
-6.08 -0.37 0.56
-3.69 -0.25 1.02
-6.68 -0.36 0.44
-3.72 -0.23 1.02
-6.55 -0.24 0.73
-6.53 -0.22 0.73
-6.41 -0.20 0.76
-6.53 -0.19 0.73
-6.58 -0.17 0.72
-7.96 -0.19 0.45
-7.99 -0.17 0.44
-8.82 -0.16 0.28
-8.65 -0.14 0.31
-8.21 -0.11 0.40
-7.15 -0.04 0.61
-6.87 -0.02 0.66
-7.25 -0.00 0.25
-0.60 0.00 1.61
-7.19 0.04 0.26
-7.01 0.07 0.30
-6.67 0.08 0.37
-6.51 0.10 0.40
-6.38 0.12 0.42
-6.27 0.14 0.45
-6.11 0.16 0.48
-6.34 0.18 0.43
-6.19 0.20 0.46
-5.94 0.21 0.51
-5.91 0.23 0.52
-6.08 0.26 0.48
-6.08 0.28 0.48
-6.11 0.30 0.48
-5.95 0.31 0.51
-6.14 0.34 0.47
-6.07 0.35 0.48
-6.35 0.39 0.43
-7.43 0.39 0.48
-7.55 0.41 0.45
-8.03 0.46 0.35
-7.69 0.46 0.42
-8.09 0.50 0.34
-8.20 0.53 0.31
-8.56 0.57 0.24
-8.23 0.57 0.31
-8.14 0.59 0.33
-8.31 0.62 0.29
-7.27 0.57 0.51
-7.53 0.63 0.45
-7.21 0.64 0.52
-6.75 -1.47 0.34
-7.01 -1.45 0.29
-7.14 -1.36 0.26
-7.15 -1.31 0.26
-7.09 -1.28 0.28
-7.24 -1.28 0.24
-7.15 -1.25 0.26
-7.15 -1.20 0.27
-7.06 -1.17 0.28
-6.85 -1.10 0.33
-7.06 -1.10 0.28
-7.11 -1.08 0.27
-6.96 -1.05 0.31
-6.96 -1.02 0.31
-6.86 -0.99 0.33
-6.80 -0.96 0.34
-6.74 -0.94 0.35
-6.69 -0.91 0.36
-6.74 -0.89 0.35
-6.76 -0.87 0.35
-6.46 -0.82 0.41
-6.39 -0.80 0.43
-6.40 -0.78 0.42
-6.31 -0.75 0.44
-6.42 -0.74 0.42
-6.53 -0.73 0.40
-6.33 -0.69 0.44
-6.40 -0.67 0.42
-6.03 -0.63 0.50
-6.30 -0.63 0.44
-6.22 -0.60 0.46
-6.04 -0.57 0.50
-6.14 -0.56 0.48
-5.96 -0.52 0.51
-5.69 -0.49 0.57
-6.06 -0.49 0.49
-5.99 -0.47 0.51
-6.19 -0.46 0.47
-5.47 -0.40 0.61
-5.73 -0.40 0.56
-6.13 -0.40 0.48
-6.15 -0.38 0.47
-6.68 -0.36 0.37
-5.99 -0.31 0.51
-6.90 -0.26 0.32
-7.01 -0.18 0.30
-6.96 -0.15 0.31
-7.20 -0.09 0.26
-7.78 -0.00 0.33
-7.39 0.02 0.41
-7.45 0.04 0.40
-7.68 0.06 0.35
-7.73 0.08 0.34
-7.83 0.10 0.32
-6.02 0.10 0.71
-7.98 0.18 0.28
-7.93 0.20 0.29
-6.03 0.18 0.71
-5.87 0.19 0.74
-6.23 0.21 0.66
-6.33 0.23 0.64
-6.22 0.25 0.66
-6.30 0.27 0.64
-6.23 0.28 0.66
-6.41 0.30 0.62
-6.43 0.32 0.62
-6.43 0.34 0.62
-6.49 0.36 0.60
-6.57 0.38 0.58
-6.69 0.41 0.56
-6.89 0.43 0.51
-7.06 0.46 0.48
-7.12 0.48 0.46
-6.86 0.49 0.52
-7.24 0.53 0.44
-7.21 0.55 0.44
-7.04 0.55 0.48
-7.08 0.58 0.47
-4.90 0.43 0.94
-4.83 0.44 0.96
-4.88 0.46 0.95
-4.73 0.46 0.98
-4.76 0.47 0.97
-4.60 0.47 1.01
-4.75 0.50 0.97
-4.53 0.49 1.02
-4.67 0.52 0.99
-4.56 0.52 1.01
-4.56 0.53 1.01
-4.72 0.56 0.98
-4.62 0.57 1.00
-4.68 0.60 0.98
-4.82 0.63 0.95
-4.55 0.61 1.01
-4.79 0.65 0.96
-4.82 0.67 0.95
-4.76 0.67 0.96
-4.31 0.63 1.06
-4.66 0.69 0.98
-4.74 0.71 0.97
-4.55 0.70 1.01
-4.42 0.70 1.03
-4.24 0.68 1.07
-4.24 0.70 1.07
-4.22 0.71 1.08
-4.24 0.72 1.07
-4.21 0.73 1.08
-4.26 0.75 1.07
-4.41 0.78 1.03
-4.25 0.77 1.07
-4.19 0.77 1.08
-4.30 0.80 1.06
-4.21 0.80 1.08
-4.20 0.81 1.08
-4.52 0.88 1.01
-4.12 0.82 1.09
-4.08 0.83 1.10
-4.46 -0.89 0.75
-4.50 -0.88 0.74
-2.35 -0.59 1.21
-3.01 -0.65 1.06
-5.05 -0.87 0.62
-2.26 -0.49 1.23
-6.64 -0.95 0.28
-6.51 -0.91 0.31
-6.51 -0.89 0.31
-6.60 -0.88 0.29
-6.33 -0.83 0.35
-6.19 -0.80 0.38
-6.21 -0.78 0.38
-6.27 -0.77 0.36
-6.27 -0.75 0.36
-6.54 -0.75 0.31
-6.10 -0.69 0.40
-5.82 -0.65 0.46
-5.78 -0.63 0.47
-6.06 -0.63 0.41
-6.06 -0.61 0.41
-6.06 -0.59 0.41
-5.88 -0.56 0.45
-5.74 -0.53 0.48
-5.25 -0.48 0.59
-5.38 -0.47 0.56
-5.19 -0.44 0.60
-5.54 -0.44 0.52
-6.90 -0.42 0.52
-7.04 -0.41 0.49
-7.93 -0.43 0.30
-7.48 -0.39 0.40
-7.87 -0.39 0.31
-7.96 -0.37 0.29
-7.75 -0.34 0.34
-7.76 -0.32 0.34
-7.88 -0.31 0.31
-6.36 -0.24 0.64
-6.22 -0.18 0.67
-7.43 -0.20 0.41
-7.70 -0.18 0.35
-6.65 -0.14 0.58
-6.64 -0.12 0.58
-7.61 -0.12 0.37
-7.60 -0.10 0.37
-7.79 -0.08 0.33
-7.93 -0.06 0.30
-7.98 -0.04 0.29
-8.04 -0.02 0.27
-6.01 0.13 0.65
-6.07 0.18 0.63
-6.44 0.20 0.55
-5.93 0.22 0.66
-6.19 0.24 0.60
-6.22 0.26 0.60
-6.16 0.28 0.61
-6.39 0.32 0.56
-6.48 0.34 0.54
-6.58 0.38 0.51
-6.63 0.40 0.50
-6.87 0.43 0.44
-6.65 0.44 0.49
-6.60 0.47 0.50
-6.96 0.51 0.42
-4.96 0.41 0.88
-5.17 0.44 0.83
-4.77 0.42 0.92
-4.68 0.43 0.94
-4.68 0.46 0.94
-4.27 0.45 1.03
-4.51 0.49 0.97
-7.15 0.75 0.37
-7.08 0.86 0.38
-4.33 0.62 1.01
-4.12 0.61 1.06
-4.29 0.65 1.02
-3.88 0.61 1.11
-4.01 0.65 1.08
-4.37 0.72 1.00
-4.31 0.73 1.01
-4.04 0.71 1.07
-4.19 0.75 1.04
-4.10 0.74 1.06
-2.55 -0.63 1.12
-2.16 -0.50 1.21
-2.13 -0.49 1.21
-2.20 -0.48 1.20
-2.17 -0.46 1.21
-2.16 -0.45 1.21
-2.19 -0.44 1.20
-6.11 -0.81 0.32
-6.09 -0.79 0.32
-6.13 -0.77 0.31
-6.19 -0.76 0.30
-6.19 -0.74 0.30
-5.96 -0.70 0.35
-5.26 -0.62 0.51
-5.86 -0.65 0.38
-5.67 -0.62 0.42
-5.34 -0.58 0.49
-5.63 -0.58 0.43
-5.41 -0.54 0.48
-5.32 -0.52 0.50
-5.38 -0.51 0.48
-5.59 -0.50 0.44
-5.42 -0.47 0.48
-5.62 -0.47 0.43
-5.08 -0.42 0.55
-5.16 -0.40 0.53
-5.41 -0.40 0.48
-5.74 -0.40 0.41
-5.51 -0.37 0.45
-0.86 -0.14 1.50
-5.55 -0.33 0.45
-5.31 -0.30 0.50
-5.64 -0.30 0.43
-6.10 -0.28 0.32
-5.61 -0.21 0.43
-5.66 -0.17 0.42
-7.06 0.05 0.33
-7.10 0.07 0.33
-6.83 0.18 0.39
-5.79 0.17 0.63
-6.83 0.21 0.39
-6.40 0.23 0.49
-6.26 0.25 0.52
-6.44 0.27 0.48
-6.25 0.28 0.52
-6.50 0.31 0.46
-6.16 0.31 0.54
-6.49 0.34 0.46
-6.77 0.37 0.40
-6.72 0.39 0.41
-6.57 0.40 0.44
-6.54 0.41 0.45
-6.63 0.44 0.43
-6.75 0.46 0.40
-6.78 0.48 0.39
-6.98 0.51 0.34
-7.16 0.54 0.30
-5.46 0.50 0.70
-4.51 0.44 0.93
-4.65 0.46 0.89
-6.99 0.77 0.33
-4.53 0.55 0.92
-5.20 0.64 0.76
-6.70 0.83 0.40
-5.79 0.75 0.62
-4.38 0.66 0.95
-5.80 0.86 0.61
-5.52 0.84 0.67
-5.37 0.83 0.71
-5.81 0.91 0.60
-5.47 0.88 0.68
-5.55 0.91 0.66
-5.80 0.96 0.60
-5.67 0.95 0.63
-5.34 0.99 0.71
-5.96 1.13 0.56
-5.89 1.13 0.57
-5.99 1.17 0.55
-5.75 1.14 0.61
-5.65 1.15 0.63
-5.82 1.22 0.59
-3.52 -0.93 0.84
-3.41 -0.78 0.87
-3.99 -0.74 0.73
-5.79 -0.74 0.31
-5.84 -0.73 0.30
-5.76 -0.68 0.32
-5.72 -0.62 0.33
-5.55 -0.59 0.37
-5.33 -0.56 0.43
-5.30 -0.54 0.43
-5.24 -0.52 0.44
-5.34 -0.50 0.42
-5.38 -0.49 0.41
-5.46 -0.48 0.40
-5.44 -0.46 0.40
-5.30 -0.43 0.43
-5.13 -0.40 0.47
-5.34 -0.40 0.42
-5.24 -0.36 0.45
-5.66 -0.34 0.35
-5.78 -0.25 0.32
-5.65 -0.17 0.35
-5.97 -0.16 0.27
-6.86 -0.09 0.39
-0.87 -1.49 1.32
-0.89 -1.49 1.32
-2.64 0.86 0.61
-2.46 0.82 0.60
-3.04 0.53 0.57
-1.02 -1.08 0.55
-3.50 0.99 0.47
-2.10 0.85 0.47
-2.75 0.75 0.22
-2.72 0.58 0.21
-2.45 0.68 0.24
-2.09 0.84 0.25
-2.41 0.59 0.21
-2.16 0.76 0.24
-2.07 0.82 0.24
-0.89 -0.86 0.34
-2.00 0.77 0.24
-1.57 0.85 0.28
-2.12 0.73 0.21
-2.02 0.78 0.22
-1.60 0.90 0.24
-1.54 0.88 0.26
-1.88 0.72 0.21
-1.76 -0.71 0.24
-1.64 0.67 0.24
-0.76 -0.87 0.24
-1.57 0.76 0.21
-0.91 -0.95 0.21
-1.00 -0.87 0.24
-1.12 -0.75 0.27
-0.80 -0.88 0.21
-1.05 -0.76 0.25
-1.01 -0.82 0.22
-0.94 -0.81 0.21
-1.08 -0.81 0.20
-1.22 -0.80 0.20
-0.99 -0.75 0.21
-1.18 -0.74 0.21
-1.15 -0.65 0.23
-1.47 -0.44 0.24
-1.48 -0.45 0.22
