# .PCD v0.7 - Point Cloud Data file format
VERSION 0.7
FIELDS x y z
SIZE 4 4 4
TYPE F F F
COUNT 1 1 1
WIDTH 1515
HEIGHT 1
VIEWPOINT 0 0 0 1 0 0 0
POINTS 1515
DATA ASCII
-9.06 1.27 1.77
-11.29 -0.68 1.66
-9.56 0.35 1.72
-9.25 0.36 1.73
-9.17 0.43 1.73
-11.81 -0.32 1.62
-11.96 -0.30 1.61
-11.94 -0.27 1.62
-11.84 -0.18 1.62
-13.07 0.04 1.45
-10.94 0.17 1.56
-10.29 0.24 1.59
-9.27 0.39 1.64
-6.50 -0.79 1.74
-11.80 -0.53 1.52
-12.98 -0.03 1.45
-10.16 0.94 1.55
-9.45 0.61 1.54
-9.33 0.65 1.55
-9.51 0.86 1.54
-9.19 1.07 1.55
-9.24 1.10 1.55
-6.73 -0.75 1.65
-6.35 -0.59 1.67
-6.70 -0.60 1.65
-6.69 -0.57 1.65
-6.78 -0.56 1.65
-6.65 -0.53 1.65
-9.25 1.08 1.50
-9.32 1.11 1.49
-6.96 -0.70 1.59
-6.80 -0.64 1.60
-6.76 -0.62 1.60
-6.78 -0.58 1.60
-12.12 -0.39 1.24
-12.03 -0.18 1.25
-11.91 -0.15 1.26
-11.93 -0.11 1.26
-11.95 -0.08 1.26
-9.24 0.03 1.46
-10.94 0.11 1.33
-10.79 0.14 1.35
-10.65 0.19 1.36
-9.47 0.24 1.44
-9.38 0.29 1.45
-9.61 0.32 1.43
-9.75 0.43 1.42
-9.70 0.50 1.42
-10.54 0.57 1.36
-10.06 0.57 1.39
-10.43 0.62 1.37
-10.20 0.63 1.38
-9.37 0.80 1.44
-9.56 0.84 1.43
-9.17 1.07 1.45
-9.09 1.11 1.46
-7.38 -1.37 1.51
-7.74 -1.33 1.49
-7.36 -1.25 1.51
-7.42 -1.22 1.51
-7.22 -1.08 1.52
-7.00 -1.01 1.54
-7.04 -0.97 1.54
-6.76 -0.92 1.56
-6.67 -0.89 1.56
-6.67 -0.87 1.56
-6.62 -0.84 1.57
-6.55 -0.81 1.57
-6.70 -0.81 1.56
-6.82 -0.80 1.55
-6.74 -0.77 1.56
-6.78 -0.75 1.56
-6.75 -0.73 1.56
-6.62 -0.70 1.57
-6.65 -0.68 1.56
-6.73 -0.66 1.56
-6.71 -0.64 1.56
-6.65 -0.61 1.56
-6.65 -0.59 1.56
-6.63 -0.57 1.57
-6.63 -0.55 1.57
-6.69 -0.53 1.56
-6.71 -0.51 1.56
-7.04 -0.51 1.54
-7.02 -0.31 1.54
-12.02 -0.30 1.26
-8.78 -0.13 1.49
-11.78 -0.15 1.28
-8.56 -0.09 1.51
-8.90 -0.04 1.48
-9.06 -0.02 1.47
-7.39 -1.19 1.46
-6.59 -0.92 1.52
-6.52 -0.89 1.53
-6.91 -0.91 1.50
-6.75 -0.87 1.51
-6.60 -0.84 1.52
-6.72 -0.81 1.51
-6.69 -0.70 1.52
-6.72 -0.68 1.51
-6.91 -0.67 1.50
-6.90 -0.65 1.50
-6.70 -0.62 1.52
-6.71 -0.60 1.51
-6.70 -0.58 1.52
-6.82 -0.56 1.51
-11.46 -0.47 1.15
-12.01 -0.45 1.11
-11.93 -0.18 1.11
-8.66 0.02 1.40
-12.53 0.06 1.08
-11.03 0.14 1.20
-11.57 0.18 1.16
-11.21 0.29 1.18
-10.45 0.45 1.25
-9.93 0.46 1.29
-10.11 0.49 1.27
-10.20 0.52 1.26
-10.22 0.55 1.26
-10.23 0.58 1.26
-9.53 0.64 1.32
-9.88 0.71 1.29
-4.42 0.91 1.73
-7.35 -1.34 1.41
-7.38 -1.33 1.41
-2.39 -0.62 1.82
-7.37 -1.26 1.41
-7.41 -1.24 1.41
-7.47 -1.20 1.40
-7.18 -1.08 1.43
-6.87 -1.02 1.45
-6.93 -1.00 1.45
-6.89 -0.96 1.45
-6.78 -0.92 1.46
-6.70 -0.89 1.46
-6.63 -0.86 1.47
-6.67 -0.85 1.47
-6.61 -0.82 1.47
-6.68 -0.81 1.47
-6.74 -0.77 1.46
-6.61 -0.74 1.47
-6.64 -0.72 1.47
-6.72 -0.70 1.46
-6.72 -0.68 1.46
-6.63 -0.66 1.47
-6.72 -0.64 1.46
-6.72 -0.60 1.46
-6.68 -0.58 1.47
-6.90 -0.57 1.45
-6.54 -0.53 1.48
-6.53 -0.50 1.48
-6.47 -0.48 1.48
-7.15 -0.41 1.53
-12.34 -0.25 1.09
-12.24 -0.22 1.10
-8.54 -0.13 1.41
-12.34 -0.15 1.09
-12.46 -0.12 1.08
-8.79 -0.07 1.39
-12.41 -0.06 1.09
-12.54 -0.03 1.08
-6.97 -1.01 1.39
-6.99 -0.99 1.39
-6.91 -0.96 1.40
-7.08 -0.95 1.38
-6.71 -0.89 1.42
-6.79 -0.88 1.41
-6.80 -0.86 1.41
-6.73 -0.83 1.41
-6.69 -0.81 1.42
-6.77 -0.79 1.41
-6.70 -0.77 1.42
-6.54 -0.73 1.43
-6.61 -0.72 1.43
-6.80 -0.71 1.41
-6.87 -0.69 1.40
-6.80 -0.67 1.41
-6.73 -0.64 1.41
-6.68 -0.62 1.42
-6.82 -0.61 1.41
-6.78 -0.58 1.41
-6.66 -0.53 1.42
-6.62 -0.51 1.42
-6.57 -0.49 1.43
-6.79 -0.48 1.41
-6.66 -0.45 1.42
-6.61 -0.42 1.42
-5.79 0.08 1.56
-9.55 0.20 1.21
-10.51 0.24 1.11
-9.88 0.41 1.17
-10.26 0.45 1.13
-5.13 0.25 1.62
-9.79 0.50 1.18
-9.86 0.53 1.17
-9.82 0.55 1.17
-9.69 0.60 1.19
-9.68 0.75 1.19
-7.40 -1.24 1.30
-7.45 -1.22 1.29
-7.31 -1.14 1.31
-7.20 -1.10 1.32
-7.13 -1.07 1.32
-7.20 -1.06 1.32
-6.72 -0.98 1.36
-6.80 -0.97 1.35
-6.69 -0.93 1.37
-6.92 -0.94 1.34
-6.73 -0.90 1.36
-6.73 -0.87 1.36
-6.87 -0.87 1.35
-6.56 -0.82 1.38
-6.81 -0.82 1.35
-6.61 -0.78 1.37
-6.73 -0.77 1.36
-6.50 -0.73 1.38
-6.69 -0.72 1.37
-6.62 -0.70 1.37
-6.59 -0.67 1.37
-6.71 -0.66 1.36
-6.75 -0.64 1.36
-6.70 -0.62 1.36
-6.82 -0.61 1.35
-6.90 -0.59 1.34
-6.94 -0.57 1.34
-6.84 -0.54 1.35
-6.84 -0.52 1.35
-6.83 -0.50 1.35
-6.79 -0.48 1.35
-6.66 -0.45 1.37
-7.01 -0.44 1.34
-6.89 -0.42 1.35
-7.06 -0.40 1.33
-6.73 -0.37 1.36
-6.58 -0.24 1.37
-11.07 -0.27 0.96
-11.00 -0.23 0.96
-10.15 0.10 0.96
-10.48 0.16 0.93
-10.21 0.34 1.07
-10.32 0.37 1.06
-9.97 0.38 1.10
-9.87 0.40 1.11
-10.13 0.44 1.08
-9.97 0.56 1.10
-5.37 0.41 1.56
-5.21 0.63 1.57
-4.92 0.65 1.60
-4.49 0.66 1.64
-7.42 -1.24 1.24
-7.51 -1.23 1.23
-7.34 -1.18 1.25
-7.30 -1.16 1.25
-7.34 -1.12 1.25
-7.48 -1.11 1.23
-7.19 -1.03 1.26
-7.00 -0.99 1.28
-6.99 -0.97 1.28
-6.79 -0.92 1.30
-6.89 -0.91 1.29
-6.92 -0.89 1.29
-6.95 -0.87 1.29
-6.70 -0.83 1.31
-6.67 -0.81 1.31
-6.86 -0.80 1.30
-6.78 -0.77 1.30
-6.58 -0.73 1.32
-6.57 -0.71 1.32
-6.72 -0.70 1.31
-6.61 -0.68 1.32
-6.86 -0.67 1.30
-6.70 -0.64 1.31
-6.56 -0.61 1.32
-6.74 -0.60 1.31
-6.78 -0.58 1.30
-6.70 -0.56 1.31
-6.87 -0.55 1.29
-6.98 -0.53 1.28
-6.95 -0.51 1.29
-6.93 -0.48 1.29
-6.85 -0.46 1.30
-6.90 -0.44 1.29
-7.10 -0.43 1.27
-6.97 -0.40 1.28
-6.96 -0.38 1.28
-7.07 -0.36 1.27
-6.92 -0.33 1.29
-7.17 -0.32 1.26
-7.27 -0.30 1.25
-6.99 -0.27 1.28
-7.02 -0.21 1.28
-6.58 -0.18 1.32
-11.41 -0.24 0.84
-11.33 -0.18 0.85
-10.50 -0.02 0.93
-11.04 -0.00 0.92
-11.04 0.03 0.92
-9.27 0.07 1.11
-8.78 0.09 1.16
-6.02 0.10 1.45
-9.80 0.18 1.05
-5.54 0.12 1.50
-10.02 0.31 1.02
-10.18 0.34 1.01
-5.51 0.21 1.51
-10.23 0.39 1.00
-9.80 0.40 1.05
-9.93 0.43 1.03
-9.99 0.46 1.02
-5.48 0.28 1.51
-5.42 0.30 1.51
-5.51 0.31 1.50
-5.39 0.32 1.52
-9.86 0.58 1.04
-5.40 0.35 1.52
-10.10 0.65 1.01
-5.46 0.40 1.51
-5.58 0.42 1.49
-4.94 0.40 1.56
-5.56 0.71 1.49
-7.44 -1.27 1.18
-7.39 -1.24 1.18
-7.57 -1.24 1.16
-6.89 -1.02 1.23
-6.74 -0.98 1.25
-6.56 -0.94 1.27
-6.67 -0.93 1.26
-6.66 -0.91 1.26
-6.51 -0.85 1.27
-6.70 -0.85 1.25
-6.66 -0.83 1.26
-6.66 -0.81 1.26
-6.63 -0.78 1.26
-6.73 -0.77 1.25
-6.60 -0.74 1.26
-6.63 -0.70 1.26
-6.56 -0.67 1.27
-6.73 -0.66 1.25
-6.68 -0.64 1.26
-6.76 -0.62 1.25
-6.67 -0.60 1.26
-6.60 -0.57 1.27
-6.66 -0.53 1.26
-6.48 -0.50 1.28
-6.38 -0.48 1.29
-6.57 -0.47 1.27
-6.55 -0.44 1.27
-6.75 -0.43 1.25
-7.05 -0.43 1.22
-6.72 -0.37 1.25
-6.75 -0.35 1.25
-6.69 -0.33 1.25
-6.79 -0.31 1.24
-8.04 -0.29 1.24
-7.22 -0.25 1.33
-8.02 -0.25 1.24
-7.86 -0.23 1.26
-7.81 -0.20 1.26
-7.83 -0.18 1.26
-8.18 -0.17 1.23
-8.06 -0.15 1.24
-11.27 -0.17 0.90
-11.50 -0.15 0.87
-7.28 -0.08 1.32
-11.18 -0.09 0.90
-11.03 -0.06 0.92
-11.14 -0.03 0.91
-6.67 -0.85 1.20
-7.08 -0.87 1.15
-6.62 -0.80 1.21
-6.84 -0.80 1.18
-6.70 -0.77 1.20
-6.91 -0.74 1.17
-7.01 -0.73 1.16
-6.70 -0.68 1.20
-6.82 -0.65 1.18
-6.79 -0.63 1.19
-6.78 -0.60 1.19
-6.76 -0.58 1.19
-6.79 -0.56 1.19
-6.90 -0.55 1.17
-6.74 -0.52 1.19
-6.47 -0.48 1.22
-6.72 -0.47 1.19
-6.77 -0.46 1.19
-6.76 -0.43 1.19
-7.07 -0.43 1.15
-11.13 -0.30 0.70
-11.24 -0.24 0.68
-11.38 -0.21 0.67
-9.78 0.17 0.91
-8.94 0.18 1.01
-9.77 0.22 0.91
-10.08 0.26 0.87
-9.86 0.28 0.90
-10.21 0.60 0.85
-6.90 -0.96 1.11
-6.71 -0.77 1.13
-6.53 -0.73 1.16
-6.53 -0.71 1.16
-6.68 -0.70 1.14
-6.77 -0.69 1.13
-6.74 -0.67 1.13
-6.81 -0.65 1.12
-6.94 -0.64 1.11
-6.79 -0.61 1.12
-6.75 -0.58 1.13
-6.81 -0.57 1.12
-6.96 -0.55 1.10
-6.73 -0.52 1.13
-6.76 -0.50 1.13
-7.50 -0.45 1.19
-7.28 -0.42 1.21
-7.67 -0.42 1.17
-7.66 -0.40 1.17
-7.51 -0.38 1.19
-7.48 -0.35 1.19
-7.41 -0.33 1.20
-7.79 -0.31 1.15
-7.86 -0.29 1.14
-7.69 -0.22 1.16
-7.43 -0.18 1.19
-11.51 -0.24 0.71
-11.10 -0.11 0.75
-11.55 -0.09 0.70
-11.13 -0.06 0.75
-10.95 -0.03 0.77
-11.21 0.01 0.50
-9.09 0.05 0.93
-8.82 0.07 0.96
-9.06 0.09 0.93
-9.79 0.15 0.84
-4.04 0.19 1.56
-3.95 0.20 1.58
-10.19 0.52 0.78
-4.09 0.73 1.55
-3.95 0.74 1.56
-6.96 -1.01 1.04
-6.10 -0.74 1.15
-5.96 -0.70 1.17
-7.10 -0.78 1.02
-6.25 -0.69 1.13
-6.30 -0.67 1.13
-6.36 -0.66 1.12
-6.91 -0.68 1.05
-6.83 -0.65 1.06
-6.76 -0.63 1.07
-6.82 -0.61 1.06
-6.94 -0.60 1.04
-6.92 -0.57 1.05
-6.59 -0.53 1.09
-6.74 -0.52 1.07
-6.92 -0.51 1.05
-6.85 -0.48 1.06
-6.96 -0.47 1.04
-6.98 -0.45 1.04
-7.04 -0.43 1.03
-7.17 -0.41 1.01
-6.98 -0.38 1.04
-6.85 -0.35 1.05
-6.96 -0.34 1.04
-6.88 -0.31 1.05
-6.63 -0.28 1.08
-6.21 -0.23 1.14
-6.10 -0.17 1.15
-6.37 -0.15 1.11
-6.53 -0.14 1.09
-6.25 -0.11 1.13
-6.51 -0.09 1.10
-6.22 -0.07 1.13
-8.96 -0.00 0.87
-4.07 0.01 1.53
-9.27 0.05 0.83
-9.13 0.07 0.85
-9.55 0.10 0.79
-9.80 0.12 0.76
-9.71 0.15 0.77
-5.40 0.12 1.35
-5.07 0.14 1.39
-5.21 0.16 1.37
-5.42 0.18 1.34
-5.50 0.19 1.33
-4.11 0.16 1.52
-5.36 0.22 1.35
-4.01 0.18 1.53
-4.40 0.21 1.48
-5.61 0.27 1.32
-4.05 0.22 1.53
-4.48 0.25 1.47
-4.68 0.27 1.44
-4.02 0.25 1.53
-10.23 0.60 0.69
-4.13 0.28 1.52
-3.90 0.28 1.55
-3.91 0.29 1.54
-3.80 0.29 1.56
-4.19 0.62 1.50
-7.77 -0.84 0.87
-6.95 -0.75 0.98
-6.54 -0.69 1.03
-6.98 -0.71 0.97
-7.01 -0.69 0.97
-6.95 -0.66 0.98
-6.89 -0.64 0.98
-6.87 -0.61 0.99
-6.86 -0.59 0.99
-6.91 -0.57 0.98
-6.91 -0.55 0.98
-6.86 -0.53 0.99
-7.15 -0.52 0.95
-7.26 -0.50 0.94
-6.82 -0.46 1.00
-6.94 -0.44 0.98
-6.94 -0.42 0.98
-6.88 -0.40 0.99
-6.99 -0.38 0.97
-6.79 -0.35 1.00
-6.79 -0.33 1.00
-6.86 -0.31 0.99
-6.62 -0.28 1.02
-7.33 -0.28 0.93
-7.54 -0.27 0.90
-6.53 -0.22 1.03
-6.16 -0.19 1.08
-6.50 -0.18 1.04
-7.76 -0.18 0.87
-7.87 -0.16 0.85
-7.03 -0.11 1.13
-7.21 -0.10 1.11
-7.91 -0.08 1.01
-7.00 -0.04 1.14
-8.16 0.18 0.74
-10.24 0.31 0.62
-10.17 0.33 0.63
-10.56 0.37 0.57
-4.00 0.17 1.50
-10.37 0.45 0.60
-10.36 0.47 0.60
-10.45 0.50 0.59
-3.74 0.21 1.54
-3.88 0.23 1.52
-3.77 0.24 1.53
-3.76 0.25 1.53
-3.85 0.26 1.52
-3.99 0.28 1.50
-3.65 0.27 1.55
-3.98 0.30 1.50
-3.82 0.32 1.52
-3.74 0.32 1.53
-3.68 0.33 1.54
-4.85 0.56 1.37
-4.82 0.57 1.38
-4.60 0.58 1.41
-4.97 0.63 1.36
-7.44 -0.72 0.84
-7.42 -0.70 0.85
-7.03 -0.65 0.90
-6.98 -0.62 0.91
-7.02 -0.60 0.90
-6.93 -0.57 0.92
-6.77 -0.54 0.94
-6.84 -0.53 0.93
-6.76 -0.50 0.94
-7.04 -0.49 0.90
-6.68 -0.41 0.95
-6.76 -0.39 0.94
-6.80 -0.37 0.93
-6.60 -0.35 0.96
-7.10 -0.34 0.89
-7.18 -0.30 0.88
-6.76 -0.27 0.94
-7.08 -0.23 0.89
-7.01 -0.21 0.90
-7.45 -0.20 0.84
-7.20 -0.17 0.87
-7.59 -0.15 0.82
-7.52 -0.13 0.83
-7.69 -0.02 0.81
-8.55 -0.00 0.79
-5.88 0.03 1.19
-5.31 0.04 1.27
-5.22 0.06 1.28
-5.64 0.07 1.22
-5.74 0.09 1.21
-5.14 0.10 1.29
-5.20 0.11 1.29
-5.20 0.13 1.29
-10.26 0.28 0.53
-4.97 0.16 1.32
-3.95 0.15 1.47
-3.93 0.16 1.47
-3.98 0.17 1.47
-3.91 0.18 1.48
-4.10 0.20 1.45
-3.96 0.20 1.47
-4.04 0.22 1.46
-3.89 0.22 1.48
-3.99 0.24 1.46
-4.08 0.25 1.45
-3.98 0.26 1.46
-3.89 0.27 1.48
-4.00 0.28 1.46
-4.01 0.30 1.46
-4.00 0.31 1.46
-3.97 0.32 1.47
-4.07 0.34 1.45
-3.96 0.34 1.47
-4.31 0.38 1.41
-4.01 0.37 1.46
-3.89 0.37 1.48
-4.12 0.40 1.44
-4.04 0.40 1.45
-4.06 0.42 1.45
-4.52 0.47 1.38
-4.83 0.51 1.33
-4.81 0.52 1.34
-4.62 0.53 1.36
-4.84 0.56 1.33
-4.93 0.60 1.32
-4.26 0.57 1.42
-4.48 0.60 1.38
-3.81 0.67 1.48
-7.47 -1.02 0.76
-7.53 -1.00 0.75
-7.80 -1.01 0.71
-7.65 -0.97 0.74
-7.93 -0.93 0.69
-7.94 -0.90 0.69
-8.09 -0.82 0.67
-8.17 -0.80 0.66
-6.96 -0.66 0.84
-6.95 -0.64 0.84
-7.00 -0.62 0.83
-6.88 -0.59 0.85
-6.93 -0.57 0.85
-6.93 -0.55 0.84
-6.97 -0.53 0.84
-6.93 -0.51 0.84
-6.85 -0.48 0.86
-6.90 -0.47 0.85
-6.92 -0.44 0.85
-7.00 -0.43 0.83
-6.84 -0.40 0.86
-7.11 -0.39 0.82
-6.96 -0.36 0.84
-7.12 -0.34 0.82
-7.77 -0.35 0.72
-7.36 -0.27 0.97
-7.56 -0.26 0.94
-7.49 -0.24 0.95
-7.67 -0.22 0.92
-7.84 -0.21 0.90
-7.91 -0.19 0.88
-8.17 -0.17 0.85
-8.15 -0.15 0.85
-8.41 -0.13 0.81
-8.58 -0.11 0.78
-8.95 -0.10 0.73
-8.45 -0.07 0.80
-8.38 -0.05 0.81
-8.29 -0.02 0.83
-5.61 0.01 0.98
-5.35 0.02 1.02
-5.37 0.04 1.02
-5.49 0.11 1.00
-5.93 0.14 0.93
-9.88 0.32 0.32
-5.46 0.22 1.00
-9.83 0.43 0.32
-3.96 0.25 1.23
-4.01 0.27 1.23
-3.83 0.27 1.26
-10.81 0.60 0.36
-3.60 0.25 1.49
-3.70 0.26 1.48
-3.91 0.31 1.44
-3.95 0.33 1.44
-9.67 0.74 0.54
-9.42 0.77 0.58
-4.01 0.37 1.43
-3.84 0.37 1.45
-4.23 0.45 1.39
-7.62 -1.06 0.67
-7.69 -0.95 0.66
-7.29 -0.73 0.73
-7.21 -0.68 0.74
-7.07 -0.65 0.76
-7.04 -0.62 0.76
-7.26 -0.62 0.73
-7.05 -0.58 0.76
-6.91 -0.55 0.78
-7.04 -0.54 0.76
-7.21 -0.53 0.74
-7.21 -0.50 0.74
-7.27 -0.48 0.73
-7.65 -0.48 0.67
-7.18 -0.44 0.74
-7.14 -0.41 0.75
-6.98 -0.38 0.77
-7.14 -0.37 0.75
-7.11 -0.34 0.75
-6.77 -0.31 0.80
-6.81 -0.29 0.80
-6.80 -0.27 0.80
-6.99 -0.25 0.77
-7.05 -0.23 0.76
-6.77 -0.21 0.80
-5.38 -0.14 1.02
-5.46 -0.12 1.01
-5.34 -0.10 1.03
-5.44 -0.08 1.01
-7.52 -0.06 0.69
-6.35 -0.03 0.87
-6.25 -0.01 0.88
-8.30 -0.00 0.69
-5.51 0.01 1.14
-8.14 0.04 0.71
-4.98 0.04 1.23
-9.59 0.09 0.47
-5.32 0.07 1.17
-5.50 0.09 1.14
-5.97 0.11 1.07
-6.17 0.13 1.03
-5.93 0.14 1.07
-6.10 0.16 1.04
-6.10 0.18 1.04
-5.65 0.18 1.12
-5.87 0.20 1.08
-5.78 0.22 1.10
-6.29 0.25 1.01
-6.19 0.26 1.03
-10.11 0.44 0.38
-6.51 0.31 0.97
-4.78 0.25 1.26
-4.30 0.24 1.34
-6.40 0.36 0.99
-4.55 0.28 1.30
-4.47 0.29 1.31
-6.60 0.42 0.96
-3.90 0.28 1.40
-4.03 0.30 1.38
-4.19 0.32 1.36
-4.34 0.34 1.33
-4.66 0.37 1.28
-4.56 0.38 1.29
-4.66 0.40 1.28
-4.46 0.40 1.31
-4.42 0.41 1.31
-4.32 0.41 1.33
-4.30 0.42 1.33
-4.04 0.41 1.38
-9.78 0.93 0.43
-4.75 0.50 1.26
-3.99 0.46 1.38
-4.23 0.51 1.34
-7.92 -1.22 0.54
-9.12 -1.14 0.35
-7.69 -0.93 0.58
-8.37 -0.97 0.47
-8.07 -0.92 0.52
-8.56 -0.93 0.44
-8.35 -0.89 0.47
-8.00 -0.84 0.53
-8.28 -0.84 0.48
-7.51 -0.75 0.61
-7.35 -0.72 0.64
-7.40 -0.70 0.63
-7.02 -0.65 0.69
-7.08 -0.63 0.68
-7.26 -0.62 0.65
-7.12 -0.59 0.67
-6.93 -0.55 0.71
-7.23 -0.55 0.66
-7.11 -0.52 0.68
-4.95 -0.38 1.03
-7.50 -0.44 0.82
-7.51 -0.42 0.82
-7.55 -0.40 0.81
-7.61 -0.38 0.80
-7.60 -0.36 0.80
-7.87 -0.35 0.76
-7.66 -0.32 0.79
-7.68 -0.31 0.79
-7.63 -0.28 0.80
-7.79 -0.27 0.77
-7.94 -0.25 0.75
-8.16 -0.24 0.71
-8.10 -0.21 0.72
-7.98 -0.19 0.74
-7.93 -0.17 0.75
-8.03 -0.15 0.73
-8.32 -0.13 0.68
-8.21 -0.11 0.70
-7.93 -0.09 0.75
-8.24 -0.07 0.70
-8.17 -0.05 0.71
-8.94 -0.03 0.58
-5.20 0.00 0.93
-5.19 0.02 0.93
-4.97 0.04 0.97
-8.55 0.06 0.57
-6.46 0.07 0.93
-8.88 0.11 0.51
-9.75 0.14 0.36
-9.01 0.16 0.49
-5.19 0.11 1.15
-5.81 0.14 1.04
-5.34 0.14 1.12
-5.89 0.17 1.03
-5.39 0.17 1.11
-5.75 0.20 1.05
-5.63 0.21 1.07
-5.51 0.22 1.09
-5.29 0.23 1.13
-4.71 0.22 1.23
-6.18 0.29 0.98
-4.30 0.23 1.30
-5.10 0.28 1.16
-5.15 0.29 1.15
-4.44 0.27 1.27
-4.34 0.28 1.29
-4.41 0.29 1.28
-4.26 0.30 1.30
-4.37 0.32 1.28
-4.37 0.33 1.28
-4.41 0.34 1.28
-4.41 0.36 1.28
-4.26 0.36 1.30
-4.32 0.38 1.29
-4.32 0.39 1.29
-4.57 0.42 1.25
-4.20 0.40 1.31
-4.30 0.42 1.29
-4.36 0.44 1.28
-4.12 0.43 1.32
-4.74 0.50 1.22
-5.10 0.55 1.15
-4.85 0.54 1.20
-3.96 0.47 1.35
-4.09 0.51 1.33
-4.26 0.54 1.30
-4.23 0.56 1.30
-4.12 0.61 1.32
-4.12 0.62 1.32
-4.10 0.63 1.32
-3.76 0.60 1.38
-4.14 0.72 1.31
-3.97 0.77 1.34
-8.64 -1.02 0.34
-8.79 -1.01 0.31
-8.66 -0.97 0.34
-8.54 -0.93 0.36
-8.66 -0.92 0.33
-8.42 -0.87 0.38
-5.43 -0.61 0.89
-7.36 -0.74 0.56
-7.32 -0.71 0.57
-7.18 -0.68 0.59
-7.02 -0.65 0.62
-7.25 -0.64 0.58
-7.02 -0.60 0.62
-7.09 -0.59 0.60
-7.13 -0.57 0.60
-5.12 -0.43 0.94
-5.38 -0.42 0.90
-6.80 -0.48 0.65
-3.30 -0.28 1.25
-5.54 -0.38 0.87
-5.33 -0.35 0.91
-6.71 -0.39 0.67
-5.47 -0.32 0.88
-5.44 -0.30 0.89
-5.56 -0.29 0.87
-5.37 -0.26 0.90
-5.67 -0.25 0.85
-5.71 -0.24 0.84
-5.48 -0.21 0.88
-5.30 -0.19 0.91
-5.29 -0.17 0.91
-5.29 -0.15 0.91
-5.15 -0.13 0.94
-5.28 -0.12 0.91
-5.51 -0.10 0.87
-5.47 -0.09 0.88
-5.60 -0.07 0.86
-5.41 -0.05 0.89
-5.41 -0.03 0.89
-5.15 -0.01 0.93
-6.07 -0.00 0.94
-5.94 0.01 0.97
-6.38 0.05 0.88
-6.30 0.06 0.90
-6.20 0.10 0.92
-6.17 0.11 0.92
-6.02 0.13 0.95
-6.03 0.14 0.95
-6.03 0.17 0.95
-5.74 0.18 1.00
-5.54 0.21 1.03
-5.64 0.23 1.02
-5.25 0.23 1.09
-5.33 0.24 1.07
-5.15 0.27 1.10
-5.43 0.29 1.05
-6.36 0.37 0.88
-5.19 0.32 1.09
-6.42 0.41 0.87
-6.55 0.43 0.85
-6.80 0.48 0.80
-6.58 0.49 0.84
-4.33 0.36 1.25
-6.35 0.52 0.88
-5.97 0.51 0.95
-5.91 0.54 0.96
-4.80 0.46 1.16
-5.04 0.50 1.12
-5.10 0.53 1.11
-5.11 0.55 1.10
-5.00 0.55 1.12
-5.29 0.59 1.07
-5.20 0.61 1.09
-4.90 0.61 1.14
-4.72 0.60 1.17
-4.94 0.64 1.13
-4.66 0.62 1.18
-4.78 0.66 1.16
-4.54 0.65 1.20
-4.59 0.68 1.19
-4.03 0.63 1.29
-4.40 0.73 1.22
-4.17 0.75 1.26
-4.20 0.77 1.26
-7.84 -1.30 0.39
-7.42 -1.13 0.47
-7.52 -1.12 0.45
-7.63 -1.11 0.43
-7.51 -1.07 0.45
-7.40 -1.04 0.47
-7.22 -1.00 0.51
-7.30 -0.98 0.49
-7.45 -0.93 0.46
-7.25 -0.89 0.50
-8.37 -0.97 0.30
-7.39 -0.83 0.48
-7.25 -0.80 0.50
-8.21 -0.86 0.33
-7.35 -0.76 0.48
-7.35 -0.74 0.48
-7.21 -0.71 0.51
-7.25 -0.69 0.50
-7.21 -0.66 0.51
-7.23 -0.64 0.50
-6.92 -0.60 0.56
-7.04 -0.58 0.54
-7.22 -0.57 0.51
-7.04 -0.54 0.54
-7.46 -0.54 0.46
-4.81 -0.38 0.94
-6.80 -0.46 0.58
-5.46 -0.38 0.82
-5.33 -0.35 0.85
-5.27 -0.33 0.86
-5.40 -0.32 0.83
-5.38 -0.30 0.84
-6.21 -0.31 0.69
-6.50 -0.30 0.63
-6.19 -0.27 0.69
-5.87 -0.24 0.75
-6.33 -0.24 0.67
-5.76 -0.20 0.77
-5.49 -0.18 0.82
-5.26 -0.15 0.86
-5.34 -0.14 0.84
-5.53 -0.12 0.81
-6.05 -0.08 0.95
-6.16 -0.07 0.93
-6.06 -0.04 0.94
-6.31 -0.02 0.90
-5.69 0.00 0.71
-5.32 0.02 0.78
-5.00 0.04 0.84
-5.30 0.06 0.78
-4.99 0.07 0.84
-5.28 0.09 0.79
-4.99 0.10 0.84
-4.20 0.11 0.99
-4.95 0.14 0.85
-3.75 0.13 1.08
-3.79 0.14 1.07
-4.73 0.18 0.89
-5.77 0.20 0.94
-5.46 0.20 1.00
-5.32 0.21 1.02
-5.27 0.23 1.03
-5.14 0.24 1.05
-5.18 0.25 1.05
-5.06 0.26 1.07
-4.84 0.26 1.11
-4.54 0.26 1.17
-6.19 0.36 0.85
-4.56 0.29 1.16
-4.37 0.29 1.20
-6.53 0.43 0.79
-6.69 0.46 0.76
-4.22 0.32 1.23
-6.88 0.51 0.72
-6.90 0.53 0.72
-6.88 0.54 0.72
-7.13 0.58 0.67
-7.11 0.60 0.67
-7.08 0.61 0.68
-3.98 0.38 1.27
-3.35 0.34 1.39
-5.59 0.54 0.96
-3.68 0.39 1.33
-5.03 0.54 1.07
-5.17 0.56 1.04
-7.41 -1.59 0.38
-7.48 -1.58 0.37
-7.31 -1.51 0.40
-7.71 -1.26 0.33
-7.45 -1.18 0.38
-7.71 -1.19 0.33
-7.42 -1.13 0.38
-7.64 -1.13 0.34
-7.65 -1.11 0.34
-7.68 -1.09 0.34
-7.57 -1.06 0.36
-7.65 -1.04 0.34
-7.44 -1.00 0.38
-7.44 -0.97 0.38
-7.63 -0.97 0.35
-7.56 -0.92 0.36
-7.46 -0.86 0.38
-7.67 -0.86 0.34
-7.82 -0.85 0.31
-7.86 -0.83 0.31
-7.70 -0.79 0.34
-7.48 -0.75 0.38
-7.66 -0.74 0.34
-7.13 -0.68 0.44
-7.17 -0.66 0.44
-7.14 -0.63 0.44
-7.17 -0.61 0.43
-7.05 -0.58 0.46
-7.35 -0.58 0.40
-7.25 -0.55 0.42
-6.91 -0.51 0.48
-7.02 -0.50 0.46
-7.57 -0.50 0.36
-7.09 -0.46 0.45
-6.68 -0.41 0.53
-7.64 -0.44 0.35
-6.83 -0.38 0.50
-7.33 -0.38 0.40
-6.82 -0.34 0.50
-7.05 -0.32 0.46
-6.77 -0.29 0.51
-7.65 -0.30 0.34
-7.08 -0.26 0.45
-7.90 -0.21 0.30
-5.76 -0.13 0.70
-5.87 -0.11 0.68
-5.62 -0.09 0.72
-5.53 -0.07 0.74
-5.61 -0.05 0.73
-5.51 -0.03 0.75
-5.43 -0.01 0.76
-6.28 -0.00 0.78
-6.40 0.01 0.76
-6.06 0.03 0.82
-6.07 0.04 0.82
-5.91 0.06 0.85
-5.87 0.07 0.86
-5.84 0.09 0.87
-5.74 0.10 0.88
-5.49 0.12 0.93
-5.34 0.13 0.96
-5.35 0.14 0.96
-5.33 0.16 0.96
-5.15 0.17 1.00
-5.27 0.18 0.98
-5.22 0.20 0.99
-5.31 0.21 0.97
-5.34 0.23 0.96
-5.48 0.25 0.93
-5.35 0.26 0.96
-5.38 0.27 0.95
-5.32 0.29 0.96
-5.27 0.30 0.97
-5.20 0.31 0.99
-5.51 0.34 0.92
-6.01 0.38 0.83
-5.31 0.36 0.97
-5.88 0.41 0.85
-5.63 0.41 0.90
-5.63 0.42 0.90
-5.83 0.45 0.86
-5.77 0.47 0.87
-5.85 0.49 0.86
-7.17 0.60 0.59
-4.97 0.45 1.03
-5.42 0.50 0.94
-5.47 0.52 0.93
-5.44 0.53 0.94
-5.48 0.55 0.93
-4.99 0.52 1.02
-5.19 0.55 0.98
-5.00 0.55 1.02
-4.98 0.56 1.02
-4.84 0.58 1.05
-5.13 0.62 0.99
-4.80 0.60 1.06
-5.33 0.67 0.95
-5.31 0.68 0.95
-5.01 0.66 1.01
-4.94 0.67 1.03
-5.60 0.84 0.89
-5.25 0.82 0.96
-5.33 0.91 0.94
-7.17 -0.99 0.35
-4.20 -0.66 0.94
-7.40 -0.97 0.30
-4.19 -0.63 0.94
-4.34 -0.63 0.91
-4.00 -0.58 0.98
-4.05 -0.57 0.97
-4.07 -0.53 0.96
-7.42 -0.79 0.30
-4.16 -0.49 0.94
-7.04 -0.69 0.38
-7.26 -0.69 0.33
-7.14 -0.66 0.36
-7.01 -0.63 0.38
-6.99 -0.60 0.39
-7.05 -0.59 0.38
-7.02 -0.56 0.38
-7.08 -0.54 0.37
-7.01 -0.52 0.38
-6.94 -0.47 0.40
-7.14 -0.46 0.36
-7.35 -0.42 0.32
-7.09 -0.39 0.37
-7.05 -0.37 0.38
-6.83 -0.32 0.42
-5.98 -0.23 0.84
-6.10 -0.22 0.82
-6.03 -0.20 0.83
-5.91 -0.18 0.86
-6.20 -0.17 0.80
-6.18 -0.15 0.80
-7.72 -0.17 0.50
-6.02 -0.12 0.83
-5.83 -0.10 0.87
-5.66 -0.08 0.90
-5.92 -0.07 0.85
-5.88 -0.05 0.86
-5.72 -0.04 0.89
-6.13 -0.02 0.81
-4.96 0.00 0.73
-5.08 0.02 0.70
-4.98 0.04 0.72
-4.79 0.05 0.76
-4.77 0.07 0.77
-4.67 0.08 0.79
-3.62 0.08 1.00
-3.96 0.10 0.93
-4.34 0.12 0.85
-4.32 0.14 0.86
-4.25 0.15 0.87
-4.29 0.17 0.86
-4.39 0.19 0.84
-4.34 0.20 0.85
-4.29 0.22 0.86
-4.03 0.22 0.92
-4.05 0.24 0.91
-4.21 0.26 0.88
-4.11 0.27 0.90
-5.66 0.35 0.58
-5.42 0.29 0.90
-5.34 0.32 0.91
-5.31 0.33 0.92
-5.85 0.39 0.81
-6.20 0.43 0.73
-5.98 0.43 0.78
-6.11 0.45 0.75
-6.35 0.49 0.70
-5.34 0.45 0.91
-7.40 0.64 0.48
-7.54 0.67 0.45
-7.44 0.68 0.47
-7.38 0.71 0.48
-7.69 0.78 0.42
-4.85 0.55 1.01
-7.71 0.97 0.41
-5.41 0.78 0.88
-5.37 0.88 0.89
-5.72 0.95 0.81
-5.39 0.93 0.88
-6.94 -0.71 0.32
-6.91 -0.68 0.33
-6.92 -0.66 0.33
-4.07 -0.40 0.91
-6.80 -0.55 0.35
-6.83 -0.49 0.35
-6.75 -0.42 0.36
-6.83 -0.40 0.35
-6.79 -0.38 0.36
-6.75 -0.36 0.36
-6.74 -0.23 0.36
-6.09 -0.19 0.50
-5.84 -0.17 0.55
-3.25 -0.10 1.08
-5.68 -0.13 0.58
-5.48 -0.11 0.62
-3.54 -0.07 1.02
-5.49 -0.07 0.62
-5.55 -0.05 0.61
-5.52 -0.03 0.61
-5.48 -0.02 0.62
-5.76 0.01 0.76
-5.49 0.04 0.82
-5.46 0.07 0.83
-5.44 0.08 0.83
-5.45 0.10 0.83
-5.50 0.13 0.82
-5.41 0.14 0.84
-5.39 0.16 0.84
-5.42 0.19 0.84
-5.48 0.20 0.82
-5.47 0.22 0.82
-5.20 0.24 0.88
-5.08 0.26 0.91
-4.99 0.28 0.93
-5.19 0.31 0.88
-5.21 0.32 0.88
-5.46 0.37 0.82
-5.30 0.37 0.86
-5.46 0.40 0.82
-5.57 0.43 0.80
-5.63 0.45 0.78
-5.16 0.44 0.88
-5.10 0.46 0.90
-5.08 0.47 0.90
-5.53 0.52 0.80
-4.96 0.50 0.93
-4.88 0.51 0.94
-4.72 0.51 0.98
-4.93 0.56 0.93
-4.86 0.56 0.94
-4.67 0.56 0.99
-4.99 0.62 0.92
-4.83 0.62 0.95
-4.92 0.64 0.93
-4.99 0.67 0.91
-6.56 0.87 0.57
-4.95 0.70 0.92
-4.97 0.73 0.91
-5.95 0.87 0.70
-5.46 0.82 0.81
-4.75 0.75 0.96
-5.79 0.91 0.73
-5.41 0.87 0.82
-5.85 0.97 0.72
-5.83 0.98 0.72
-5.86 1.00 0.71
-5.71 1.01 0.75
-5.61 1.01 0.77
-5.12 0.95 0.87
-5.41 1.03 0.81
-5.60 1.07 0.77
-5.28 1.04 0.84
-2.92 -0.69 1.10
-4.42 -0.69 0.78
-4.31 -0.66 0.80
-4.27 -0.64 0.81
-4.30 -0.63 0.80
-4.47 -0.63 0.76
-4.36 -0.60 0.79
-4.35 -0.58 0.79
-4.37 -0.57 0.79
-4.11 -0.53 0.84
-4.30 -0.53 0.80
-4.14 -0.51 0.84
-4.48 -0.52 0.76
-3.85 -0.41 0.90
-7.42 -0.45 0.41
-7.50 -0.44 0.39
-7.41 -0.42 0.41
-6.82 -0.35 0.54
-7.27 -0.35 0.44
-7.06 -0.32 0.49
-7.53 -0.30 0.39
-7.29 -0.27 0.44
-7.52 -0.26 0.39
-6.13 -0.19 0.69
-5.99 -0.17 0.72
-5.99 -0.15 0.72
-5.93 -0.12 0.73
-5.90 -0.10 0.74
-5.93 -0.08 0.73
-5.86 -0.05 0.74
-5.84 -0.04 0.75
-5.81 -0.02 0.76
-3.69 0.00 0.88
-3.65 0.01 0.88
-4.20 0.03 0.76
-5.38 0.04 0.79
-5.32 0.05 0.80
-5.47 0.07 0.77
-5.28 0.08 0.81
-5.28 0.10 0.81
-5.33 0.11 0.80
-5.30 0.13 0.80
-5.30 0.14 0.80
-5.27 0.15 0.81
-4.39 0.14 1.01
-5.20 0.18 0.83
-5.06 0.19 0.86
-5.13 0.21 0.84
-5.16 0.22 0.83
-4.94 0.23 0.88
-5.04 0.24 0.86
-5.13 0.26 0.84
-5.10 0.28 0.85
-5.10 0.29 0.85
-5.05 0.30 0.86
-5.18 0.32 0.83
-5.10 0.33 0.85
-5.20 0.35 0.82
-5.02 0.35 0.86
-5.02 0.37 0.86
-5.02 0.38 0.86
-5.07 0.40 0.85
-5.09 0.42 0.85
-5.32 0.45 0.79
-5.77 0.49 0.69
-5.58 0.50 0.73
-5.27 0.49 0.80
-5.24 0.50 0.81
-5.42 0.53 0.77
-5.28 0.53 0.80
-5.46 0.56 0.76
-5.44 0.57 0.76
-4.93 0.54 0.88
-4.65 0.53 0.94
-4.59 0.54 0.95
-5.02 0.59 0.85
-4.57 0.56 0.96
-5.66 0.69 0.71
-5.33 0.67 0.78
-4.66 0.61 0.94
-4.73 0.63 0.92
-4.78 0.65 0.91
-5.05 0.69 0.84
-4.99 0.70 0.86
-4.90 0.70 0.88
-5.15 0.75 0.82
-5.12 0.76 0.83
-4.97 0.75 0.86
-4.89 0.76 0.88
-4.98 0.78 0.86
-5.80 0.91 0.67
-4.93 0.80 0.87
-4.92 0.82 0.87
-4.92 0.83 0.87
-4.87 0.84 0.88
-5.07 0.88 0.83
-5.61 0.98 0.71
-5.12 0.92 0.82
-4.95 0.91 0.86
-5.20 0.96 0.80
-5.21 0.98 0.80
-5.24 1.00 0.79
-5.17 1.00 0.80
-5.33 1.04 0.77
-4.54 -0.65 0.69
-4.57 -0.62 0.68
-4.48 -0.60 0.70
-4.20 -0.56 0.76
-5.86 -0.40 0.39
-5.75 -0.37 0.41
-5.80 -0.32 0.40
-5.70 -0.28 0.42
-3.42 -0.16 0.94
-3.29 -0.14 0.97
-3.74 -0.14 0.87
-3.30 -0.12 0.96
-3.39 -0.10 0.94
-5.55 -0.13 0.46
-5.59 -0.11 0.45
-3.79 -0.03 0.85
-3.70 -0.01 0.87
-5.70 0.03 0.65
-5.48 0.04 0.71
-5.61 0.06 0.68
-5.48 0.08 0.71
-5.41 0.10 0.72
-5.49 0.11 0.70
-5.36 0.13 0.73
-5.27 0.14 0.75
-5.38 0.16 0.73
-5.56 0.18 0.68
-5.59 0.19 0.68
-5.66 0.21 0.66
-5.47 0.22 0.70
-5.74 0.24 0.64
-5.53 0.25 0.69
-5.51 0.26 0.69
-5.16 0.26 0.78
-5.22 0.28 0.76
-5.09 0.29 0.79
-5.09 0.30 0.79
-5.12 0.32 0.79
-5.25 0.34 0.75
-5.13 0.35 0.78
-5.28 0.37 0.74
-5.33 0.39 0.73
-5.45 0.41 0.71
-4.96 0.39 0.82
-5.19 0.42 0.77
-5.06 0.43 0.80
-6.00 0.51 0.57
-5.75 0.51 0.63
-5.55 0.51 0.68
-6.43 0.60 0.47
-5.75 0.56 0.63
-6.90 0.67 0.36
-6.76 0.68 0.39
-5.44 0.60 0.70
-5.18 0.59 0.76
-5.98 0.69 0.57
-5.37 0.64 0.71
-5.82 0.71 0.61
-5.88 0.73 0.59
-5.15 0.66 0.77
-5.04 0.66 0.79
-5.61 0.74 0.66
-5.56 0.76 0.67
-6.12 0.84 0.53
-5.03 0.72 0.79
-5.81 0.83 0.61
-5.65 0.83 0.64
-5.70 0.85 0.63
-5.60 0.85 0.65
-5.57 0.86 0.66
-5.08 0.81 0.78
-5.32 0.86 0.72
-4.97 0.83 0.80
-5.26 0.88 0.73
-5.25 0.89 0.73
-4.92 0.86 0.81
-5.16 0.91 0.75
-5.20 0.93 0.74
-5.13 0.94 0.76
-4.94 0.92 0.80
-5.83 1.08 0.59
-5.32 1.01 0.71
-5.36 1.03 0.70
-5.33 1.04 0.71
-5.03 1.01 0.78
-5.48 1.10 0.67
-5.42 1.10 0.68
-5.19 -0.64 0.47
-5.28 -0.56 0.45
-5.28 -0.53 0.45
-5.35 -0.46 0.43
-3.84 -0.23 0.79
-3.43 -0.20 0.88
-3.45 -0.17 0.88
-3.38 -0.16 0.89
-3.52 -0.15 0.86
-3.63 -0.14 0.84
-5.70 -0.17 0.35
-6.06 -0.10 0.57
-6.26 -0.09 0.52
-1.20 -0.88 0.74
-0.84 -0.90 0.57
-2.15 0.82 0.50
-2.13 0.81 0.48
-2.83 0.62 0.34
-2.52 0.51 0.28
-2.24 0.69 0.30
-1.91 0.88 0.32
-2.36 0.70 0.27
-2.39 0.86 0.23
-2.63 0.48 0.20
-2.38 0.58 0.24
-2.29 0.59 0.21
-1.27 -0.92 0.31
-1.63 0.86 0.25
-1.34 0.88 0.27
-1.94 0.77 0.20
-1.90 0.80 0.20
-1.87 0.83 0.20
-1.67 0.86 0.23
-0.91 -0.95 0.27
-1.82 0.78 0.21
-1.80 0.69 0.21
-0.72 -0.87 0.25
-1.01 -0.82 0.27
-0.82 -0.93 0.23
-1.04 -0.84 0.26
-1.25 -0.82 0.26
-0.84 -0.79 0.25
-0.91 -0.92 0.22
-0.83 -0.81 0.23
-1.05 -0.79 0.25
-0.88 -0.88 0.20
-1.04 -0.89 0.21
-1.08 -0.83 0.22
-1.08 -0.84 0.21
-1.11 -0.82 0.21
-1.15 -0.84 0.21
-1.25 -0.83 0.20
