# .PCD v0.7 - Point Cloud Data file format
VERSION 0.7
FIELDS x y z
SIZE 4 4 4
TYPE F F F
COUNT 1 1 1
WIDTH 1283
HEIGHT 1
VIEWPOINT 0 0 0 1 0 0 0
POINTS 1283
DATA ASCII
-9.84 -0.96 1.19
-9.48 -0.82 1.22
-8.16 -0.65 1.21
-8.39 -0.64 1.19
-7.78 -0.53 1.25
-7.71 -0.37 1.25
-9.33 -1.27 1.03
-9.10 -1.22 1.05
-9.15 -1.17 1.05
-9.08 -0.92 1.06
-9.27 -0.86 1.04
-8.14 -0.70 1.15
-8.29 -0.68 1.14
-7.94 -0.57 1.17
-7.43 -0.47 1.22
-7.39 -0.44 1.23
-7.25 -0.39 1.24
-7.31 -0.37 1.23
-7.46 -0.36 1.22
-7.40 -0.33 1.22
-7.47 -0.31 1.22
-7.29 -0.28 1.23
-7.35 -0.26 1.23
-7.08 -0.21 1.26
-6.94 -0.19 1.27
-9.37 -1.33 0.95
-9.32 -1.30 0.96
-9.36 -1.28 0.95
-9.37 -1.22 0.95
-9.18 -1.18 0.97
-9.29 -1.16 0.96
-9.16 -1.12 0.97
-8.96 -1.07 1.00
-8.88 -1.04 1.00
-9.06 -1.03 0.98
-8.87 -0.99 1.01
-9.07 -0.98 0.98
-8.03 -0.84 1.10
-7.88 -0.80 1.11
-8.00 -0.79 1.10
-7.84 -0.75 1.12
-8.35 -0.74 1.06
-8.19 -0.70 1.08
-7.96 -0.66 1.10
-8.01 -0.64 1.10
-8.28 -0.64 1.07
-7.82 -0.56 1.12
-7.72 -0.53 1.13
-7.64 -0.50 1.14
-7.44 -0.47 1.16
-7.21 -0.35 1.18
-8.88 -1.06 0.93
-8.32 -0.99 1.00
-7.96 -0.81 1.04
-8.01 -0.67 1.03
-7.88 -0.63 1.05
-7.79 -0.61 1.06
-7.90 -0.59 1.04
-7.04 -0.26 1.14
-7.11 -0.24 1.13
-7.03 -0.21 1.14
-6.64 -0.14 1.18
-10.57 0.35 0.82
-10.55 0.51 0.82
-9.28 -1.43 0.81
-8.36 -1.09 0.92
-8.46 -1.05 0.91
-8.73 -1.05 0.87
-8.35 -0.99 0.92
-8.41 -0.97 0.91
-8.32 -0.94 0.92
-8.34 -0.89 0.92
-8.09 -0.85 0.95
-7.82 -0.77 0.98
-7.71 -0.74 1.00
-7.82 -0.73 0.98
-7.51 -0.68 1.02
-7.88 -0.68 0.98
-7.76 -0.63 0.99
-7.92 -0.62 0.97
-7.75 -0.58 0.99
-7.50 -0.12 1.19
-6.39 0.02 1.09
-6.59 0.53 1.24
-6.93 0.68 1.20
-7.26 0.81 1.15
-7.37 0.84 1.14
-7.28 0.85 1.15
-8.40 -1.10 0.84
-8.78 -1.11 0.79
-8.64 -1.07 0.81
-8.59 -1.04 0.82
-8.58 -1.01 0.82
-8.86 -1.01 0.78
-8.59 -0.96 0.82
-8.26 -0.91 0.86
-7.71 -0.81 0.93
-7.50 -0.77 0.96
-7.66 -0.76 0.94
-7.60 -0.73 0.94
-7.52 -0.71 0.95
-7.42 -0.67 0.97
-7.53 -0.66 0.95
-7.44 -0.63 0.96
-7.74 -0.63 0.93
-7.30 -0.58 0.98
-7.47 -0.56 0.96
-7.49 -0.54 0.96
-7.49 -0.52 0.96
-7.37 -0.49 0.97
-7.24 -0.46 0.99
-7.35 -0.40 0.98
-6.52 -0.30 1.08
-6.62 -0.29 1.07
-6.74 -0.27 1.05
-6.59 -0.24 1.07
-6.84 -0.08 1.04
-6.35 0.10 1.23
-6.93 0.48 1.14
-6.88 0.49 1.15
-6.59 0.49 1.19
-6.94 0.53 1.14
-7.17 0.57 1.11
-6.84 0.56 1.16
-6.81 0.61 1.16
-6.93 0.64 1.14
-6.88 0.66 1.15
-7.09 0.69 1.12
-7.18 0.72 1.11
-7.35 0.76 1.08
-6.96 0.74 1.14
-7.25 0.79 1.10
-7.15 0.79 1.11
-7.26 0.83 1.09
-7.14 0.83 1.11
-7.11 0.85 1.11
-8.70 -1.23 0.72
-8.75 -1.19 0.72
-8.74 -1.16 0.72
-8.60 -1.12 0.74
-8.64 -1.10 0.73
-8.80 -1.06 0.71
-7.97 -0.96 0.82
-8.50 -0.98 0.75
-8.40 -0.95 0.77
-8.15 -0.90 0.80
-8.03 -0.86 0.82
-8.05 -0.84 0.81
-7.72 -0.79 0.86
-7.73 -0.77 0.86
-7.60 -0.73 0.87
-7.33 -0.69 0.91
-7.21 -0.66 0.93
-7.33 -0.65 0.91
-7.42 -0.63 0.90
-7.48 -0.61 0.89
-7.45 -0.59 0.89
-7.36 -0.56 0.91
-7.43 -0.54 0.90
-7.32 -0.51 0.91
-7.22 -0.48 0.92
-6.88 -0.44 0.97
-7.12 -0.43 0.94
-7.29 -0.42 0.91
-7.03 -0.39 0.95
-7.01 -0.36 0.95
-6.80 -0.34 0.98
-6.39 -0.30 1.04
-6.61 -0.27 1.01
-6.53 -0.24 1.02
-6.46 -0.22 1.03
-6.71 -0.21 0.99
-6.31 -0.14 1.05
-5.73 0.00 1.07
-5.85 0.04 1.05
-6.79 0.50 1.11
-6.63 0.51 1.13
-6.83 0.63 1.10
-7.13 0.70 1.06
-7.16 0.72 1.05
-7.06 0.73 1.07
-7.29 0.79 1.03
-7.29 0.81 1.03
-7.13 0.81 1.05
-6.95 0.81 1.08
-7.12 0.85 1.05
-7.33 0.89 1.02
-7.22 0.94 1.04
-7.79 1.02 0.96
-7.93 1.06 0.94
-8.54 -1.19 0.67
-8.27 -1.11 0.71
-8.16 -1.00 0.73
-8.15 -0.97 0.73
-7.95 -0.93 0.76
-7.85 -0.90 0.77
-9.04 -0.98 0.60
-8.26 -0.88 0.71
-7.20 -0.70 0.86
-7.24 -0.69 0.86
-7.12 -0.65 0.87
-7.12 -0.63 0.87
-7.18 -0.61 0.86
-7.15 -0.59 0.87
-7.42 -0.58 0.83
-7.21 -0.55 0.86
-7.14 -0.52 0.87
-7.05 -0.50 0.88
-6.80 -0.46 0.92
-7.01 -0.45 0.89
-6.88 -0.42 0.91
-6.73 -0.40 0.93
-6.64 -0.37 0.94
-6.55 -0.35 0.95
-6.57 -0.33 0.95
-6.73 -0.31 0.93
-6.51 -0.28 0.96
-6.34 -0.26 0.98
-6.35 -0.24 0.98
-6.17 -0.21 1.01
-6.28 -0.20 0.99
-6.39 -0.18 0.97
-6.09 -0.15 1.02
-5.59 -0.13 1.09
-5.84 -0.11 1.05
-5.84 -0.09 1.05
-5.80 -0.07 1.06
-5.83 -0.05 1.05
-5.73 -0.03 1.07
-5.78 -0.02 1.06
-10.04 0.23 0.57
-10.55 0.32 0.49
-10.48 0.35 0.50
-10.27 0.37 0.53
-10.33 0.39 0.53
-10.25 0.42 0.54
-10.25 0.44 0.54
-10.02 0.46 0.57
-6.04 0.42 1.16
-6.85 0.49 1.04
-7.21 0.53 0.99
-6.28 0.49 1.13
-6.29 0.50 1.12
-7.08 0.58 1.00
-6.34 0.56 1.11
-7.33 0.71 0.96
-7.10 0.73 1.00
-7.09 0.79 1.00
-6.99 0.80 1.01
-7.88 1.03 0.87
-7.65 1.03 0.91
-7.82 1.07 0.88
-8.82 -1.38 0.54
-8.96 -1.32 0.52
-8.31 -1.16 0.62
-7.43 -0.95 0.75
-5.66 -0.76 1.02
-7.76 -0.91 0.70
-8.23 -0.91 0.63
-8.14 -0.85 0.65
-5.86 -0.64 0.99
-7.33 -0.74 0.77
-7.22 -0.68 0.78
-7.21 -0.64 0.79
-7.20 -0.60 0.79
-6.98 -0.54 0.82
-6.82 -0.49 0.84
-6.93 -0.45 0.83
-6.82 -0.40 0.84
-6.71 -0.37 0.86
-6.63 -0.31 0.87
-7.07 -0.26 1.02
-6.43 -0.12 1.11
-6.44 -0.10 1.11
-5.96 0.02 0.91
-5.86 0.04 0.93
-10.69 0.79 0.38
-6.37 0.54 1.06
-6.05 0.53 1.11
-7.80 1.04 0.83
-7.99 1.13 0.79
-8.30 -1.09 0.55
-7.91 -0.95 0.61
-8.27 -0.96 0.55
-8.05 -0.84 0.59
-8.00 -0.81 0.60
-7.09 -0.72 0.74
-6.71 -0.67 0.80
-7.03 -0.67 0.75
-7.30 -0.67 0.71
-6.98 -0.62 0.76
-7.22 -0.60 0.72
-6.92 -0.55 0.77
-6.68 -0.52 0.80
-6.70 -0.50 0.80
-6.77 -0.48 0.79
-6.74 -0.46 0.79
-6.87 -0.42 0.77
-7.02 -0.41 0.75
-6.94 -0.38 0.76
-6.83 -0.36 0.78
-6.72 -0.33 0.80
-6.62 -0.31 0.81
-6.82 -0.29 0.78
-6.52 -0.26 0.83
-6.32 -0.24 0.86
-6.50 -0.22 0.83
-6.72 -0.21 0.80
-6.17 -0.17 0.88
-6.03 -0.15 0.90
-6.29 -0.14 0.86
-6.44 -0.10 0.84
-6.09 -0.02 0.89
-6.37 -0.00 1.01
-4.10 0.01 1.38
-6.25 0.03 1.03
-6.07 0.05 1.06
-6.28 0.08 1.02
-6.58 0.10 0.97
-6.59 0.16 0.97
-10.31 0.26 0.36
-7.00 0.20 0.90
-10.25 0.39 0.37
-6.86 0.31 0.92
-6.81 0.34 0.93
-6.81 0.36 0.93
-9.65 0.52 0.46
-9.98 0.56 0.41
-9.82 0.58 0.44
-6.27 0.42 1.02
-6.43 0.44 0.99
-6.27 0.45 1.02
-6.25 0.47 1.02
-5.99 0.47 1.06
-6.25 0.50 1.02
-6.46 0.53 0.99
-6.11 0.52 1.04
-6.09 0.54 1.05
-7.16 0.64 0.87
-6.75 0.63 0.94
-6.94 0.68 0.90
-6.54 0.66 0.97
-7.15 0.76 0.87
-9.27 -1.68 0.30
-9.19 -1.65 0.31
-9.36 -1.64 0.28
-9.23 -1.60 0.31
-9.10 -1.55 0.33
-9.27 -1.55 0.30
-6.04 -1.07 0.83
-5.91 -0.99 0.85
-8.55 -1.29 0.42
-5.82 -0.94 0.87
-6.41 -0.99 0.77
-5.93 -0.92 0.85
-8.49 -1.19 0.43
-5.97 -0.89 0.85
-5.77 -0.84 0.88
-5.83 -0.83 0.87
-8.19 -1.05 0.48
-5.78 -0.79 0.88
-5.75 -0.77 0.88
-7.20 -0.89 0.64
-7.78 -0.92 0.55
-5.77 -0.71 0.88
-7.83 -0.87 0.54
-7.97 -0.86 0.52
-7.96 -0.84 0.52
-7.66 -0.79 0.57
-7.88 -0.78 0.53
-7.24 -0.71 0.64
-6.58 -0.64 0.75
-7.10 -0.66 0.66
-6.87 -0.62 0.70
-7.11 -0.61 0.66
-6.87 -0.57 0.70
-6.78 -0.55 0.71
-6.63 -0.52 0.74
-6.73 -0.50 0.72
-7.10 -0.41 0.89
-7.15 -0.38 0.88
-7.23 -0.36 0.87
-7.09 -0.34 0.89
-6.90 -0.31 0.93
-7.11 -0.30 0.89
-6.83 -0.27 0.94
-6.76 -0.25 0.95
-7.03 -0.24 0.90
-6.98 -0.22 0.91
-6.72 -0.20 0.95
-6.80 -0.18 0.94
-6.50 -0.16 0.99
-6.43 -0.12 1.00
-6.72 -0.11 0.95
-6.58 -0.09 0.98
-6.35 -0.07 1.01
-6.25 -0.05 1.03
-6.54 -0.04 0.98
-6.06 0.00 0.76
-6.26 0.02 0.73
-6.31 0.04 0.72
-6.58 0.05 0.92
-6.20 0.06 0.98
-6.27 0.10 0.97
-9.32 0.16 0.44
-9.39 0.21 0.43
-6.23 0.20 0.97
-6.66 0.23 0.90
-6.42 0.24 0.94
-6.39 0.29 0.95
-6.29 0.30 0.96
-6.12 0.33 0.99
-7.69 0.44 0.72
-6.31 0.39 0.96
-6.78 0.43 0.87
-8.79 0.57 0.53
-6.45 0.44 0.93
-6.73 0.48 0.88
-6.08 0.45 0.99
-5.93 0.46 1.02
-6.61 0.53 0.90
-6.69 0.55 0.89
-5.93 0.51 1.02
-6.42 0.56 0.93
-7.20 0.66 0.80
-6.64 0.63 0.90
-5.94 0.59 1.02
-6.94 0.70 0.84
-7.77 0.96 0.69
-7.82 0.98 0.68
-7.89 1.08 0.67
-8.19 1.13 0.62
-7.89 1.29 0.66
-7.96 1.36 0.65
-5.68 -1.04 0.83
-5.84 -1.04 0.80
-5.90 -1.03 0.79
-5.85 -1.00 0.80
-5.69 -0.97 0.83
-5.94 -0.98 0.79
-5.94 -0.96 0.79
-6.25 -0.97 0.73
-6.13 -0.94 0.75
-5.83 -0.89 0.81
-5.56 -0.84 0.85
-5.63 -0.83 0.84
-5.65 -0.81 0.84
-5.79 -0.81 0.81
-7.66 -0.98 0.49
-5.65 -0.76 0.84
-5.72 -0.74 0.83
-6.04 -0.76 0.77
-5.99 -0.73 0.78
-6.28 -0.74 0.73
-7.48 -0.82 0.52
-7.17 -0.77 0.58
-7.29 -0.76 0.56
-7.12 -0.72 0.58
-6.56 -0.66 0.68
-7.49 -0.71 0.52
-5.48 -0.54 0.87
-4.53 -0.46 1.03
-6.57 -0.58 0.68
-6.93 -0.58 0.62
-6.64 -0.54 0.67
-6.56 -0.51 0.68
-6.54 -0.49 0.68
-6.48 -0.47 0.69
-6.47 -0.45 0.70
-6.50 -0.43 0.69
-6.20 -0.39 0.74
-6.46 -0.39 0.70
-6.45 -0.36 0.70
-6.16 -0.33 0.75
-6.03 -0.31 0.77
-6.38 -0.30 0.71
-6.52 -0.29 0.69
-6.50 -0.26 0.69
-6.41 -0.24 0.71
-5.85 -0.21 0.80
-6.29 -0.20 0.73
-6.53 -0.18 0.68
-5.25 -0.14 0.90
-6.25 -0.14 0.73
-6.17 -0.12 0.75
-6.34 -0.10 0.72
-6.33 -0.08 0.72
-6.41 -0.06 0.70
-6.58 -0.04 0.67
-6.18 -0.02 0.74
-6.76 -0.00 0.82
-6.74 0.01 0.83
-6.25 0.03 0.92
-6.47 0.05 0.88
-6.41 0.06 0.89
-6.38 0.08 0.89
-6.19 0.10 0.93
-6.29 0.11 0.91
-6.19 0.13 0.93
-6.24 0.15 0.92
-6.46 0.17 0.88
-6.32 0.18 0.90
-6.43 0.20 0.88
-6.38 0.22 0.89
-6.29 0.23 0.91
-6.45 0.25 0.88
-6.33 0.27 0.90
-6.38 0.29 0.89
-6.36 0.30 0.89
-6.28 0.32 0.91
-6.18 0.33 0.92
-6.14 0.34 0.93
-6.06 0.36 0.94
-6.50 0.40 0.87
-6.10 0.39 0.94
-6.35 0.42 0.89
-6.27 0.43 0.90
-6.22 0.45 0.91
-6.03 0.45 0.95
-6.18 0.48 0.92
-6.24 0.50 0.91
-6.31 0.52 0.90
-6.03 0.52 0.95
-6.51 0.57 0.86
-6.63 0.60 0.84
-6.34 0.59 0.89
-7.06 0.67 0.76
-9.05 0.86 0.40
-7.28 0.73 0.72
-7.67 0.78 0.64
-7.40 0.78 0.69
-7.51 0.81 0.67
-8.08 0.89 0.57
-8.28 0.93 0.53
-7.69 0.89 0.64
-7.76 0.91 0.63
-7.40 0.90 0.69
-7.70 0.95 0.63
-7.67 0.97 0.64
-7.25 0.96 0.71
-8.12 1.08 0.56
-7.77 1.06 0.62
-7.58 1.06 0.65
-7.74 1.10 0.62
-7.33 1.07 0.70
-7.18 1.07 0.72
-7.48 1.13 0.67
-7.54 1.15 0.66
-7.24 1.13 0.71
-7.37 1.17 0.69
-7.36 1.19 0.69
-7.16 1.18 0.72
-6.53 1.12 0.84
-5.43 -1.08 0.81
-5.52 -1.07 0.79
-5.49 -1.05 0.80
-5.55 -1.04 0.79
-5.62 -1.01 0.78
-5.65 -1.00 0.77
-5.80 -0.98 0.75
-5.58 -0.93 0.79
-5.70 -0.93 0.76
-5.41 -0.88 0.82
-5.38 -0.86 0.82
-5.51 -0.85 0.80
-5.38 -0.82 0.82
-5.38 -0.80 0.82
-5.59 -0.81 0.78
-5.78 -0.81 0.75
-5.68 -0.78 0.77
-5.53 -0.75 0.80
-5.70 -0.74 0.76
-5.49 -0.71 0.80
-5.55 -0.69 0.79
-6.98 -0.78 0.53
-5.95 -0.67 0.72
-6.29 -0.68 0.66
-5.78 -0.62 0.75
-5.78 -0.60 0.75
-6.36 -0.62 0.65
-7.11 -0.66 0.51
-7.14 -0.64 0.51
-4.32 -0.43 1.02
-6.84 -0.57 0.56
-6.26 -0.52 0.66
-6.81 -0.53 0.57
-6.24 -0.48 0.67
-6.25 -0.46 0.66
-4.63 -0.35 0.96
-6.38 -0.42 0.64
-6.12 -0.39 0.69
-6.30 -0.38 0.66
-5.97 -0.35 0.72
-6.24 -0.34 0.67
-6.47 -0.33 0.63
-6.07 -0.29 0.70
-5.97 -0.27 0.71
-5.87 -0.25 0.73
-5.69 -0.22 0.77
-6.37 -0.22 0.64
-6.33 -0.20 0.65
-5.87 -0.17 0.73
-5.56 -0.15 0.79
-5.40 -0.12 0.82
-6.31 -0.10 0.91
-6.46 -0.09 0.88
-6.78 -0.08 0.82
-7.12 -0.06 0.76
-7.16 -0.04 0.75
-6.54 -0.02 0.86
-5.68 0.02 0.70
-6.01 0.04 0.63
-5.75 0.13 0.68
-5.91 0.19 0.65
-6.32 0.20 0.84
-6.38 0.23 0.83
-6.35 0.39 0.83
-6.27 0.42 0.85
-6.67 0.51 0.77
-6.58 0.52 0.78
-6.69 0.55 0.76
-6.33 0.54 0.83
-6.49 0.58 0.80
-6.83 0.63 0.73
-6.91 0.66 0.72
-7.21 0.70 0.66
-8.17 0.85 0.48
-7.79 0.83 0.55
-7.74 0.87 0.56
-7.84 0.90 0.54
-7.05 0.84 0.69
-7.44 0.90 0.61
-7.57 0.93 0.59
-7.20 0.91 0.66
-7.29 0.94 0.64
-7.27 0.96 0.64
-7.24 0.97 0.65
-7.40 1.01 0.62
-7.17 1.00 0.66
-7.16 1.02 0.66
-7.27 1.06 0.64
-7.36 1.09 0.62
-7.35 1.11 0.62
-7.63 1.18 0.57
-7.40 1.17 0.61
-7.90 1.26 0.51
-7.41 1.21 0.61
-7.77 1.29 0.54
-7.36 1.25 0.61
-7.32 1.26 0.62
-7.26 1.29 0.63
-7.08 1.28 0.66
-5.62 -1.11 0.71
-5.73 -1.10 0.69
-5.63 -1.07 0.71
-5.72 -1.06 0.69
-5.77 -1.05 0.68
-5.81 -1.04 0.67
-5.58 -0.99 0.72
-5.56 -0.97 0.72
-5.51 -0.94 0.73
-5.87 -0.93 0.66
-5.67 -0.89 0.70
-5.56 -0.86 0.72
-5.43 -0.83 0.75
-5.75 -0.84 0.69
-5.73 -0.82 0.69
-5.57 -0.79 0.72
-5.58 -0.77 0.72
-5.37 -0.73 0.76
-5.75 -0.75 0.69
-5.76 -0.73 0.69
-5.88 -0.72 0.66
-5.65 -0.68 0.71
-5.89 -0.68 0.66
-7.12 -0.77 0.43
-6.36 -0.68 0.57
-6.35 -0.66 0.58
-6.05 -0.62 0.63
-6.90 -0.66 0.47
-7.07 -0.65 0.44
-6.63 -0.60 0.52
-6.74 -0.59 0.50
-6.82 -0.57 0.49
-6.78 -0.55 0.49
-6.45 -0.51 0.56
-6.28 -0.48 0.59
-6.13 -0.45 0.62
-6.18 -0.43 0.61
-6.19 -0.41 0.60
-6.26 -0.40 0.59
-6.37 -0.38 0.57
-6.21 -0.36 0.60
-6.03 -0.33 0.64
-6.10 -0.31 0.62
-5.83 -0.28 0.67
-5.90 -0.27 0.66
-6.15 -0.25 0.61
-6.03 -0.23 0.63
-6.20 -0.22 0.60
-5.80 -0.19 0.68
-5.91 -0.17 0.66
-5.60 -0.15 0.71
-6.07 -0.14 0.63
-6.22 -0.12 0.60
-6.53 -0.10 0.54
-5.71 -0.07 0.69
-3.85 -0.04 1.05
-6.03 -0.04 0.63
-5.56 -0.02 0.72
-6.74 0.01 0.70
-6.30 0.03 0.78
-6.41 0.06 0.76
-6.31 0.08 0.78
-6.27 0.10 0.79
-6.32 0.11 0.78
-6.09 0.13 0.82
-6.28 0.15 0.78
-6.32 0.16 0.78
-6.22 0.18 0.79
-6.25 0.20 0.79
-6.26 0.23 0.79
-6.14 0.24 0.81
-5.91 0.25 0.86
-5.88 0.28 0.86
-6.18 0.31 0.80
-6.20 0.33 0.80
-6.07 0.36 0.82
-6.31 0.38 0.77
-6.38 0.41 0.76
-6.31 0.44 0.77
-6.36 0.46 0.76
-6.41 0.48 0.75
-6.16 0.49 0.80
-6.59 0.56 0.71
-6.84 0.61 0.66
-6.86 0.65 0.66
-7.05 0.71 0.62
-7.40 0.78 0.55
-7.48 0.82 0.53
-7.83 0.90 0.46
-7.52 0.91 0.52
-7.22 0.91 0.58
-7.45 0.98 0.53
-7.27 1.00 0.57
-7.60 1.08 0.50
-7.88 1.16 0.44
-6.72 1.04 0.67
-6.58 1.06 0.70
-7.10 1.17 0.59
-7.41 1.26 0.53
-7.01 1.23 0.61
-7.16 1.30 0.58
-7.20 1.38 0.56
-6.20 1.31 0.76
-4.96 1.26 1.00
-5.05 1.30 0.98
-4.90 1.30 1.01
-5.40 -1.13 0.68
-5.40 -1.11 0.68
-5.47 -1.11 0.67
-5.51 -1.09 0.66
-5.39 -1.06 0.69
-5.45 -1.05 0.67
-5.37 -1.02 0.69
-5.43 -1.01 0.68
-5.37 -0.98 0.69
-5.63 -1.00 0.64
-5.52 -0.97 0.66
-5.57 -0.95 0.65
-5.80 -0.96 0.60
-5.75 -0.94 0.62
-5.57 -0.90 0.65
-5.67 -0.89 0.63
-5.77 -0.88 0.61
-5.38 -0.82 0.69
-5.35 -0.80 0.69
-5.34 -0.78 0.70
-5.21 -0.75 0.72
-5.30 -0.74 0.71
-5.03 -0.70 0.76
-5.09 -0.69 0.75
-5.22 -0.68 0.72
-5.29 -0.67 0.71
-5.75 -0.69 0.62
-5.66 -0.67 0.64
-6.29 -0.70 0.51
-5.76 -0.64 0.61
-5.61 -0.61 0.65
-6.25 -0.64 0.52
-5.93 -0.59 0.58
-6.23 -0.60 0.52
-5.82 -0.55 0.60
-5.22 -0.49 0.72
-5.52 -0.49 0.66
-5.72 -0.49 0.62
-6.42 -0.51 0.49
-6.10 -0.47 0.55
-4.11 -0.34 0.94
-4.42 -0.34 0.88
-4.76 -0.34 0.81
-5.77 -0.38 0.61
-5.93 -0.36 0.58
-5.95 -0.35 0.58
-5.88 -0.32 0.59
-5.94 -0.31 0.58
-7.01 -0.26 0.65
-6.96 -0.24 0.65
-6.90 -0.22 0.67
-6.98 -0.21 0.65
-6.94 -0.19 0.66
-7.11 -0.17 0.62
-6.92 -0.15 0.66
-6.95 -0.13 0.66
-6.94 -0.11 0.66
-7.17 -0.10 0.61
-7.09 -0.08 0.63
-7.14 -0.06 0.62
-8.21 -0.05 0.40
-7.39 -0.02 0.57
-5.49 0.04 0.60
-5.23 0.05 0.66
-5.50 0.07 0.60
-6.52 0.39 0.67
-6.59 0.42 0.66
-6.88 0.45 0.60
-6.20 0.43 0.74
-6.50 0.46 0.68
-6.59 0.49 0.66
-6.64 0.51 0.65
-6.40 0.51 0.70
-6.41 0.53 0.69
-6.35 0.54 0.71
-6.67 0.58 0.64
-6.95 0.62 0.58
-6.86 0.63 0.60
-7.36 0.69 0.49
-6.78 0.68 0.61
-7.32 0.75 0.50
-7.45 0.78 0.47
-7.56 0.83 0.45
-7.45 0.86 0.47
-7.29 0.86 0.50
-7.61 0.94 0.43
-7.52 0.95 0.45
-7.34 0.95 0.49
-7.54 0.99 0.45
-7.30 0.98 0.50
-7.43 1.02 0.47
-7.40 1.03 0.47
-7.66 1.08 0.42
-7.47 1.08 0.46
-7.80 1.14 0.39
-7.91 1.18 0.36
-6.42 1.00 0.67
-6.76 1.10 0.60
-7.57 1.26 0.43
-7.42 1.25 0.46
-7.42 1.27 0.46
-7.19 1.26 0.51
-7.27 1.29 0.49
-7.32 1.32 0.48
-7.29 1.33 0.48
-6.39 1.22 0.67
-7.00 1.38 0.54
-1.77 -0.92 1.37
-5.37 -1.02 0.63
-5.50 -0.98 0.60
-5.38 -0.95 0.63
-5.60 -0.96 0.58
-5.45 -0.92 0.61
-5.44 -0.90 0.62
-5.43 -0.88 0.62
-5.42 -0.86 0.62
-5.47 -0.85 0.61
-5.08 -0.79 0.69
-5.16 -0.78 0.68
-5.26 -0.77 0.66
-5.16 -0.74 0.68
-5.25 -0.74 0.66
-5.09 -0.70 0.69
-4.92 -0.67 0.73
-5.08 -0.67 0.69
-5.10 -0.65 0.69
-5.15 -0.64 0.68
-5.37 -0.64 0.63
-5.60 -0.64 0.59
-5.26 -0.60 0.66
-5.02 -0.56 0.71
-4.86 -0.53 0.74
-5.36 -0.55 0.64
-5.96 -0.58 0.51
-4.99 -0.49 0.71
-6.12 -0.55 0.48
-6.29 -0.54 0.44
-6.36 -0.52 0.43
-6.13 -0.49 0.48
-6.16 -0.47 0.47
-4.00 -0.33 0.92
-4.22 -0.33 0.87
-4.29 -0.32 0.86
-5.78 -0.38 0.55
-4.16 -0.28 0.88
-3.70 -0.25 0.98
-3.78 -0.24 0.96
-3.91 -0.23 0.93
-3.83 -0.21 0.95
-5.78 -0.26 0.55
-5.60 -0.24 0.59
-5.99 -0.23 0.50
-5.83 -0.21 0.54
-6.13 -0.20 0.48
-5.47 -0.11 0.61
-3.45 -0.03 1.03
-6.00 -0.02 0.50
-7.20 0.01 0.46
-6.52 0.03 0.61
-6.64 0.07 0.58
-5.91 0.07 0.74
-6.13 0.09 0.69
-6.06 0.11 0.71
-5.95 0.12 0.73
-4.18 0.10 1.11
-6.06 0.16 0.71
-5.94 0.17 0.73
-6.25 0.20 0.66
-5.82 0.20 0.76
-6.03 0.22 0.71
-5.84 0.23 0.75
-5.75 0.24 0.77
-5.91 0.27 0.73
-5.82 0.28 0.75
-6.20 0.31 0.67
-6.03 0.32 0.71
-6.49 0.36 0.61
-6.32 0.37 0.64
-6.68 0.40 0.57
-6.36 0.40 0.64
-6.76 0.44 0.55
-6.42 0.44 0.62
-6.14 0.44 0.68
-6.17 0.46 0.67
-6.21 0.48 0.66
-6.49 0.52 0.60
-6.57 0.54 0.59
-6.75 0.57 0.55
-6.54 0.57 0.59
-6.76 0.61 0.54
-6.88 0.64 0.52
-6.24 0.60 0.66
-7.50 0.73 0.38
-7.60 0.76 0.36
-6.22 0.67 0.66
-7.56 0.81 0.37
-6.94 0.77 0.50
-6.73 0.77 0.54
-7.15 0.83 0.45
-7.27 0.86 0.43
-4.08 0.53 1.12
-7.06 0.88 0.47
-7.04 0.89 0.47
-6.73 0.88 0.54
-6.56 0.87 0.58
-6.57 0.89 0.57
-6.62 0.92 0.56
-6.99 0.98 0.48
-6.53 0.94 0.58
-6.64 0.97 0.56
-6.67 1.00 0.55
-6.90 1.05 0.50
-6.86 1.06 0.51
-6.97 1.09 0.48
-6.92 1.10 0.49
-6.88 1.12 0.50
-7.27 1.19 0.41
-7.05 1.18 0.46
-6.76 1.16 0.52
-6.78 1.18 0.52
-6.43 1.14 0.59
-6.66 1.20 0.54
-6.80 1.24 0.51
-6.43 1.19 0.59
-6.64 1.25 0.54
-6.57 1.25 0.56
-6.46 1.25 0.58
-6.27 1.24 0.62
-6.33 1.27 0.61
-6.53 1.32 0.56
-6.36 1.31 0.60
-6.45 1.34 0.58
-6.37 1.34 0.60
-6.37 1.36 0.60
-6.34 1.37 0.60
-6.18 1.36 0.63
-6.24 1.39 0.62
-6.16 1.39 0.64
-6.03 1.38 0.66
-6.19 1.43 0.63
-5.98 1.41 0.67
-5.94 1.41 0.68
-5.36 1.33 0.81
-5.27 1.32 0.83
-5.09 1.30 0.87
-5.29 1.36 0.82
-5.05 1.32 0.87
-5.03 1.33 0.88
-5.07 1.35 0.87
-4.92 1.33 0.90
-5.12 1.39 0.86
-5.22 1.52 0.83
-5.37 -1.11 0.55
-5.46 -1.09 0.53
-5.35 -1.05 0.56
-5.26 -1.02 0.58
-1.96 -0.55 1.29
-5.21 -0.96 0.59
-5.14 -0.94 0.60
-5.22 -0.91 0.59
-5.17 -0.89 0.60
-5.13 -0.87 0.61
-4.99 -0.81 0.64
-4.97 -0.80 0.64
-5.27 -0.81 0.58
-4.97 -0.74 0.64
-4.92 -0.72 0.66
-4.77 -0.69 0.69
-4.72 -0.65 0.70
-4.73 -0.64 0.70
-4.82 -0.63 0.68
-4.78 -0.59 0.69
-5.13 -0.61 0.61
-5.40 -0.61 0.55
-4.77 -0.53 0.69
-4.75 -0.51 0.69
-4.60 -0.48 0.73
-4.96 -0.47 0.65
-4.71 -0.44 0.70
-4.48 -0.41 0.75
-4.37 -0.37 0.77
-6.52 -0.40 0.61
-6.40 -0.38 0.64
-6.53 -0.37 0.61
-6.37 -0.35 0.64
-6.15 -0.32 0.69
-6.29 -0.31 0.66
-6.28 -0.29 0.66
-6.36 -0.28 0.65
-6.19 -0.25 0.68
-5.95 -0.23 0.73
-5.96 -0.21 0.73
-6.17 -0.20 0.69
-6.37 -0.19 0.64
-7.26 -0.20 0.45
-7.26 -0.18 0.45
-6.59 -0.15 0.60
-6.86 -0.13 0.54
-6.89 -0.12 0.53
-6.57 -0.09 0.60
-6.16 -0.07 0.69
-6.64 -0.06 0.58
-6.99 -0.04 0.51
-6.03 -0.02 0.71
-4.02 -0.00 0.79
-6.41 0.22 0.56
-5.68 0.23 0.72
-6.02 0.25 0.65
-5.77 0.26 0.70
-5.97 0.28 0.66
-5.95 0.30 0.66
-6.65 0.35 0.50
-6.06 0.34 0.64
-6.52 0.38 0.53
-6.34 0.38 0.57
-6.28 0.45 0.58
-7.09 0.52 0.40
-5.97 0.59 0.65
-5.60 0.59 0.73
-7.08 0.82 0.39
-7.10 0.84 0.39
-7.08 0.88 0.39
-6.92 0.88 0.43
-6.87 0.89 0.44
-7.04 0.93 0.40
-6.97 0.96 0.41
-6.30 0.89 0.56
-6.78 0.97 0.45
-6.69 1.05 0.47
-6.66 1.07 0.48
-6.74 1.09 0.46
-6.37 1.06 0.54
-6.40 1.08 0.53
-6.43 1.10 0.53
-6.45 1.12 0.52
-6.71 1.18 0.46
-4.03 0.77 1.07
-6.50 1.19 0.50
-6.68 1.23 0.46
-6.65 1.25 0.47
-6.33 1.21 0.54
-6.37 1.23 0.53
-6.36 1.25 0.53
-6.38 1.27 0.53
-6.23 1.26 0.56
-6.30 1.29 0.54
-6.40 1.35 0.52
-5.79 1.38 0.65
-2.20 -0.70 1.20
-5.27 -1.06 0.50
-5.49 -1.07 0.45
-5.10 -1.00 0.54
-5.09 -0.98 0.55
-5.07 -0.94 0.55
-4.83 -0.88 0.61
-5.12 -0.90 0.54
-5.02 -0.87 0.56
-4.99 -0.85 0.57
-4.97 -0.83 0.58
-4.95 -0.81 0.58
-4.89 -0.79 0.59
-4.84 -0.76 0.61
-4.73 -0.73 0.63
-4.64 -0.71 0.65
-4.61 -0.69 0.66
-4.51 -0.66 0.68
-4.79 -0.67 0.62
-4.57 -0.64 0.67
-4.54 -0.62 0.67
-4.49 -0.60 0.69
-4.40 -0.57 0.71
-4.32 -0.55 0.72
-4.55 -0.56 0.67
-4.52 -0.54 0.68
-4.27 -0.49 0.74
-4.52 -0.49 0.68
-4.39 -0.47 0.71
-4.64 -0.47 0.65
-4.47 -0.41 0.69
-4.10 -0.34 0.77
-4.13 -0.33 0.77
-4.12 -0.31 0.77
-3.89 -0.29 0.82
-4.61 -0.31 0.66
-5.02 -0.31 0.56
-3.92 -0.25 0.81
-3.71 -0.22 0.86
-3.90 -0.22 0.82
-3.82 -0.20 0.84
-3.81 -0.18 0.84
-4.34 -0.19 0.72
-3.69 -0.15 0.86
-3.41 -0.13 0.93
-3.56 -0.12 0.90
-3.68 -0.11 0.87
-6.33 0.03 0.51
-6.25 0.08 0.53
-5.88 0.09 0.62
-6.25 0.11 0.53
-6.57 0.13 0.46
-6.23 0.14 0.53
-6.31 0.16 0.52
-6.75 0.19 0.41
-6.18 0.19 0.55
-6.43 0.23 0.49
-5.79 0.26 0.64
-5.84 0.28 0.62
-6.29 0.31 0.52
-6.02 0.32 0.58
-5.92 0.33 0.60
-6.38 0.37 0.50
-6.51 0.39 0.46
-6.70 0.80 0.41
-6.64 0.83 0.42
-6.58 0.84 0.43
-6.51 0.85 0.45
-6.61 0.88 0.42
-6.25 0.85 0.51
-6.35 0.88 0.48
-6.42 0.91 0.47
-6.20 0.90 0.52
-6.38 0.94 0.47
-6.62 0.99 0.42
-6.66 1.05 0.40
-6.75 1.08 0.38
-6.61 1.08 0.41
-6.76 1.12 0.38
-6.65 1.12 0.40
-6.35 1.09 0.48
-6.43 1.12 0.46
-6.31 1.12 0.48
-6.64 1.26 0.40
-6.51 1.26 0.43
-6.46 1.27 0.44
-6.18 1.24 0.51
-4.02 -1.04 0.73
-4.17 -1.05 0.69
-4.10 -1.03 0.71
-4.17 -1.02 0.69
-4.08 -0.99 0.71
-4.13 -0.99 0.70
-4.13 -0.97 0.70
-4.41 -1.00 0.64
-4.24 -0.96 0.68
-4.10 -0.92 0.71
-4.57 -0.98 0.60
-4.31 -0.92 0.66
-4.30 -0.90 0.66
-4.21 -0.88 0.69
-3.97 -0.83 0.74
-3.91 -0.81 0.76
-5.16 -0.96 0.46
-4.74 -0.88 0.56
-4.39 -0.82 0.64
-4.70 -0.85 0.57
-4.55 -0.81 0.61
-4.68 -0.81 0.58
-4.75 -0.80 0.56
-4.90 -0.80 0.52
-4.86 -0.78 0.53
-4.89 -0.77 0.53
-5.10 -0.78 0.48
-5.00 -0.75 0.50
-4.80 -0.71 0.55
-4.96 -0.71 0.51
-4.83 -0.68 0.54
-4.83 -0.66 0.54
-4.82 -0.65 0.54
-4.69 -0.62 0.58
-4.77 -0.61 0.56
-4.78 -0.59 0.55
-4.72 -0.57 0.57
-4.54 -0.54 0.61
-4.48 -0.52 0.63
-4.64 -0.52 0.59
-4.75 -0.51 0.56
-4.71 -0.49 0.57
-4.48 -0.46 0.63
-4.80 -0.46 0.55
-4.47 -0.42 0.63
-4.34 -0.36 0.66
-4.20 -0.33 0.69
-5.24 -0.37 0.45
-5.45 -0.34 0.40
-4.29 -0.28 0.67
-5.11 -0.29 0.48
-5.21 -0.28 0.45
-4.84 -0.25 0.54
-5.07 -0.24 0.49
-4.29 -0.20 0.67
-5.23 -0.21 0.45
-5.09 -0.19 0.48
-4.92 -0.15 0.52
-3.95 -0.12 0.75
-2.55 -0.73 0.68
-1.97 -0.73 0.51
-2.95 0.84 0.35
-2.62 0.85 0.28
-2.57 0.82 0.26
-2.21 0.95 0.29
-1.68 1.06 0.33
-2.86 0.80 0.20
-2.59 0.83 0.21
-2.76 -0.84 0.20
-2.30 0.73 0.22
-1.75 0.98 0.26
-1.50 0.89 0.29
-0.92 -0.89 0.32
-1.63 0.96 0.25
-0.85 -0.88 0.31
-1.08 -0.82 0.32
-1.42 -0.91 0.29
-1.54 0.88 0.25
-0.80 -0.89 0.28
-1.46 0.90 0.23
-1.50 0.88 0.22
-1.04 -0.84 0.27
-1.40 -0.71 0.28
-0.88 -0.90 0.24
-1.40 -0.83 0.24
-0.81 -0.86 0.20
-1.11 -0.86 0.21
-1.24 -0.70 0.24
-1.15 -0.79 0.21
-1.25 -0.63 0.21
