# .PCD v0.7 - Point Cloud Data file format
VERSION 0.7
FIELDS x y z
SIZE 4 4 4
TYPE F F F
COUNT 1 1 1
WIDTH 2195
HEIGHT 1
VIEWPOINT 0 0 0 1 0 0 0
POINTS 2195
DATA ASCII
-7.83 -0.42 2.14
-7.93 -0.15 2.10
-7.93 -0.35 2.04
-7.93 -0.35 2.02
-8.10 -0.33 2.02
-7.76 0.11 1.98
-7.99 -0.40 1.98
-7.86 -0.37 1.98
-7.95 -0.35 1.98
-8.01 -0.33 1.98
-7.95 -0.30 1.98
-8.02 -0.28 1.98
-7.85 -0.25 1.98
-7.89 -0.23 1.98
-7.82 -0.08 1.98
-7.92 -0.49 1.96
-8.08 -0.48 1.95
-7.96 -0.45 1.96
-8.15 -0.43 1.95
-8.05 -0.40 1.95
-7.87 -0.37 1.96
-7.71 0.04 1.93
-7.75 0.06 1.93
-8.11 0.09 1.92
-7.70 0.11 1.93
-7.68 0.15 1.93
-8.09 -0.57 1.93
-8.08 -0.52 1.93
-8.06 -0.50 1.93
-7.98 -0.45 1.93
-7.98 -0.42 1.93
-8.05 -0.40 1.93
-7.85 -0.37 1.93
-8.03 -0.35 1.93
-7.98 -0.33 1.93
-8.02 -0.30 1.93
-8.26 -0.16 1.92
-7.72 -0.08 1.93
-8.05 -0.04 1.92
-8.02 0.28 1.91
-8.12 0.34 1.90
-8.11 -0.60 1.89
-7.89 -0.56 1.90
-8.08 -0.45 1.91
-8.05 -0.43 1.91
-8.22 -0.42 1.90
-8.32 -0.40 1.90
-8.32 -0.38 1.90
-8.31 -0.36 1.90
-8.49 -0.34 1.90
-8.55 -0.32 1.89
-8.73 -0.31 1.89
-8.64 -0.28 1.89
-8.55 -0.26 1.89
-8.55 -0.23 1.89
-8.56 -0.17 1.89
-8.01 -0.60 1.86
-7.89 -0.56 1.86
-7.87 -0.54 1.86
-7.89 -0.52 1.86
-7.85 -0.49 1.86
-8.01 -0.47 1.86
-7.84 -0.44 1.86
-7.92 -0.42 1.86
-8.00 -0.40 1.86
-8.03 -0.38 1.86
-7.98 -0.33 1.86
-8.26 -0.29 1.85
-7.28 -0.06 1.88
-8.20 -0.68 1.82
-7.96 -0.62 1.83
-7.92 -0.59 1.83
-8.04 -0.57 1.82
-7.86 -0.54 1.83
-7.95 -0.52 1.83
-7.96 -0.50 1.82
-8.04 -0.48 1.82
-8.07 -0.43 1.82
-7.94 -0.37 1.82
-8.21 -0.36 1.82
-7.95 -0.33 1.82
-8.07 -0.31 1.82
-7.98 -0.28 1.82
-8.07 -0.23 1.82
-7.66 -0.20 1.83
-8.47 -0.12 1.83
-7.99 -0.76 1.79
-8.16 -0.70 1.78
-8.03 -0.67 1.78
-8.07 -0.65 1.78
-7.81 -0.58 1.79
-7.78 -0.56 1.79
-8.06 -0.55 1.78
-8.06 -0.52 1.78
-8.01 -0.50 1.78
-8.11 -0.48 1.78
-7.99 -0.42 1.79
-7.85 -0.39 1.79
-7.75 -0.37 1.79
-7.83 -0.32 1.79
-7.78 -0.30 1.79
-7.82 -0.27 1.79
-7.97 -0.25 1.79
-7.83 -0.20 1.79
-8.26 -0.19 1.77
-8.05 -0.16 1.78
-7.48 -0.13 1.80
-7.71 -0.11 1.79
-7.65 -0.08 1.80
-7.33 -0.06 1.81
-7.89 0.19 1.79
-8.02 0.23 1.78
-8.26 0.31 1.77
-8.01 0.40 1.78
-8.01 0.42 1.78
-7.99 0.46 1.78
-7.95 0.48 1.78
-8.25 -0.79 1.74
-8.03 -0.65 1.74
-7.76 -0.58 1.76
-7.71 -0.56 1.76
-7.93 -0.54 1.75
-7.99 -0.52 1.75
-8.09 -0.50 1.74
-8.01 -0.47 1.74
-8.07 -0.45 1.74
-8.08 -0.43 1.74
-7.89 -0.40 1.75
-8.05 -0.38 1.74
-8.49 -0.30 1.76
-8.10 -0.26 1.78
-8.30 -0.25 1.77
-8.68 -0.17 1.75
-8.92 -0.13 1.74
-8.60 -0.04 1.76
-7.50 0.01 1.73
-7.52 0.03 1.72
-7.70 0.06 1.72
-7.85 0.08 1.71
-7.47 0.10 1.73
-7.43 0.13 1.73
-8.07 -0.48 1.70
-8.10 -0.45 1.70
-8.30 -0.44 1.69
-8.07 -0.40 1.70
-7.87 -0.37 1.71
-7.90 -0.35 1.71
-7.77 -0.32 1.72
-7.73 -0.30 1.72
-7.66 -0.27 1.72
-7.94 -0.25 1.71
-7.91 -0.23 1.71
-8.10 -0.21 1.70
-8.00 -0.18 1.70
-7.95 -0.16 1.71
-7.76 -0.13 1.71
-7.81 -0.11 1.71
-7.77 -0.08 1.71
-7.57 -0.06 1.72
-7.57 -0.01 1.72
-8.77 0.05 1.67
-8.39 0.07 1.69
-8.36 0.11 1.69
-8.35 0.14 1.69
-8.00 0.17 1.71
-7.93 0.44 1.71
-7.76 0.45 1.72
-7.94 0.48 1.71
-7.81 0.49 1.71
-7.81 0.51 1.71
-7.66 -0.60 1.68
-8.51 -0.50 1.69
-8.39 -0.47 1.69
-8.45 -0.45 1.69
-8.57 -0.41 1.68
-8.25 -0.38 1.70
-8.17 -0.35 1.70
-8.19 -0.33 1.70
-8.21 -0.31 1.70
-8.58 -0.30 1.68
-8.57 -0.28 1.68
-7.98 -0.22 1.71
-7.97 -0.20 1.71
-7.81 -0.18 1.72
-8.60 -0.17 1.68
-7.90 -0.14 1.72
-8.67 -0.13 1.67
-8.51 -0.10 1.68
-8.61 -0.06 1.68
-8.53 -0.02 1.68
-7.72 0.01 1.63
-8.35 0.09 1.65
-7.83 0.51 1.68
-7.82 -0.59 1.63
-8.40 -0.54 1.59
-8.60 -0.53 1.58
-8.28 -0.49 1.60
-7.90 -0.45 1.62
-7.99 -0.43 1.62
-7.71 -0.39 1.63
-7.62 -0.36 1.64
-7.61 -0.34 1.64
-7.50 -0.31 1.64
-7.44 -0.29 1.65
-7.67 -0.27 1.63
-7.51 -0.24 1.64
-7.78 -0.23 1.63
-7.49 -0.20 1.64
-7.84 -0.18 1.62
-8.10 -0.16 1.61
-8.06 -0.14 1.61
-7.80 -0.11 1.62
-7.94 -0.09 1.62
-8.39 -0.06 1.59
-8.48 -0.04 1.59
-7.73 -0.01 1.63
-8.43 0.03 1.61
-8.57 0.05 1.60
-8.50 0.07 1.60
-8.27 0.09 1.62
-8.23 0.11 1.62
-8.18 0.13 1.62
-8.19 0.15 1.62
-7.98 0.23 1.63
-7.81 0.25 1.64
-7.83 0.27 1.64
-7.90 0.44 1.64
-8.00 0.46 1.63
-7.89 0.54 1.64
-13.97 1.06 1.25
-13.83 1.08 1.26
-14.05 1.13 1.24
-13.89 1.22 1.25
-13.98 1.30 1.24
-7.87 -0.64 1.58
-10.87 -0.79 1.40
-10.68 -0.75 1.41
-7.72 -0.56 1.59
-8.44 -0.52 1.54
-8.19 -0.48 1.56
-7.85 -0.44 1.58
-7.76 -0.42 1.58
-7.77 -0.39 1.58
-7.71 -0.37 1.59
-7.52 -0.34 1.60
-7.58 -0.32 1.59
-7.65 -0.29 1.59
-7.66 -0.27 1.59
-7.42 -0.24 1.60
-7.55 -0.22 1.59
-7.74 -0.20 1.58
-7.52 -0.17 1.60
-7.87 -0.16 1.57
-8.86 -0.08 1.58
-8.35 -0.06 1.61
-8.37 -0.04 1.61
-8.46 -0.02 1.61
-8.04 0.01 1.51
-8.00 0.04 1.51
-7.86 0.06 1.52
-7.79 0.08 1.52
-7.58 0.10 1.54
-7.87 0.13 1.52
-7.67 0.15 1.53
-7.86 0.18 1.52
-7.53 0.20 1.54
-7.65 0.22 1.53
-7.67 0.25 1.53
-10.65 -0.78 1.34
-8.49 -0.52 1.48
-8.05 -0.48 1.51
-7.88 -0.45 1.52
-7.76 -0.42 1.53
-7.61 -0.39 1.54
-7.51 -0.36 1.55
-7.68 -0.34 1.54
-7.57 -0.32 1.54
-7.65 -0.29 1.54
-7.88 -0.28 1.52
-7.89 -0.25 1.52
-8.04 -0.23 1.51
-7.90 -0.21 1.52
-8.07 -0.18 1.51
-7.95 -0.16 1.52
-9.11 -0.15 1.44
-7.97 -0.11 1.51
-7.99 -0.09 1.51
-7.98 -0.06 1.51
-8.15 -0.04 1.50
-7.98 -0.01 1.51
-8.14 0.00 1.53
-8.25 0.05 1.52
-8.14 0.07 1.53
-8.20 0.09 1.53
-8.25 0.11 1.52
-8.41 0.13 1.51
-7.60 0.14 1.57
-7.59 0.16 1.57
-8.21 0.20 1.53
-7.53 0.20 1.58
-7.85 0.23 1.55
-7.62 0.24 1.57
-7.68 0.26 1.56
-7.83 0.29 1.55
-7.43 0.29 1.58
-7.39 0.31 1.58
-7.35 0.35 1.59
-12.58 0.64 1.20
-7.80 0.43 1.55
-7.77 0.45 1.56
-7.77 0.47 1.56
-7.59 0.48 1.57
-7.53 0.49 1.57
-7.65 0.52 1.56
-7.70 0.55 1.56
-7.59 0.56 1.57
-13.18 0.97 1.15
-13.61 1.03 1.12
-13.71 1.07 1.11
-7.12 0.60 1.60
-6.75 0.59 1.63
-13.94 1.19 1.10
-13.80 1.25 1.10
-13.82 1.32 1.10
-13.65 1.41 1.11
-8.02 -0.77 1.46
-10.74 -0.79 1.27
-10.60 -0.72 1.28
-8.41 -0.55 1.43
-8.37 -0.52 1.44
-8.04 -0.45 1.46
-7.80 -0.42 1.48
-8.14 -0.41 1.45
-7.79 -0.37 1.48
-8.15 -0.29 1.53
-5.50 -0.19 1.73
-8.05 -0.24 1.54
-8.42 -0.23 1.51
-7.95 -0.20 1.55
-9.20 -0.21 1.46
-9.16 -0.18 1.46
-9.02 -0.16 1.47
-9.07 -0.13 1.47
-8.72 -0.11 1.49
-9.13 -0.09 1.46
-8.65 -0.06 1.50
-8.29 -0.04 1.52
-8.18 -0.02 1.53
-7.99 0.01 1.41
-7.79 0.03 1.42
-8.33 0.06 1.38
-7.99 0.08 1.41
-7.63 0.10 1.44
-7.82 0.13 1.42
-7.57 0.15 1.44
-7.25 0.17 1.46
-7.35 0.19 1.46
-7.27 0.21 1.46
-7.57 0.24 1.44
-7.21 0.26 1.47
-7.38 0.28 1.45
-7.28 0.30 1.46
-7.22 0.35 1.46
-7.05 0.36 1.48
-6.91 0.38 1.49
-7.26 0.42 1.46
-6.75 0.41 1.50
-13.61 1.23 1.05
-10.68 -0.75 1.21
-10.54 -0.71 1.22
-8.34 -0.47 1.39
-9.46 -0.32 1.30
-7.93 -0.21 1.42
-7.97 -0.18 1.41
-8.08 -0.16 1.40
-7.99 -0.14 1.41
-8.09 -0.11 1.40
-7.81 -0.09 1.42
-9.18 -0.07 1.32
-8.69 -0.04 1.36
-9.08 -0.02 1.33
-7.93 0.00 1.46
-8.12 0.03 1.44
-8.01 0.05 1.45
-7.48 0.06 1.49
-7.59 0.08 1.48
-7.41 0.10 1.50
-7.23 0.12 1.51
-7.45 0.16 1.49
-7.48 0.18 1.49
-7.48 0.20 1.49
-7.26 0.21 1.51
-7.42 0.24 1.50
-7.28 0.25 1.51
-7.24 0.27 1.51
-7.29 0.29 1.51
-7.39 0.31 1.50
-7.21 0.32 1.51
-7.07 0.34 1.52
-7.50 0.38 1.49
-7.50 0.41 1.49
-7.56 0.44 1.48
-12.61 0.73 1.05
-7.28 0.46 1.50
-7.63 0.50 1.47
-7.76 0.55 1.46
-7.27 0.54 1.50
-7.36 0.56 1.50
-7.39 0.58 1.49
-7.34 0.60 1.50
-7.15 0.60 1.51
-6.96 0.61 1.53
-6.99 0.63 1.53
-13.60 1.20 0.96
-13.53 1.23 0.97
-13.33 1.24 0.99
-13.50 1.29 0.97
-13.27 1.31 0.99
-13.44 1.39 0.97
-10.78 -0.91 1.13
-8.53 -0.48 1.41
-8.37 -0.45 1.42
-8.23 -0.42 1.43
-8.16 -0.40 1.44
-8.37 -0.38 1.42
-8.01 -0.35 1.45
-5.49 -0.22 1.66
-5.35 -0.20 1.67
-5.50 -0.19 1.66
-8.21 -0.25 1.43
-5.24 -0.15 1.68
-8.02 -0.20 1.45
-8.72 -0.20 1.39
-8.44 -0.15 1.41
-8.07 -0.12 1.44
-8.39 -0.10 1.42
-8.37 -0.08 1.42
-8.33 -0.06 1.42
-8.32 -0.04 1.42
-4.89 0.01 1.56
-7.83 0.03 1.31
-7.56 0.06 1.44
-7.62 0.08 1.44
-7.51 0.10 1.45
-7.52 0.12 1.44
-7.43 0.14 1.45
-7.59 0.16 1.44
-7.59 0.18 1.44
-7.39 0.20 1.46
-7.48 0.22 1.45
-7.46 0.24 1.45
-7.66 0.26 1.43
-7.50 0.30 1.44
-7.20 0.30 1.47
-7.49 0.33 1.44
-7.10 0.47 1.48
-13.25 0.90 0.92
-12.57 0.95 0.98
-13.14 1.09 0.93
-10.29 -0.73 1.10
-10.19 -0.64 1.11
-8.81 -0.54 1.23
-4.50 -0.31 1.60
-4.43 -0.30 1.61
-4.44 -0.28 1.61
-8.18 -0.41 1.28
-9.05 -0.39 1.20
-9.26 -0.18 1.19
-8.55 -0.14 1.25
-8.63 -0.12 1.24
-7.89 -0.09 1.30
-8.44 -0.07 1.26
-4.73 -0.03 1.58
-4.72 -0.01 1.58
-7.83 0.00 1.37
-7.76 0.02 1.37
-7.54 0.04 1.39
-7.60 0.06 1.39
-7.51 0.08 1.40
-7.68 0.10 1.38
-7.63 0.12 1.38
-7.59 0.14 1.39
-7.48 0.16 1.40
-7.20 0.17 1.43
-7.49 0.20 1.40
-7.46 0.22 1.40
-7.32 0.23 1.41
-7.52 0.26 1.39
-7.29 0.27 1.42
-7.36 0.29 1.41
-7.17 0.30 1.43
-7.33 0.33 1.41
-7.36 0.35 1.41
-7.16 0.36 1.43
-7.36 0.39 1.41
-7.30 0.40 1.41
-12.43 0.69 0.92
-7.21 0.44 1.42
-12.70 0.77 0.89
-12.90 0.81 0.87
-7.38 0.50 1.40
-12.48 0.85 0.91
-7.17 0.53 1.42
-12.14 0.89 0.94
-12.65 0.96 0.89
-12.42 0.97 0.92
-12.55 1.01 0.90
-12.56 1.11 0.90
-10.95 -1.37 0.96
-9.08 -1.09 1.14
-8.94 -1.05 1.15
-10.26 -0.79 1.03
-9.90 -0.71 1.06
-8.48 -0.45 1.19
-8.57 -0.40 1.18
-8.30 -0.37 1.21
-8.39 -0.32 1.20
-4.85 -0.20 1.53
-8.62 -0.27 1.18
-4.75 -0.14 1.54
-4.65 -0.11 1.54
-5.59 -0.09 1.58
-8.19 -0.10 1.33
-7.80 -0.08 1.37
-7.91 -0.06 1.36
-7.80 -0.04 1.37
-7.69 -0.02 1.38
-4.88 0.01 1.48
-4.92 0.04 1.48
-4.92 0.06 1.48
-4.68 0.07 1.50
-4.72 0.09 1.50
-7.05 0.16 1.26
-7.64 0.22 1.33
-7.54 0.24 1.34
-7.47 0.26 1.35
-7.38 0.27 1.36
-7.26 0.29 1.37
-7.21 0.30 1.38
-7.39 0.33 1.36
-7.36 0.35 1.36
-7.31 0.36 1.36
-7.26 0.38 1.37
-7.25 0.40 1.37
-11.94 0.66 0.89
-11.83 0.69 0.90
-11.92 0.72 0.89
-11.84 0.78 0.90
-12.01 0.85 0.88
-12.04 0.88 0.88
-12.05 0.91 0.88
-12.08 0.95 0.87
-7.05 0.59 1.39
-12.10 1.01 0.87
-12.17 1.05 0.86
-6.91 0.64 1.40
-12.43 1.13 0.83
-6.88 0.67 1.40
-12.78 1.22 0.80
-12.94 1.27 0.78
-9.89 1.14 1.09
-4.30 0.75 1.66
-10.94 -1.43 0.88
-10.24 -0.82 0.95
-9.93 -0.77 0.98
-10.22 -0.73 0.96
-9.94 -0.62 0.98
-9.96 -0.60 0.98
-8.50 -0.50 1.12
-4.77 -0.29 1.49
-5.00 -0.29 1.47
-5.23 -0.28 1.45
-5.02 -0.24 1.47
-5.02 -0.22 1.47
-5.11 -0.20 1.46
-4.47 -0.17 1.52
-4.72 -0.16 1.50
-4.71 -0.14 1.50
-4.58 -0.12 1.51
-4.80 -0.09 1.49
-4.74 -0.08 1.49
-4.74 -0.06 1.49
-4.89 -0.05 1.48
-4.70 -0.03 1.50
-4.86 -0.01 1.48
-7.58 0.00 1.29
-7.54 0.02 1.29
-7.60 0.04 1.28
-7.53 0.06 1.29
-7.51 0.08 1.29
-7.58 0.10 1.29
-7.59 0.12 1.28
-7.53 0.14 1.29
-7.59 0.16 1.28
-7.74 0.18 1.27
-7.39 0.19 1.31
-7.56 0.22 1.29
-7.51 0.24 1.29
-7.55 0.26 1.29
-7.48 0.27 1.29
-7.69 0.30 1.27
-7.37 0.31 1.31
-7.37 0.33 1.31
-6.83 0.33 1.36
-6.79 0.34 1.37
-7.12 0.38 1.33
-7.02 0.39 1.34
-6.99 0.41 1.35
-7.12 0.43 1.33
-11.71 0.71 0.83
-7.07 0.47 1.34
-12.05 0.79 0.80
-11.96 0.82 0.80
-11.86 0.84 0.81
-11.83 0.87 0.82
-12.37 0.94 0.76
-7.17 0.58 1.32
-7.15 0.60 1.32
-11.93 1.00 0.80
-12.11 1.04 0.78
-12.18 1.08 0.78
-6.76 0.64 1.37
-6.81 0.67 1.36
-6.96 0.70 1.34
-12.78 1.29 0.71
-12.40 1.47 0.74
-11.13 -1.55 0.78
-8.87 -1.02 1.02
-8.76 -0.98 1.03
-11.62 -1.07 0.73
-10.26 -0.79 0.87
-8.38 -0.55 1.07
-8.64 -0.51 1.04
-5.23 -0.33 1.40
-4.52 -0.28 1.47
-4.88 -0.28 1.43
-4.65 -0.26 1.46
-5.61 -0.21 1.50
-5.63 -0.19 1.50
-6.40 -0.20 1.42
-5.54 -0.16 1.51
-5.55 -0.15 1.51
-5.42 -0.13 1.52
-5.87 -0.12 1.47
-8.81 -0.16 1.16
-5.50 -0.09 1.51
-5.63 -0.07 1.50
-7.74 -0.08 1.27
-7.38 -0.06 1.31
-7.44 -0.04 1.30
-7.54 -0.02 1.29
-6.64 0.39 1.19
-6.72 0.41 1.18
-11.50 0.58 0.78
-11.55 0.64 0.77
-11.84 0.78 0.74
-12.00 0.88 0.72
-12.01 0.91 0.71
-12.53 1.30 0.65
-9.79 -0.62 0.84
-9.35 -0.51 0.89
-9.53 -0.49 0.87
-9.15 -0.45 0.91
-9.05 -0.42 0.92
-8.97 -0.39 0.93
-9.03 -0.36 0.93
-8.74 -0.33 0.96
-8.69 -0.30 0.96
-8.78 -0.28 0.95
-8.43 -0.24 0.99
-8.82 -0.23 0.95
-8.50 -0.17 0.98
-8.45 -0.14 0.99
-8.55 -0.12 0.98
-8.53 -0.09 0.98
-8.61 -0.07 0.97
-7.87 0.00 1.14
-7.79 0.02 1.15
-7.75 0.06 1.15
-7.33 0.08 1.21
-7.69 0.10 1.16
-7.50 0.12 1.18
-7.43 0.14 1.19
-7.43 0.16 1.19
-7.38 0.17 1.20
-11.66 0.32 0.68
-7.20 0.23 1.22
-11.40 0.38 0.71
-11.56 0.44 0.69
-11.47 0.49 0.70
-11.47 0.55 0.70
-11.61 0.59 0.68
-11.66 0.65 0.67
-11.54 0.67 0.69
-11.31 0.69 0.71
-11.76 0.74 0.66
-7.29 0.52 1.20
-11.60 0.82 0.68
-10.22 0.76 0.84
-10.41 0.85 0.82
-10.79 0.91 0.77
-11.08 1.13 0.73
-11.26 -1.66 0.58
-11.34 -1.64 0.57
-11.18 -1.59 0.59
-8.99 -1.14 0.85
-10.70 -1.22 0.65
-9.86 -0.58 0.90
-9.26 -0.47 0.98
-9.21 -0.42 0.98
-9.00 -0.37 1.01
-9.11 -0.35 0.99
-9.23 -0.31 0.98
-5.35 -0.17 1.45
-9.07 -0.25 1.00
-9.01 -0.23 1.00
-8.80 -0.20 1.03
-8.75 -0.18 1.04
-8.51 -0.15 1.06
-8.57 -0.11 1.06
-8.40 -0.08 1.08
-8.33 -0.06 1.09
-8.11 -0.04 1.11
-7.81 -0.02 1.15
-7.97 0.01 0.90
-7.80 0.03 0.92
-7.31 0.08 1.15
-7.22 0.10 1.16
-7.12 0.11 1.18
-6.91 0.13 1.20
-6.96 0.15 1.20
-6.95 0.16 1.20
-6.89 0.18 1.21
-7.00 0.20 1.19
-7.41 0.23 1.14
-7.17 0.24 1.17
-7.11 0.26 1.18
-6.50 0.26 1.25
-6.86 0.29 1.21
-6.95 0.42 1.19
-6.98 0.44 1.19
-6.94 0.46 1.20
-7.09 0.52 1.17
-11.21 0.88 0.64
-11.78 0.95 0.57
-11.20 0.97 0.64
-10.90 0.97 0.68
-6.53 0.67 1.24
-6.59 0.73 1.23
-13.53 1.60 0.33
-8.22 1.31 1.01
-8.71 -0.77 0.81
-2.18 -0.28 1.63
-4.36 -0.40 1.36
-4.28 -0.35 1.37
-4.29 -0.34 1.37
-4.50 -0.33 1.34
-4.78 -0.33 1.30
-4.54 -0.30 1.33
-4.45 -0.28 1.35
-4.50 -0.27 1.34
-4.44 -0.25 1.35
-4.55 -0.22 1.33
-4.86 -0.20 1.29
-4.89 -0.18 1.29
-4.69 -0.16 1.31
-8.39 -0.22 0.85
-8.39 -0.19 0.85
-4.91 -0.11 1.29
-4.55 -0.09 1.33
-8.72 -0.12 0.81
-8.56 -0.09 0.83
-8.58 -0.07 0.83
-8.15 -0.04 0.88
-8.26 -0.02 0.86
-7.35 0.00 1.09
-7.21 0.02 1.11
-7.41 0.04 1.08
-7.10 0.06 1.12
-6.93 0.07 1.15
-6.96 0.09 1.14
-6.84 0.11 1.16
-7.04 0.13 1.13
-6.93 0.15 1.15
-6.74 0.16 1.17
-7.36 0.19 1.09
-6.97 0.20 1.14
-6.97 0.22 1.14
-6.81 0.23 1.16
-6.45 0.24 1.21
-6.67 0.26 1.18
-6.67 0.28 1.18
-10.87 0.50 0.61
-6.69 0.35 1.18
-7.02 0.41 1.13
-6.92 0.42 1.14
-6.80 0.43 1.16
-6.69 0.44 1.17
-6.83 0.47 1.15
-7.01 0.52 1.13
-6.98 0.53 1.13
-6.97 0.57 1.13
-7.35 0.61 1.08
-6.96 0.60 1.13
-6.83 0.61 1.15
-6.66 0.62 1.17
-10.76 0.98 0.61
-6.73 0.66 1.16
-6.70 0.69 1.17
-6.50 0.69 1.19
-6.71 0.73 1.16
-6.29 0.70 1.22
-6.37 0.73 1.21
-6.68 0.78 1.17
-7.20 0.89 1.10
-8.05 1.09 0.98
-8.05 1.11 0.97
-8.10 1.14 0.97
-8.12 1.16 0.96
-8.19 1.19 0.95
-8.17 1.24 0.95
-8.19 1.26 0.95
-8.40 1.31 0.92
-8.46 1.34 0.91
-8.36 1.37 0.93
-9.15 -1.40 0.67
-11.03 -1.60 0.42
-10.83 -1.55 0.45
-10.71 -1.50 0.46
-9.13 -1.29 0.67
-8.89 -1.24 0.71
-8.98 -1.22 0.70
-10.36 -1.34 0.51
-8.76 -0.83 0.73
-4.77 -0.45 1.25
-9.45 -0.66 0.63
-4.59 -0.37 1.28
-4.09 -0.33 1.35
-4.76 -0.33 1.26
-4.29 -0.29 1.32
-4.39 -0.28 1.30
-4.58 -0.27 1.28
-4.56 -0.25 1.28
-4.59 -0.24 1.28
-4.18 -0.21 1.33
-4.36 -0.20 1.31
-4.58 -0.16 1.28
-8.27 -0.22 0.79
-4.84 -0.11 1.24
-5.29 -0.08 1.37
-5.49 -0.07 1.34
-8.56 -0.09 0.93
-8.23 -0.06 0.97
-8.38 -0.04 0.95
-8.33 -0.02 0.96
-4.98 0.00 1.17
-5.18 0.02 1.14
-5.23 0.04 1.14
-8.00 0.08 0.75
-7.84 0.10 0.77
-7.87 0.13 0.77
-7.37 0.14 0.84
-7.40 0.17 0.83
-4.11 0.12 1.29
-7.51 0.21 0.82
-4.13 0.15 1.29
-6.22 0.28 1.19
-10.69 0.76 0.55
-10.71 0.79 0.54
-10.65 0.81 0.55
-10.73 0.84 0.54
-7.28 0.61 1.03
-7.45 0.64 1.01
-10.98 0.95 0.50
-11.03 1.01 0.49
-11.10 1.04 0.48
-7.47 0.74 1.00
-7.32 0.75 1.02
-7.15 0.75 1.05
-6.51 0.72 1.14
-6.48 0.74 1.14
-6.45 0.75 1.15
-6.57 0.78 1.13
-7.24 0.87 1.03
-7.99 1.04 0.92
-8.02 1.06 0.92
-8.02 1.08 0.92
-8.08 1.11 0.91
-7.98 1.12 0.92
-8.06 1.15 0.91
-7.96 1.16 0.92
-8.02 1.19 0.91
-7.95 1.20 0.92
-8.06 1.24 0.91
-8.30 1.34 0.87
-8.65 -1.42 0.66
-10.74 -1.57 0.37
-8.73 -1.19 0.65
-8.94 -1.19 0.62
-4.10 -0.40 1.30
-3.72 -0.36 1.35
-4.04 -0.37 1.31
-3.93 -0.35 1.32
-4.23 -0.35 1.28
-4.34 -0.34 1.27
-4.59 -0.34 1.23
-4.96 -0.34 1.18
-4.70 -0.31 1.21
-4.48 -0.28 1.25
-4.79 -0.28 1.20
-4.51 -0.25 1.24
-4.65 -0.24 1.22
-4.48 -0.22 1.25
-4.60 -0.21 1.23
-4.73 -0.20 1.21
-4.74 -0.18 1.21
-4.89 -0.17 1.19
-4.91 -0.15 1.18
-4.41 -0.12 1.25
-4.89 -0.11 1.19
-4.62 -0.09 1.22
-4.08 -0.07 1.30
-7.75 -0.09 0.79
-4.54 -0.04 1.23
-4.58 -0.03 1.23
-4.81 -0.01 1.20
-8.32 -0.00 0.82
-6.48 0.02 1.10
-6.85 0.04 1.05
-6.68 0.05 1.07
-6.60 0.07 1.08
-6.42 0.08 1.11
-6.59 0.10 1.08
-6.45 0.12 1.10
-4.38 0.10 1.41
-6.84 0.16 1.04
-6.43 0.17 1.11
-6.39 0.19 1.11
-6.35 0.20 1.12
-6.48 0.24 1.10
-6.57 0.26 1.08
-4.42 0.22 1.41
-4.57 0.24 1.38
-4.32 0.26 1.42
-4.43 0.29 1.40
-6.59 0.43 1.08
-4.35 0.31 1.41
-6.41 0.46 1.10
-10.89 0.77 0.43
-10.75 0.79 0.45
-7.17 0.56 0.99
-10.82 0.85 0.43
-9.17 0.75 0.68
-8.04 0.69 0.85
-6.59 0.59 1.07
-7.88 0.72 0.88
-7.58 0.71 0.92
-9.25 0.88 0.67
-9.27 0.90 0.67
-6.98 0.72 1.01
-7.06 0.74 1.00
-6.64 0.72 1.06
-6.95 0.77 1.02
-7.09 0.80 0.99
-7.11 0.82 0.99
-7.69 0.90 0.90
-7.95 0.95 0.86
-7.93 0.97 0.86
-7.98 1.00 0.86
-7.94 1.01 0.86
-8.06 1.05 0.84
-8.02 1.07 0.85
-8.01 1.09 0.85
-8.10 1.12 0.83
-7.98 1.12 0.85
-7.99 1.15 0.85
-7.98 1.17 0.85
-7.79 1.16 0.88
-7.87 1.19 0.87
-7.67 1.19 0.90
-8.72 -1.43 0.56
-8.76 -1.41 0.56
-8.90 -1.40 0.54
-9.60 -1.37 0.43
-10.35 -1.37 0.32
-3.87 -0.42 1.28
-3.83 -0.39 1.29
-3.95 -0.37 1.27
-4.57 -0.34 1.18
-7.11 -0.42 0.80
-4.33 -0.26 1.21
-4.72 -0.24 1.16
-5.29 -0.20 1.28
-5.36 -0.19 1.27
-5.40 -0.17 1.26
-5.53 -0.16 1.25
-5.13 -0.14 1.31
-5.32 -0.13 1.28
-5.09 -0.11 1.31
-5.33 -0.10 1.27
-5.33 -0.09 1.27
-5.07 -0.07 1.31
-5.30 -0.06 1.28
-8.28 -0.06 0.83
-8.17 -0.04 0.85
-8.30 -0.02 0.83
-4.36 0.00 1.16
-6.12 0.14 0.89
-4.41 0.13 1.15
-6.60 0.19 0.81
-4.40 0.16 1.15
-6.18 0.26 0.88
-7.19 0.39 0.72
-11.16 0.65 0.30
-11.19 0.70 0.30
-11.49 0.75 0.25
-11.50 0.78 0.25
-11.18 0.79 0.30
-11.04 0.81 0.32
-11.15 0.84 0.30
-9.48 0.75 0.57
-11.18 0.96 0.29
-9.47 0.85 0.56
-9.56 0.88 0.55
-9.24 0.88 0.60
-11.24 1.11 0.28
-11.27 1.17 0.28
-11.42 1.21 0.25
-11.11 1.21 0.30
-8.44 0.96 0.72
-8.05 1.02 0.78
-7.46 0.98 0.88
-7.72 1.03 0.83
-7.78 1.05 0.82
-7.87 1.09 0.81
-7.85 1.10 0.81
-7.95 1.14 0.80
-8.17 1.19 0.76
-8.06 1.19 0.78
-7.97 1.20 0.79
-7.89 1.26 0.80
-9.91 -1.12 0.30
-9.90 -0.86 0.31
-4.39 -0.36 1.16
-6.95 -0.47 0.76
-4.22 -0.32 1.19
-9.48 -0.47 0.37
-9.49 -0.38 0.37
-5.10 -0.22 1.05
-6.45 -0.20 0.84
-4.33 -0.12 1.17
-4.74 -0.10 1.10
-7.42 -0.11 0.69
-4.49 -0.06 1.14
-4.65 -0.05 1.12
-4.81 -0.01 1.09
-7.58 -0.00 0.81
-6.53 0.02 0.98
-6.46 0.03 0.99
-4.37 0.04 1.34
-6.62 0.07 0.97
-4.27 0.06 1.36
-8.18 0.13 0.71
-4.56 0.09 1.31
-4.57 0.10 1.31
-4.62 0.11 1.30
-4.32 0.12 1.35
-8.25 0.23 0.69
-6.76 0.21 0.94
-6.67 0.23 0.96
-7.43 0.27 0.83
-8.05 0.31 0.73
-8.22 0.34 0.70
-6.22 0.28 1.03
-10.93 0.50 0.25
-6.35 0.32 1.01
-8.66 0.44 0.62
-4.58 0.26 1.30
-7.70 0.46 0.78
-8.64 0.53 0.62
-8.46 0.54 0.65
-8.56 0.57 0.64
-8.02 0.56 0.73
-8.72 0.63 0.61
-8.41 0.63 0.66
-7.94 0.62 0.74
-9.27 0.74 0.52
-9.27 0.76 0.52
-6.50 0.57 0.98
-9.51 0.83 0.47
-9.59 0.86 0.46
-7.07 0.69 0.88
-7.59 0.75 0.79
-7.87 0.80 0.75
-11.01 1.12 0.22
-7.26 0.80 0.84
-7.95 0.89 0.73
-7.55 0.87 0.79
-7.35 0.87 0.83
-7.85 0.94 0.74
-7.22 0.91 0.85
-7.35 0.94 0.83
-7.23 0.95 0.85
-7.33 0.98 0.83
-7.43 1.01 0.81
-7.67 1.06 0.77
-7.93 1.12 0.73
-7.88 1.13 0.73
-7.75 1.14 0.75
-7.93 1.18 0.72
-7.70 1.17 0.76
-7.74 1.20 0.75
-7.70 1.21 0.76
-8.11 1.29 0.69
-8.23 1.33 0.67
-8.39 1.38 0.64
-8.86 1.47 0.56
-8.68 1.46 0.59
-8.50 1.46 0.62
-8.79 1.53 0.57
-8.71 1.54 0.58
-8.70 1.56 0.58
-9.11 1.65 0.51
-8.87 1.64 0.55
-8.94 1.67 0.54
-8.94 -1.46 0.36
-8.87 -1.42 0.37
-9.01 -1.39 0.35
-8.89 -1.35 0.37
-9.21 -1.36 0.32
-9.07 -1.31 0.34
-8.87 -1.18 0.37
-8.95 -1.17 0.36
-8.76 -1.12 0.39
-5.28 -0.66 0.96
-5.57 -0.67 0.91
-5.35 -0.61 0.95
-6.08 -0.65 0.83
-6.08 -0.63 0.83
-6.17 -0.62 0.81
-5.73 -0.57 0.89
-5.99 -0.56 0.84
-5.42 -0.43 0.94
-5.43 -0.32 1.17
-5.52 -0.30 1.15
-9.95 -0.48 0.42
-5.32 -0.26 1.19
-5.29 -0.24 1.19
-9.61 -0.39 0.48
-9.47 -0.36 0.50
-7.93 -0.27 0.75
-5.01 -0.16 1.24
-8.05 -0.23 0.73
-5.01 -0.14 1.24
-5.12 -0.13 1.22
-5.38 -0.12 1.17
-7.76 -0.14 0.78
-7.50 -0.12 0.82
-7.39 -0.10 0.84
-7.29 -0.08 0.86
-7.39 -0.06 0.84
-7.58 -0.04 0.81
-7.46 -0.02 0.83
-4.43 0.00 1.04
-4.45 0.02 1.04
-4.73 0.04 0.99
-6.56 0.05 0.92
-4.22 0.05 1.33
-6.51 0.08 0.93
-4.49 0.07 1.28
-4.64 0.09 1.25
-7.80 0.16 0.70
-8.00 0.18 0.67
-8.24 0.21 0.63
-8.38 0.24 0.60
-5.82 0.18 1.05
-6.25 0.23 0.97
-6.12 0.24 0.99
-5.73 0.24 1.06
-5.79 0.26 1.05
-5.68 0.27 1.07
-8.00 0.39 0.66
-5.28 0.28 1.14
-6.07 0.34 1.00
-5.72 0.34 1.06
-6.12 0.37 0.99
-5.78 0.37 1.05
-8.15 0.52 0.63
-6.08 0.42 1.00
-5.62 0.41 1.08
-5.71 0.43 1.06
-5.68 0.44 1.06
-8.13 0.63 0.64
-9.21 0.73 0.45
-7.54 0.63 0.74
-6.91 0.60 0.85
-7.02 0.64 0.83
-7.12 0.67 0.81
-6.83 0.66 0.86
-7.02 0.70 0.83
-7.07 0.72 0.82
-7.02 0.74 0.83
-7.20 0.77 0.79
-7.19 0.79 0.79
-7.32 0.82 0.77
-7.13 0.82 0.80
-7.31 0.86 0.77
-6.77 0.82 0.86
-7.13 0.88 0.80
-7.32 0.92 0.77
-7.21 0.93 0.79
-7.38 0.97 0.76
-7.46 0.99 0.74
-7.74 1.05 0.69
-7.62 1.05 0.71
-7.81 1.10 0.68
-7.70 1.11 0.70
-8.09 1.18 0.63
-8.37 1.24 0.58
-8.67 1.30 0.52
-9.26 1.41 0.42
-9.12 1.41 0.44
-9.01 1.42 0.46
-8.63 1.39 0.53
-8.62 1.41 0.53
-8.77 1.45 0.50
-8.83 1.49 0.49
-9.15 1.56 0.43
-8.92 1.55 0.47
-9.09 1.60 0.44
-9.31 1.66 0.40
-9.02 1.63 0.45
-9.05 1.66 0.44
-8.87 -1.50 0.28
-8.86 -1.42 0.28
-8.95 -1.38 0.27
-9.05 -1.34 0.25
-8.75 -1.22 0.30
-8.80 -1.20 0.30
-5.24 -0.80 0.91
-5.39 -0.79 0.88
-5.74 -0.81 0.82
-5.68 -0.79 0.83
-5.58 -0.76 0.85
-5.36 -0.72 0.89
-5.58 -0.72 0.85
-5.49 -0.69 0.86
-5.38 -0.67 0.88
-5.62 -0.67 0.84
-5.16 -0.61 0.92
-5.38 -0.61 0.88
-5.59 -0.61 0.85
-5.89 -0.61 0.80
-5.95 -0.60 0.78
-5.94 -0.58 0.79
-3.45 -0.39 1.21
-5.93 -0.52 0.79
-5.60 -0.48 0.84
-5.78 -0.47 0.81
-5.44 -0.43 0.87
-5.24 -0.41 0.91
-4.45 -0.35 1.04
-4.57 -0.34 1.02
-4.75 -0.33 0.99
-4.64 -0.31 1.01
-4.76 -0.30 0.99
-4.49 -0.27 1.03
-4.62 -0.26 1.01
-6.14 -0.30 0.75
-6.96 -0.30 0.61
-5.12 -0.22 0.93
-4.82 -0.20 0.98
-6.51 -0.22 0.69
-6.41 -0.20 0.70
-6.61 -0.19 0.67
-5.50 -0.14 0.86
-4.75 -0.11 0.99
-4.97 -0.10 0.95
-4.76 -0.08 0.99
-4.46 -0.06 1.04
-4.88 -0.05 0.97
-5.08 -0.03 0.93
-4.71 -0.01 0.99
-6.40 -0.00 0.89
-6.59 0.02 0.85
-6.58 0.03 0.86
-6.47 0.05 0.88
-6.57 0.07 0.86
-6.50 0.08 0.87
-6.51 0.10 0.87
-6.35 0.12 0.90
-6.70 0.14 0.83
-6.66 0.16 0.84
-5.87 0.15 0.98
-5.99 0.17 0.96
-6.16 0.19 0.93
-6.19 0.21 0.92
-5.71 0.21 1.01
-5.72 0.23 1.01
-5.58 0.24 1.04
-5.58 0.25 1.03
-5.64 0.27 1.02
-5.65 0.29 1.02
-5.58 0.30 1.03
-5.56 0.31 1.04
-5.63 0.33 1.02
-5.51 0.34 1.04
-5.95 0.38 0.96
-5.85 0.39 0.98
-5.83 0.40 0.99
-5.78 0.42 1.00
-6.24 0.46 0.91
-6.02 0.46 0.95
-5.87 0.47 0.98
-6.25 0.51 0.91
-6.38 0.54 0.88
-7.57 0.65 0.66
-9.27 0.81 0.35
-6.36 0.59 0.88
-7.00 0.66 0.77
-6.52 0.64 0.85
-6.90 0.69 0.78
-6.84 0.70 0.80
-6.82 0.72 0.80
-7.08 0.76 0.75
-7.01 0.77 0.76
-6.94 0.78 0.77
-6.99 0.81 0.77
-7.00 0.83 0.76
-7.04 0.85 0.75
-6.91 0.85 0.78
-7.10 0.89 0.74
-7.12 0.92 0.74
-7.30 0.96 0.70
-7.52 1.00 0.66
-7.31 1.00 0.70
-7.67 1.06 0.63
-8.39 1.17 0.50
-7.43 1.07 0.68
-6.83 1.01 0.79
-8.55 1.26 0.47
-8.71 1.31 0.44
-9.22 1.40 0.34
-6.32 1.01 0.88
-9.49 1.49 0.29
-8.89 1.42 0.40
-6.71 1.12 0.80
-6.80 1.15 0.79
-6.94 1.19 0.76
-6.62 1.16 0.82
-6.57 1.17 0.83
-6.48 1.17 0.84
-6.58 1.21 0.82
-6.71 1.25 0.80
-6.58 1.41 0.81
-6.60 1.43 0.81
-6.59 1.46 0.81
-6.49 1.48 0.83
-4.84 -0.94 0.91
-4.60 -0.89 0.96
-4.46 -0.83 0.98
-4.50 -0.82 0.98
-5.28 -0.82 0.84
-5.15 -0.79 0.86
-5.34 -0.79 0.83
-5.25 -0.76 0.84
-5.27 -0.75 0.84
-5.26 -0.73 0.84
-5.27 -0.71 0.84
-5.34 -0.70 0.83
-5.48 -0.69 0.80
-5.45 -0.67 0.81
-5.53 -0.66 0.79
-5.60 -0.65 0.78
-5.71 -0.64 0.76
-5.78 -0.63 0.75
-5.42 -0.58 0.81
-5.23 -0.55 0.85
-5.50 -0.55 0.80
-5.83 -0.55 0.74
-5.60 -0.52 0.78
-5.86 -0.52 0.73
-5.64 -0.48 0.77
-5.90 -0.48 0.73
-5.93 -0.46 0.72
-4.71 -0.38 0.94
-5.13 -0.38 0.86
-5.04 -0.36 0.88
-4.85 -0.33 0.92
-5.05 -0.33 0.88
-5.06 -0.31 0.88
-5.14 -0.30 0.86
-5.31 -0.28 0.83
-4.70 -0.25 0.94
-4.85 -0.23 0.91
-6.62 -0.27 0.60
-4.92 -0.20 0.90
-6.35 -0.22 0.65
-4.92 -0.17 0.90
-5.75 -0.17 0.75
-4.56 -0.13 0.96
-4.94 -0.12 0.90
-7.09 -0.11 0.76
-7.11 -0.09 0.76
-6.77 -0.07 0.82
-7.34 -0.06 0.72
-7.02 -0.04 0.78
-6.46 -0.02 0.88
-4.60 0.00 0.90
-4.79 0.02 0.86
-4.77 0.03 0.87
-4.85 0.05 0.85
-4.43 0.06 0.93
-4.53 0.08 0.91
-4.41 0.10 0.93
-4.65 0.12 0.89
-4.55 0.13 0.91
-5.09 0.16 0.80
-4.79 0.17 0.86
-6.57 0.20 0.79
-6.66 0.22 0.78
-6.08 0.22 0.89
-5.37 0.21 1.02
-5.41 0.23 1.01
-5.43 0.25 1.01
-5.72 0.27 0.95
-5.47 0.28 1.00
-5.62 0.30 0.97
-5.61 0.31 0.97
-5.38 0.32 1.02
-5.75 0.35 0.95
-5.76 0.37 0.94
-5.65 0.38 0.97
-5.70 0.39 0.95
-5.60 0.40 0.97
-5.53 0.41 0.99
-5.94 0.46 0.91
-5.86 0.47 0.92
-5.99 0.49 0.90
-6.56 0.55 0.79
-6.37 0.55 0.82
-6.76 0.60 0.75
-6.67 0.61 0.77
-7.06 0.66 0.69
-6.62 0.64 0.77
-7.16 0.71 0.67
-7.32 0.74 0.64
-7.39 0.77 0.62
-6.96 0.75 0.71
-7.02 0.77 0.69
-6.92 0.78 0.71
-6.92 0.80 0.71
-7.03 0.83 0.69
-6.93 0.84 0.71
-6.63 0.82 0.76
-7.07 0.89 0.68
-7.30 0.94 0.63
-7.14 0.94 0.67
-7.79 1.03 0.54
-8.90 1.19 0.32
-8.54 1.17 0.39
-8.12 1.14 0.47
-8.60 1.22 0.38
-8.59 1.24 0.38
-8.62 1.27 0.37
-8.59 1.29 0.38
-8.93 1.36 0.31
-8.95 1.39 0.31
-8.93 1.40 0.31
-6.51 1.07 0.78
-6.66 1.11 0.75
-8.97 1.48 0.30
-8.55 1.53 0.38
-6.78 1.28 0.72
-6.69 1.28 0.74
-4.87 -0.78 0.85
-5.11 -0.75 0.80
-5.40 -0.76 0.75
-5.03 -0.71 0.82
-5.28 -0.71 0.77
-5.53 -0.72 0.73
-5.40 -0.69 0.75
-5.47 -0.67 0.74
-5.33 -0.64 0.76
-5.27 -0.62 0.78
-5.88 -0.65 0.66
-5.39 -0.60 0.75
-5.39 -0.58 0.75
-5.60 -0.57 0.71
-5.49 -0.55 0.74
-5.65 -0.54 0.70
-5.84 -0.53 0.67
-5.71 -0.51 0.69
-5.81 -0.49 0.67
-5.77 -0.47 0.68
-5.61 -0.44 0.71
-5.66 -0.43 0.70
-5.24 -0.39 0.78
-5.06 -0.36 0.81
-5.24 -0.35 0.78
-5.26 -0.34 0.78
-5.71 -0.34 0.69
-4.96 -0.29 0.83
-6.47 -0.33 0.55
-6.78 -0.32 0.49
-6.73 -0.30 0.50
-4.70 -0.21 0.88
-6.37 -0.24 0.57
-5.40 -0.20 0.75
-5.15 -0.17 0.80
-4.73 -0.15 0.88
-6.31 -0.16 0.58
-4.78 -0.12 0.87
-4.57 -0.10 0.90
-4.49 -0.08 0.92
-5.00 -0.07 0.82
-4.35 -0.05 0.95
-4.67 -0.03 0.89
-4.53 -0.01 0.91
-6.58 -0.00 0.73
-6.78 0.01 0.69
-6.73 0.03 0.70
-6.72 0.05 0.70
-6.86 0.07 0.67
-6.65 0.08 0.71
-6.37 0.10 0.77
-6.49 0.12 0.74
-6.58 0.14 0.73
-6.35 0.15 0.77
-6.58 0.17 0.73
-6.57 0.19 0.73
-6.51 0.20 0.74
-6.48 0.22 0.74
-6.37 0.23 0.77
-5.86 0.23 0.87
-6.09 0.26 0.82
-5.40 0.24 0.96
-5.57 0.27 0.92
-5.38 0.27 0.96
-5.32 0.29 0.97
-5.39 0.30 0.96
-5.32 0.31 0.97
-5.42 0.33 0.95
-5.34 0.34 0.97
-5.39 0.36 0.96
-5.48 0.38 0.94
-5.43 0.39 0.95
-5.72 0.43 0.89
-5.78 0.45 0.88
-5.45 0.44 0.94
-6.36 0.52 0.76
-6.25 0.53 0.78
-6.66 0.58 0.70
-5.90 0.53 0.85
-5.51 0.52 0.93
-5.79 0.56 0.87
-6.24 0.61 0.78
-5.98 0.60 0.83
-7.13 0.73 0.60
-7.10 0.74 0.61
-7.19 0.77 0.59
-7.07 0.78 0.61
-7.27 0.82 0.57
-7.29 0.84 0.57
-7.07 0.83 0.61
-6.92 0.84 0.64
-6.93 0.86 0.64
-6.97 0.88 0.63
-6.95 0.90 0.63
-6.94 0.91 0.63
-7.02 0.94 0.62
-7.08 0.97 0.60
-6.20 0.88 0.78
-7.05 1.00 0.61
-7.27 1.05 0.56
-7.40 1.09 0.54
-7.60 1.13 0.49
-7.83 1.18 0.45
-7.79 1.20 0.46
-7.76 1.22 0.46
-7.90 1.26 0.43
-8.07 1.30 0.40
-8.49 1.39 0.31
-8.62 1.43 0.28
-6.09 1.20 0.79
-6.08 1.21 0.79
-6.03 1.22 0.80
-6.11 1.25 0.78
-6.34 1.56 0.72
-4.33 -1.06 0.89
-4.58 -1.09 0.84
-4.49 -1.04 0.86
-4.40 -0.93 0.88
-4.48 -0.93 0.86
-4.54 -0.92 0.85
-4.45 -0.89 0.87
-4.54 -0.89 0.85
-4.71 -0.84 0.82
-4.68 -0.82 0.82
-4.94 -0.80 0.77
-5.02 -0.79 0.75
-4.98 -0.77 0.76
-5.16 -0.77 0.73
-5.21 -0.76 0.72
-5.26 -0.75 0.71
-5.26 -0.73 0.71
-5.12 -0.70 0.74
-5.26 -0.69 0.71
-5.18 -0.67 0.72
-5.23 -0.66 0.72
-5.10 -0.63 0.74
-4.96 -0.60 0.77
-4.92 -0.58 0.78
-5.20 -0.58 0.72
-4.95 -0.55 0.77
-5.18 -0.55 0.72
-4.82 -0.50 0.80
-3.33 -0.38 1.09
-5.77 -0.53 0.61
-5.90 -0.52 0.58
-4.15 -0.39 0.93
-6.21 -0.50 0.52
-6.11 -0.47 0.54
-5.91 -0.44 0.58
-5.72 -0.41 0.62
-5.69 -0.39 0.62
-5.28 -0.36 0.71
-5.23 -0.34 0.71
-5.33 -0.32 0.70
-5.46 -0.31 0.67
-5.35 -0.29 0.69
-6.38 -0.24 0.77
-5.98 -0.21 0.85
-6.16 -0.20 0.81
-7.90 -0.23 0.47
-6.66 -0.18 0.71
-5.26 -0.13 0.99
-6.58 -0.14 0.73
-6.87 -0.13 0.67
-6.90 -0.11 0.67
-6.89 -0.09 0.67
-6.61 -0.07 0.72
-6.74 -0.06 0.70
-6.50 -0.04 0.74
-6.41 -0.02 0.76
-4.92 0.00 0.72
-5.04 0.02 0.69
-5.06 0.04 0.69
-4.94 0.05 0.71
-5.23 0.07 0.65
-4.59 0.08 0.78
-4.23 0.09 0.86
-5.17 0.12 0.66
-4.54 0.13 0.79
-4.71 0.15 0.76
-4.52 0.16 0.80
-4.57 0.18 0.79
-4.25 0.19 0.85
-4.30 0.20 0.84
-4.53 0.23 0.79
-4.66 0.28 0.77
-4.61 0.29 0.78
-4.95 0.33 0.70
-5.31 0.28 0.93
-5.21 0.29 0.95
-5.21 0.31 0.95
-5.40 0.33 0.91
-5.37 0.34 0.92
-5.18 0.35 0.95
-5.54 0.40 0.88
-5.44 0.42 0.90
-5.50 0.46 0.89
-5.18 0.45 0.95
-6.22 0.54 0.73
-7.40 0.65 0.49
-6.28 0.60 0.72
-7.27 0.70 0.51
-7.29 0.72 0.51
-7.20 0.73 0.52
-6.88 0.72 0.59
-7.44 0.81 0.47
-7.32 0.82 0.50
-7.56 0.90 0.45
-7.48 0.93 0.46
-7.28 0.93 0.50
-7.16 0.94 0.53
-5.81 0.79 0.81
-7.40 1.00 0.47
-7.39 1.02 0.48
-7.51 1.06 0.45
-7.47 1.07 0.46
-7.73 1.13 0.40
-7.43 1.11 0.46
-7.37 1.12 0.48
-7.52 1.16 0.44
-7.56 1.18 0.43
-7.66 1.22 0.41
-7.77 1.26 0.39
-7.79 1.28 0.38
-8.16 1.36 0.31
-8.03 1.36 0.33
-7.97 1.37 0.34
-8.08 1.41 0.32
-7.95 1.41 0.35
-7.72 1.39 0.39
-7.81 1.43 0.37
-7.81 1.45 0.37
-7.80 1.47 0.37
-6.49 1.53 0.64
-6.42 1.57 0.65
-4.46 -0.89 0.81
-5.38 -0.79 0.62
-5.13 -0.73 0.68
-5.15 -0.72 0.67
-5.59 -0.74 0.58
-5.15 -0.68 0.67
-5.00 -0.65 0.70
-5.03 -0.64 0.70
-4.76 -0.58 0.75
-4.85 -0.57 0.73
-5.57 -0.59 0.59
-5.52 -0.57 0.60
-6.06 -0.59 0.49
-6.22 -0.58 0.45
-4.43 -0.43 0.82
-6.17 -0.52 0.46
-6.10 -0.49 0.48
-6.17 -0.48 0.46
-6.21 -0.46 0.46
-6.16 -0.44 0.47
-6.08 -0.41 0.48
-5.94 -0.39 0.51
-5.75 -0.36 0.55
-5.63 -0.33 0.57
-5.39 -0.31 0.62
-5.52 -0.29 0.60
-5.69 -0.28 0.56
-4.08 -0.21 0.89
-5.70 -0.24 0.56
-3.84 -0.17 0.94
-4.23 -0.17 0.86
-6.10 -0.20 0.48
-4.52 -0.14 0.80
-5.29 -0.14 0.64
-4.78 -0.12 0.75
-4.88 -0.10 0.73
-4.93 -0.08 0.72
-4.71 -0.07 0.76
-4.52 -0.05 0.80
-4.64 -0.03 0.78
-4.61 -0.02 0.78
-6.26 -0.00 0.67
-6.22 0.01 0.68
-6.04 0.03 0.71
-6.18 0.05 0.68
-6.18 0.06 0.68
-6.25 0.08 0.67
-6.26 0.10 0.67
-5.92 0.11 0.74
-5.85 0.12 0.75
-6.32 0.15 0.65
-6.26 0.16 0.67
-5.46 0.16 0.84
-5.92 0.19 0.74
-5.19 0.18 0.90
-5.20 0.19 0.89
-5.32 0.21 0.87
-5.32 0.23 0.87
-5.17 0.24 0.90
-5.61 0.27 0.80
-5.31 0.27 0.87
-5.33 0.29 0.86
-5.17 0.29 0.90
-5.37 0.32 0.85
-5.12 0.32 0.91
-5.19 0.33 0.89
-5.39 0.36 0.85
-5.47 0.38 0.83
-5.23 0.38 0.88
-5.25 0.40 0.88
-5.31 0.41 0.86
-4.90 0.40 0.95
-5.43 0.45 0.84
-5.56 0.48 0.81
-7.84 0.67 0.31
-5.55 0.51 0.81
-6.02 0.58 0.70
-7.36 0.75 0.41
-6.93 0.73 0.50
-5.99 0.70 0.71
-5.64 0.68 0.78
-5.74 0.71 0.76
-7.53 0.96 0.37
-5.73 0.77 0.76
-5.75 0.79 0.76
-7.65 1.04 0.34
-7.02 0.98 0.48
-7.07 1.00 0.46
-7.53 1.08 0.36
-7.63 1.12 0.34
-7.70 1.15 0.32
-7.70 1.17 0.32
-7.68 1.18 0.33
-7.29 1.15 0.41
-7.18 1.15 0.43
-7.40 1.20 0.38
-7.32 1.21 0.40
-7.45 1.25 0.37
-7.14 1.22 0.44
-7.25 1.26 0.41
-7.13 1.26 0.44
-7.09 1.27 0.45
-7.09 1.29 0.45
-6.90 1.28 0.49
-7.05 1.32 0.45
-7.19 1.37 0.42
-7.28 1.40 0.40
-7.27 1.42 0.40
-7.33 1.45 0.39
-7.34 1.47 0.38
-7.33 1.55 0.38
-6.98 1.54 0.46
-7.03 1.57 0.45
-6.90 1.56 0.47
-6.85 1.57 0.48
-6.89 1.60 0.47
-6.85 1.61 0.48
-6.95 1.65 0.46
-6.81 1.64 0.49
-6.92 1.68 0.46
-6.67 1.65 0.52
-6.68 1.67 0.51
-4.49 -1.14 0.73
-4.36 -1.09 0.76
-4.44 -1.08 0.74
-4.29 -1.04 0.78
-4.35 -1.04 0.76
-4.32 -1.02 0.77
-4.30 -1.00 0.77
-4.25 -0.98 0.79
-4.33 -0.97 0.77
-4.32 -0.94 0.77
-4.39 -0.93 0.76
-4.35 -0.91 0.77
-4.17 -0.85 0.81
-4.37 -0.87 0.76
-4.20 -0.80 0.80
-4.55 -0.81 0.73
-5.36 -0.89 0.55
-4.84 -0.81 0.66
-5.27 -0.84 0.57
-5.23 -0.82 0.58
-5.01 -0.78 0.63
-4.88 -0.75 0.65
-5.01 -0.74 0.63
-5.43 -0.77 0.54
-5.36 -0.72 0.55
-5.10 -0.68 0.61
-5.55 -0.70 0.51
-5.51 -0.66 0.52
-4.92 -0.60 0.65
-5.91 -0.66 0.43
-4.70 -0.53 0.69
-4.80 -0.52 0.67
-6.08 -0.59 0.40
-4.55 -0.45 0.73
-4.43 -0.43 0.75
-4.73 -0.43 0.69
-3.91 -0.35 0.86
-5.04 -0.32 0.94
-5.17 -0.31 0.91
-7.23 -0.40 0.46
-5.38 -0.29 0.86
-7.13 -0.36 0.48
-6.78 -0.32 0.56
-6.50 -0.29 0.62
-6.12 -0.26 0.70
-5.58 -0.23 0.82
-7.44 -0.28 0.41
-5.92 -0.21 0.74
-7.72 -0.24 0.35
-5.50 -0.17 0.84
-6.21 -0.17 0.68
-5.42 -0.13 0.85
-5.24 -0.12 0.89
-5.07 -0.10 0.93
-6.36 -0.10 0.65
-6.26 -0.09 0.67
-5.84 -0.07 0.76
-5.83 -0.05 0.76
-6.06 -0.04 0.71
-6.26 -0.02 0.67
-3.74 -0.00 0.84
-3.90 0.01 0.81
-3.83 0.03 0.82
-6.00 0.04 0.66
-5.89 0.06 0.68
-5.90 0.09 0.68
-5.64 0.10 0.74
-5.43 0.13 0.79
-5.23 0.14 0.83
-5.57 0.16 0.76
-5.94 0.19 0.67
-5.23 0.19 0.83
-5.03 0.20 0.88
-5.30 0.24 0.81
-5.16 0.25 0.85
-5.10 0.26 0.86
-5.07 0.27 0.87
-5.10 0.30 0.86
-5.36 0.33 0.80
-5.52 0.37 0.76
-6.23 0.43 0.60
-5.21 0.38 0.83
-5.61 0.42 0.74
-5.45 0.51 0.77
-2.90 0.31 1.35
-5.62 0.59 0.73
-5.89 0.64 0.67
-2.93 0.37 1.34
-2.86 0.37 1.36
-3.00 0.41 1.33
-5.25 0.67 0.81
-5.84 0.78 0.68
-4.92 0.68 0.88
-6.35 0.98 0.55
-7.25 1.30 0.33
-6.24 1.17 0.57
-6.81 1.28 0.43
-7.18 1.38 0.35
-7.26 1.42 0.33
-7.16 1.44 0.35
-7.12 1.47 0.36
-6.98 1.46 0.39
-7.00 1.50 0.38
-6.98 1.54 0.38
-6.83 1.53 0.41
-6.90 1.58 0.40
-4.20 -1.12 0.73
-3.79 -0.95 0.83
-4.26 -0.97 0.72
-4.25 -0.96 0.72
-4.00 -0.91 0.78
-3.91 -0.88 0.80
-4.04 -0.88 0.77
-4.10 -0.88 0.76
-4.10 -0.84 0.76
-4.21 -0.84 0.74
-3.75 -0.76 0.84
-3.98 -0.75 0.79
-3.38 -0.67 0.92
-4.85 -0.83 0.59
-4.89 -0.81 0.58
-4.98 -0.81 0.57
-4.94 -0.78 0.57
-5.08 -0.78 0.54
-4.91 -0.75 0.58
-4.75 -0.71 0.62
-4.70 -0.69 0.63
-2.11 -0.42 1.21
-4.69 -0.66 0.63
-4.82 -0.65 0.60
-4.84 -0.64 0.60
-4.75 -0.61 0.62
-4.52 -0.58 0.67
-4.54 -0.56 0.66
-4.44 -0.54 0.69
-4.44 -0.52 0.69
-4.57 -0.52 0.66
-4.48 -0.49 0.68
-4.39 -0.47 0.70
-4.39 -0.46 0.70
-4.50 -0.45 0.67
-4.31 -0.42 0.72
-4.45 -0.41 0.69
-4.25 -0.39 0.73
-4.52 -0.39 0.67
-5.73 -0.43 0.40
-5.66 -0.41 0.41
-5.93 -0.41 0.35
-4.20 -0.31 0.74
-4.69 -0.31 0.63
-4.45 -0.29 0.69
-6.01 -0.33 0.34
-3.84 -0.23 0.82
-4.28 -0.23 0.72
-4.08 -0.21 0.77
-4.04 -0.19 0.78
-4.15 -0.18 0.75
-3.80 -0.16 0.83
-3.85 -0.14 0.82
-3.84 -0.13 0.82
-3.65 -0.11 0.86
-3.61 -0.10 0.87
-3.74 -0.09 0.84
-3.77 -0.06 0.84
-3.72 -0.01 0.85
-6.23 0.03 0.54
-5.94 0.04 0.61
-5.94 0.06 0.61
-5.94 0.07 0.61
-6.20 0.09 0.55
-6.31 0.11 0.52
-6.01 0.12 0.59
-5.62 0.13 0.68
-6.20 0.16 0.55
-5.42 0.16 0.73
-5.38 0.17 0.74
-5.56 0.19 0.70
-5.37 0.20 0.74
-5.47 0.22 0.72
-5.29 0.22 0.76
-5.13 0.23 0.80
-5.17 0.25 0.79
-5.42 0.27 0.73
-5.29 0.28 0.76
-5.32 0.30 0.75
-5.47 0.32 0.71
-5.43 0.33 0.72
-5.45 0.35 0.72
-5.72 0.38 0.65
-5.52 0.38 0.70
-5.89 0.42 0.61
-6.79 0.50 0.40
-5.61 0.52 0.68
-5.50 0.56 0.70
-5.88 0.61 0.61
-5.52 0.59 0.69
-5.36 0.59 0.73
-5.33 0.60 0.74
-5.90 0.68 0.60
-5.65 0.68 0.66
-5.53 0.68 0.69
-5.15 0.66 0.78
-5.28 0.68 0.75
-5.55 0.73 0.68
-5.54 0.74 0.68
-5.46 0.75 0.70
-5.42 0.76 0.71
-5.15 0.74 0.77
-5.64 0.82 0.66
-5.76 0.85 0.63
-6.27 0.95 0.50
-6.04 0.93 0.56
-6.18 0.97 0.52
-6.16 0.98 0.53
-6.22 1.01 0.51
-6.40 1.05 0.47
-6.39 1.09 0.47
-6.31 1.09 0.49
-6.62 1.19 0.41
-6.99 1.31 0.32
-6.95 1.32 0.33
-7.03 1.36 0.31
-6.92 1.36 0.33
-6.92 1.37 0.33
-6.93 1.40 0.33
-6.97 1.42 0.32
-6.84 1.44 0.34
-4.18 -1.13 0.68
-4.20 -1.12 0.67
-4.18 -1.10 0.68
-4.19 -1.09 0.67
-4.30 -1.09 0.65
-4.38 -1.09 0.63
-4.36 -1.07 0.64
-3.82 -0.97 0.76
-4.14 -1.00 0.69
-3.82 -0.94 0.76
-4.05 -0.96 0.71
-4.02 -0.94 0.72
-4.14 -0.94 0.69
-2.69 -0.72 1.03
-4.02 -0.89 0.72
-4.02 -0.88 0.72
-4.17 -0.89 0.68
-4.00 -0.85 0.72
-4.38 -0.88 0.63
-4.32 -0.86 0.65
-4.33 -0.84 0.65
-4.25 -0.82 0.67
-4.33 -0.81 0.65
-4.32 -0.80 0.65
-4.64 -0.82 0.57
-4.79 -0.82 0.54
-4.80 -0.80 0.54
-5.01 -0.81 0.49
-4.95 -0.79 0.50
-4.55 -0.73 0.60
-4.90 -0.75 0.51
-4.81 -0.72 0.54
-4.57 -0.68 0.59
-4.39 -0.65 0.63
-4.58 -0.65 0.59
-4.69 -0.64 0.56
-4.45 -0.60 0.62
-4.29 -0.57 0.66
-4.47 -0.57 0.62
-4.49 -0.56 0.61
-4.52 -0.55 0.60
-4.41 -0.52 0.63
-4.59 -0.52 0.59
-4.62 -0.51 0.58
-4.65 -0.49 0.58
-4.80 -0.49 0.54
-4.57 -0.45 0.59
-4.39 -0.43 0.64
-4.54 -0.42 0.60
-4.78 -0.42 0.55
-4.45 -0.38 0.62
-5.63 -0.43 0.35
-5.53 -0.39 0.37
-4.79 -0.30 0.54
-5.00 -0.29 0.49
-4.91 -0.27 0.51
-4.83 -0.25 0.53
-4.29 -0.22 0.66
-3.67 -0.18 0.80
-4.85 -0.20 0.53
-3.69 -0.14 0.80
-3.66 -0.13 0.80
-3.69 -0.11 0.80
-5.41 -0.09 0.74
-1.78 -0.71 0.68
-1.35 -0.91 0.53
-3.22 0.77 0.50
-1.04 -0.89 0.51
-0.80 -0.90 0.44
-1.35 -0.91 0.43
-3.20 0.76 0.28
-2.83 0.79 0.26
-2.68 0.64 0.26
-2.29 0.94 0.28
-2.64 0.78 0.20
-2.62 0.85 0.20
-1.95 0.78 0.29
-1.60 0.89 0.32
-1.53 0.96 0.31
-2.24 0.75 0.24
-1.95 0.78 0.28
-1.64 0.88 0.30
-1.49 0.86 0.32
-0.81 -0.78 0.36
-2.21 0.88 0.22
-1.98 0.89 0.25
-1.91 0.88 0.26
-1.50 0.89 0.30
-0.84 -0.91 0.33
-2.04 0.87 0.22
-2.01 0.91 0.22
-1.90 0.86 0.24
-1.83 0.86 0.25
-1.86 1.06 0.22
-0.75 -0.80 0.33
-0.80 -0.89 0.32
-0.83 -1.24 0.27
-2.04 0.87 0.20
-1.84 0.88 0.23
-1.77 0.85 0.25
-1.54 0.88 0.27
-0.85 -0.86 0.31
-1.01 -0.84 0.32
-1.59 0.88 0.25
-0.76 -0.89 0.29
-0.80 -0.88 0.29
-0.87 -0.92 0.29
-1.81 0.84 0.21
-1.74 0.88 0.21
-1.63 0.88 0.23
-1.56 0.92 0.23
-0.79 -0.72 0.31
-0.88 -0.90 0.28
-1.58 0.98 0.20
-0.94 -0.81 0.29
-0.88 -0.68 0.30
-0.93 -0.87 0.26
-0.96 -0.91 0.25
-1.07 -0.93 0.25
-1.46 -0.91 0.23
-1.60 0.81 0.21
-0.83 -0.80 0.26
-0.85 -0.85 0.25
-0.94 -0.98 0.22
-1.07 -0.95 0.23
-0.79 -0.92 0.21
-0.90 -0.84 0.24
-0.99 -0.93 0.22
-1.05 -0.80 0.26
-0.92 -0.76 0.25
-0.95 -0.78 0.24
-0.90 -0.83 0.22
-0.98 -0.77 0.24
-1.00 -0.86 0.21
-1.06 -0.75 0.25
-1.50 -0.58 0.23
