# .PCD v0.7 - Point Cloud Data file format
VERSION 0.7
FIELDS x y z
SIZE 4 4 4
TYPE F F F
COUNT 1 1 1
WIDTH 1589
HEIGHT 1
VIEWPOINT 0 0 0 1 0 0 0
POINTS 1589
DATA ASCII
-11.12 0.01 1.57
-11.06 -0.18 1.57
-11.29 -0.04 1.56
-11.29 -0.01 1.56
-10.07 1.25 1.51
-12.37 -0.76 1.21
-11.97 -0.30 1.23
-8.18 -0.39 1.43
-8.00 -0.36 1.45
-8.22 -0.42 1.38
-8.89 0.19 1.40
-9.00 0.22 1.39
-9.50 0.25 1.34
-13.35 -1.59 0.89
-8.73 -0.21 1.41
-8.34 -0.18 1.44
-8.34 -0.16 1.44
-8.67 -0.03 1.42
-8.21 -0.01 1.45
-7.99 -0.53 1.28
-3.85 -0.26 1.65
-7.92 -0.26 1.29
-12.36 0.07 0.96
-4.21 -0.51 1.58
-8.68 -0.75 1.16
-7.94 -0.46 1.23
-7.88 -0.41 1.23
-7.99 -0.39 1.22
-7.81 -0.36 1.24
-7.73 -0.31 1.25
-8.06 -0.29 1.21
-7.80 -0.26 1.24
-7.88 -0.24 1.23
-8.03 -0.22 1.22
-7.88 -0.19 1.23
-8.05 -0.17 1.21
-8.24 -0.08 1.35
-6.32 0.00 1.33
-8.07 0.07 1.15
-8.64 0.11 1.09
-10.95 0.92 1.01
-2.16 -0.81 1.75
-3.70 -0.35 1.59
-3.79 -0.30 1.58
-7.97 -0.41 1.16
-7.86 -0.38 1.17
-7.81 -0.36 1.18
-7.82 -0.33 1.18
-7.94 -0.31 1.16
-3.80 -0.17 1.58
-7.72 -0.26 1.19
-7.77 -0.24 1.18
-7.77 -0.21 1.18
-7.80 -0.19 1.18
-7.71 -0.16 1.19
-3.60 -0.08 1.60
-3.79 -0.07 1.58
-7.28 -0.09 1.23
-3.85 -0.04 1.57
-3.70 -0.02 1.59
-9.98 0.01 1.05
-9.92 0.11 1.06
-9.09 0.19 1.15
-9.46 0.37 1.10
-9.49 0.40 1.10
-15.97 0.80 0.41
-11.03 0.85 0.93
-10.08 1.64 1.01
-3.82 -0.61 1.54
-3.83 -0.59 1.54
-4.02 -0.58 1.52
-3.71 -0.40 1.55
-3.66 -0.34 1.56
-6.68 -0.47 1.23
-3.63 -0.29 1.56
-8.13 -0.29 1.25
-8.41 -0.27 1.22
-7.87 -0.24 1.28
-7.85 -0.22 1.28
-8.16 -0.20 1.25
-8.01 -0.18 1.26
-8.35 -0.16 1.23
-8.71 -0.15 1.19
-8.96 -0.13 1.16
-11.81 -0.14 0.86
-7.99 0.00 1.03
-8.19 0.03 1.00
-8.27 0.05 0.99
-7.63 0.07 1.06
-8.16 0.20 1.00
-8.19 0.22 1.00
-8.21 0.45 1.00
-7.91 -0.38 1.04
-7.52 -0.32 1.08
-7.69 -0.31 1.06
-7.72 -0.26 1.06
-7.62 -0.21 1.07
-7.53 -0.19 1.08
-7.64 -0.16 1.07
-7.60 -0.14 1.07
-7.89 -0.12 1.04
-7.61 -0.07 1.07
-7.95 -0.05 1.03
-7.89 -0.02 1.04
-9.25 0.01 1.00
-9.14 0.03 1.01
-8.56 0.10 1.08
-9.67 0.18 0.95
-9.90 0.21 0.92
-9.34 0.22 0.98
-8.98 0.24 1.03
-8.72 0.30 1.06
-8.66 0.32 1.06
-8.57 0.34 1.07
-15.80 0.64 0.21
-8.84 0.39 1.04
-9.86 0.46 0.92
-9.23 0.46 0.99
-15.83 0.83 0.20
-9.06 0.52 1.01
-8.73 0.55 1.05
-11.09 0.82 0.77
-11.19 0.86 0.75
-10.70 0.85 0.81
-13.16 -1.54 0.33
-8.24 -0.35 1.12
-8.25 -0.33 1.12
-8.52 -0.32 1.09
-8.65 -0.30 1.07
-8.16 -0.25 1.13
-8.43 -0.23 1.10
-8.48 -0.21 1.09
-8.40 -0.19 1.10
-8.65 -0.17 1.07
-9.12 -0.13 1.01
-9.09 -0.09 1.02
-9.12 -0.06 1.01
-9.16 -0.04 1.01
-9.02 -0.02 1.02
-7.51 0.00 0.94
-7.69 0.02 0.92
-7.35 0.05 0.96
-8.61 0.07 1.01
-8.71 0.12 1.00
-9.22 0.17 0.93
-8.62 0.18 1.01
-8.76 0.21 0.99
-9.05 0.24 0.95
-8.83 0.26 0.98
-8.84 0.28 0.98
-8.74 0.30 0.99
-8.91 0.33 0.97
-8.85 0.35 0.98
-8.79 0.37 0.98
-8.86 0.39 0.97
-8.82 0.41 0.98
-8.93 0.44 0.96
-8.90 0.46 0.97
-8.78 0.48 0.98
-8.81 0.50 0.98
-8.70 0.57 0.99
-8.69 0.59 0.99
-11.13 0.82 0.68
-8.01 0.88 1.07
-7.85 0.88 1.09
-7.63 0.88 1.12
-7.69 0.91 1.11
-7.80 0.94 1.09
-8.00 0.98 1.07
-7.70 0.97 1.11
-7.80 1.00 1.09
-7.80 1.04 1.09
-7.77 1.08 1.10
-3.81 -0.68 1.42
-3.88 -0.67 1.41
-3.97 -0.64 1.40
-3.63 -0.36 1.44
-3.51 -0.34 1.46
-6.47 -0.41 1.08
-6.60 -0.36 1.06
-6.56 -0.34 1.07
-6.73 -0.28 1.05
-6.87 -0.26 1.03
-7.02 -0.24 1.01
-7.20 -0.22 0.99
-7.03 -0.20 1.01
-7.49 -0.19 0.95
-7.26 -0.16 0.98
-7.03 -0.13 1.01
-7.10 -0.11 1.00
-7.55 -0.09 0.94
-7.54 -0.07 0.94
-7.26 -0.04 0.98
-7.55 -0.02 0.94
-8.34 0.01 0.98
-8.21 0.05 1.00
-8.14 0.07 1.01
-8.34 0.09 0.98
-8.37 0.14 0.97
-8.36 0.16 0.97
-8.85 0.19 0.91
-8.65 0.23 0.93
-8.71 0.25 0.93
-8.54 0.27 0.95
-8.75 0.30 0.92
-8.75 0.32 0.92
-8.95 0.35 0.89
-9.23 0.38 0.86
-9.02 0.40 0.88
-9.22 0.45 0.85
-8.93 0.46 0.89
-8.84 0.51 0.90
-8.65 0.52 0.93
-8.55 0.53 0.94
-8.55 0.58 0.94
-8.11 0.57 1.00
-8.28 0.63 0.98
-8.22 0.64 0.98
-7.79 0.71 1.04
-7.71 0.75 1.05
-7.69 0.79 1.05
-7.87 0.82 1.03
-7.69 0.85 1.05
-7.67 0.87 1.05
-7.56 0.87 1.07
-7.87 0.95 1.02
-8.03 1.13 1.00
-4.05 -0.76 1.34
-4.15 -0.76 1.33
-4.02 -0.73 1.35
-4.15 -0.73 1.33
-3.84 -0.59 1.37
-3.88 -0.58 1.36
-3.74 -0.51 1.38
-3.51 -0.47 1.41
-3.33 -0.44 1.44
-3.50 -0.44 1.42
-3.61 -0.43 1.40
-3.47 -0.41 1.42
-6.42 -0.49 1.02
-6.34 -0.47 1.03
-5.96 -0.43 1.08
-6.01 -0.41 1.08
-6.01 -0.39 1.08
-5.98 -0.37 1.08
-6.18 -0.36 1.05
-6.06 -0.34 1.07
-6.44 -0.33 1.02
-7.14 -0.34 0.93
-7.40 -0.32 0.89
-7.43 -0.30 0.89
-7.45 -0.28 0.88
-7.27 -0.25 0.91
-7.50 -0.23 0.88
-7.65 -0.21 0.86
-7.38 -0.18 0.89
-7.47 -0.16 0.88
-8.19 -0.12 1.00
-8.24 -0.10 0.99
-8.35 -0.08 0.98
-8.17 -0.04 1.00
-8.22 -0.02 1.00
-7.81 -0.00 0.76
-7.57 0.02 0.80
-7.90 0.05 0.75
-7.82 0.07 0.76
-7.85 0.09 0.76
-8.07 0.12 0.72
-8.95 0.29 0.60
-8.52 0.27 0.89
-8.60 0.29 0.87
-8.73 0.32 0.86
-8.82 0.34 0.84
-8.74 0.36 0.85
-8.83 0.39 0.84
-9.15 0.43 0.79
-8.65 0.43 0.86
-8.62 0.47 0.87
-8.57 0.49 0.88
-8.73 0.52 0.85
-8.50 0.53 0.88
-8.63 0.56 0.87
-8.27 0.56 0.92
-8.27 0.58 0.92
-8.08 0.59 0.94
-8.02 0.63 0.95
-11.51 0.91 0.46
-8.06 0.67 0.94
-11.75 0.98 0.42
-8.22 0.75 0.92
-7.84 0.74 0.97
-7.96 0.77 0.95
-7.99 0.79 0.95
-7.94 0.81 0.96
-7.58 0.79 1.01
-7.66 0.82 0.99
-7.37 0.81 1.04
-7.35 0.83 1.04
-7.64 0.88 1.00
-7.50 0.89 1.02
-7.68 0.92 0.99
-8.01 0.98 0.94
-8.02 1.02 0.94
-3.90 -0.74 1.32
-3.55 -0.47 1.37
-3.52 -0.41 1.37
-3.40 -0.38 1.39
-3.53 -0.37 1.37
-6.44 -0.47 0.96
-3.09 -0.28 1.43
-5.94 -0.41 1.03
-3.43 -0.27 1.39
-5.85 -0.37 1.04
-6.11 -0.36 1.01
-6.37 -0.35 0.97
-6.37 -0.33 0.97
-7.70 -0.35 0.78
-7.81 -0.33 0.76
-7.28 -0.29 0.84
-7.58 -0.28 0.80
-7.58 -0.26 0.80
-7.45 -0.23 0.81
-7.33 -0.21 0.83
-7.43 -0.18 0.82
-7.78 -0.17 0.77
-7.81 -0.14 0.76
-7.76 -0.12 0.77
-7.74 -0.10 0.77
-7.67 -0.07 0.78
-7.70 -0.05 0.78
-8.04 0.00 0.89
-7.92 0.03 0.91
-8.12 0.05 0.88
-8.19 0.07 0.87
-8.40 0.09 0.83
-8.50 0.11 0.82
-8.46 0.14 0.82
-8.68 0.16 0.79
-8.45 0.18 0.82
-8.76 0.21 0.78
-8.45 0.22 0.82
-8.57 0.25 0.81
-8.56 0.27 0.81
-8.69 0.29 0.79
-8.72 0.32 0.78
-8.74 0.34 0.78
-8.77 0.36 0.77
-8.64 0.38 0.79
-8.73 0.41 0.78
-8.76 0.43 0.77
-8.51 0.44 0.81
-8.26 0.45 0.85
-8.29 0.47 0.84
-8.15 0.49 0.86
-8.17 0.51 0.86
-8.22 0.54 0.85
-8.35 0.56 0.83
-8.11 0.57 0.87
-8.23 0.60 0.85
-8.28 0.63 0.84
-8.27 0.65 0.84
-7.97 0.64 0.89
-7.99 0.67 0.88
-8.16 0.72 0.86
-8.05 0.73 0.87
-7.85 0.74 0.90
-7.78 0.75 0.91
-7.61 0.76 0.94
-7.72 0.79 0.92
-7.56 0.79 0.94
-7.87 0.86 0.90
-7.72 0.87 0.92
-7.66 0.90 0.93
-7.88 0.95 0.89
-7.95 0.98 0.88
-7.65 1.00 0.92
-7.49 1.02 0.95
-7.37 1.05 0.96
-4.04 -0.78 1.25
-4.12 -0.65 1.24
-3.95 -0.62 1.26
-3.83 -0.59 1.28
-3.94 -0.59 1.26
-3.92 -0.57 1.27
-3.80 -0.55 1.28
-3.94 -0.55 1.26
-3.88 -0.53 1.27
-3.77 -0.50 1.29
-3.72 -0.48 1.30
-3.95 -0.49 1.26
-3.76 -0.46 1.29
-3.65 -0.44 1.31
-3.66 -0.42 1.31
-3.83 -0.42 1.28
-3.35 -0.35 1.35
-3.44 -0.34 1.34
-3.24 -0.32 1.37
-3.30 -0.31 1.36
-3.21 -0.29 1.37
-3.44 -0.29 1.34
-3.08 -0.26 1.39
-3.15 -0.25 1.38
-6.46 -0.37 0.89
-6.99 -0.37 0.81
-6.98 -0.35 0.81
-7.35 -0.34 0.75
-7.83 -0.28 0.92
-7.92 -0.26 0.91
-4.45 -0.14 1.42
-4.64 -0.13 1.39
-8.10 -0.20 0.88
-8.04 -0.18 0.89
-8.37 -0.17 0.84
-8.57 -0.15 0.81
-7.91 -0.12 0.91
-8.19 -0.10 0.87
-8.48 -0.08 0.82
-8.45 -0.06 0.83
-8.61 -0.04 0.80
-8.01 -0.02 0.89
-8.01 -0.00 0.58
-8.08 0.02 0.57
-8.25 0.05 0.54
-8.36 0.07 0.53
-8.20 0.15 0.55
-8.25 0.17 0.54
-8.25 0.20 0.54
-8.41 0.23 0.52
-8.62 0.26 0.48
-8.45 0.28 0.51
-8.34 0.30 0.53
-8.45 0.33 0.51
-8.60 0.36 0.49
-8.19 0.37 0.55
-8.64 0.41 0.48
-7.48 0.39 0.66
-8.33 0.45 0.53
-7.78 0.45 0.61
-8.14 0.42 0.80
-8.26 0.45 0.79
-8.28 0.47 0.78
-8.18 0.49 0.80
-8.99 0.56 0.67
-8.13 0.53 0.80
-8.77 0.59 0.70
-8.35 0.58 0.77
-8.41 0.61 0.76
-8.33 0.63 0.77
-8.55 0.66 0.74
-8.20 0.66 0.79
-8.15 0.70 0.80
-8.20 0.72 0.79
-8.41 0.81 0.75
-9.07 0.96 0.65
-9.06 1.00 0.65
-8.25 0.94 0.78
-8.61 1.00 0.72
-8.28 0.99 0.77
-8.72 1.06 0.70
-8.09 1.03 0.80
-7.73 1.01 0.85
-3.07 -0.37 1.36
-5.88 -0.52 0.92
-5.96 -0.47 0.91
-6.00 -0.45 0.90
-6.08 -0.44 0.89
-6.40 -0.39 0.84
-7.16 -0.40 0.72
-7.55 -0.40 0.66
-7.44 -0.37 0.67
-7.72 -0.36 0.63
-7.22 -0.32 0.71
-7.22 -0.29 0.71
-7.21 -0.27 0.71
-7.75 -0.26 0.62
-7.37 -0.23 0.68
-7.47 -0.21 0.67
-7.67 -0.19 0.64
-7.74 -0.17 0.63
-7.55 -0.14 0.65
-7.70 -0.12 0.63
-7.90 -0.10 0.60
-1.59 -0.03 1.59
-7.80 -0.05 0.61
-7.86 -0.03 0.60
-8.38 0.00 0.70
-8.42 0.03 0.69
-8.49 0.05 0.68
-8.34 0.07 0.70
-8.32 0.09 0.71
-8.36 0.11 0.70
-8.40 0.13 0.69
-8.44 0.16 0.69
-8.64 0.18 0.65
-8.59 0.20 0.66
-8.74 0.23 0.64
-8.96 0.26 0.60
-7.99 0.25 0.76
-9.19 0.31 0.56
-7.57 0.28 0.83
-7.57 0.30 0.83
-8.40 0.35 0.69
-7.86 0.35 0.78
-7.53 0.36 0.83
-8.03 0.40 0.75
-8.29 0.43 0.71
-7.94 0.44 0.76
-7.84 0.45 0.78
-7.85 0.47 0.78
-8.00 0.50 0.75
-8.00 0.52 0.75
-8.00 0.54 0.75
-7.91 0.56 0.77
-7.82 0.57 0.78
-8.22 0.62 0.71
-8.13 0.63 0.73
-8.15 0.66 0.72
-10.43 0.88 0.35
-10.08 0.88 0.40
-8.74 0.79 0.62
-8.72 0.81 0.63
-9.06 0.86 0.57
-8.34 0.82 0.69
-9.03 0.91 0.57
-9.02 0.93 0.57
-9.17 0.97 0.55
-8.93 0.97 0.59
-9.15 1.02 0.55
-9.15 1.04 0.55
-9.24 1.07 0.54
-8.74 1.04 0.62
-9.13 1.11 0.55
-8.04 1.01 0.73
-7.57 0.97 0.81
-8.31 1.08 0.68
-8.00 1.07 0.74
-5.33 -0.72 0.94
-4.38 -0.62 1.09
-4.59 -0.62 1.06
-4.32 -0.58 1.11
-5.51 -0.67 0.91
-4.38 -0.55 1.10
-5.30 -0.61 0.94
-3.79 -0.46 1.19
-3.99 -0.45 1.16
-5.94 -0.57 0.84
-5.76 -0.53 0.87
-3.80 -0.39 1.19
-3.50 -0.34 1.24
-5.88 -0.47 0.85
-3.57 -0.32 1.23
-7.96 -0.43 0.77
-8.23 -0.42 0.73
-7.82 -0.38 0.79
-7.81 -0.36 0.80
-7.90 -0.34 0.78
-7.94 -0.32 0.77
-8.08 -0.31 0.75
-8.17 -0.29 0.74
-8.19 -0.27 0.73
-7.97 -0.24 0.77
-8.24 -0.23 0.72
-8.18 -0.21 0.73
-8.46 -0.19 0.69
-5.08 -0.11 1.24
-8.53 -0.15 0.68
-8.34 -0.12 0.71
-8.35 -0.10 0.71
-8.27 -0.08 0.72
-8.17 -0.06 0.73
-8.30 -0.04 0.71
-8.51 -0.02 0.68
-7.84 -0.00 0.44
-8.13 0.02 0.39
-8.05 0.05 0.41
-8.52 0.09 0.60
-8.15 0.13 0.66
-8.19 0.15 0.66
-8.32 0.17 0.63
-8.75 0.20 0.56
-8.75 0.23 0.56
-8.87 0.28 0.54
-9.07 0.33 0.50
-9.24 0.36 0.47
-9.19 0.38 0.48
-8.00 0.35 0.69
-7.90 0.37 0.70
-7.83 0.41 0.71
-7.69 0.44 0.74
-7.81 0.47 0.72
-7.89 0.49 0.70
-7.88 0.51 0.70
-7.94 0.54 0.69
-7.88 0.57 0.70
-7.92 0.62 0.69
-8.34 0.67 0.62
-8.51 0.70 0.59
-9.26 0.79 0.46
-9.13 0.80 0.48
-9.11 0.84 0.48
-8.08 0.80 0.66
-9.26 0.93 0.46
-7.52 0.79 0.76
-7.80 0.83 0.71
-8.97 0.97 0.51
-7.86 0.90 0.70
-7.56 0.91 0.75
-9.31 1.13 0.44
-9.13 1.13 0.47
-7.62 0.98 0.73
-7.55 0.99 0.75
-7.53 1.03 0.75
-7.27 1.03 0.79
-7.35 1.06 0.78
-7.29 1.09 0.79
-7.41 1.13 0.76
-7.25 1.15 0.79
-7.33 1.20 0.77
-1.84 -0.57 1.48
-1.72 -0.55 1.50
-1.69 -0.53 1.51
-4.30 -0.73 1.06
-4.26 -0.71 1.06
-4.83 -0.76 0.97
-4.69 -0.73 0.99
-4.60 -0.70 1.01
-4.45 -0.67 1.03
-4.27 -0.64 1.06
-4.73 -0.67 0.98
-4.37 -0.62 1.05
-4.64 -0.62 1.00
-4.85 -0.63 0.96
-4.59 -0.57 1.01
-5.39 -0.62 0.87
-5.64 -0.62 0.83
-5.70 -0.61 0.82
-5.81 -0.60 0.80
-5.88 -0.58 0.79
-3.63 -0.39 1.17
-5.40 -0.49 0.87
-5.41 -0.48 0.87
-5.38 -0.46 0.87
-3.48 -0.33 1.20
-3.10 -0.30 1.27
-3.29 -0.29 1.23
-3.20 -0.27 1.25
-2.99 -0.25 1.28
-2.73 -0.23 1.33
-2.89 -0.22 1.30
-2.75 -0.21 1.33
-2.69 -0.19 1.34
-2.66 -0.18 1.34
-2.59 -0.16 1.35
-2.39 -0.15 1.39
-2.72 -0.15 1.33
-2.82 -0.14 1.31
-2.68 -0.12 1.34
-2.73 -0.11 1.33
-7.23 -0.18 0.55
-7.32 -0.16 0.54
-7.53 -0.14 0.50
-7.35 -0.12 0.53
-7.65 -0.10 0.48
-7.73 -0.07 0.46
-7.67 -0.05 0.47
-7.53 -0.02 0.50
-4.99 0.00 1.16
-8.65 0.02 0.51
-8.43 0.05 0.54
-8.49 0.07 0.53
-8.31 0.09 0.56
-8.35 0.11 0.56
-8.44 0.13 0.54
-8.31 0.15 0.56
-8.38 0.17 0.55
-8.47 0.20 0.53
-8.55 0.22 0.52
-5.40 0.16 1.09
-8.71 0.27 0.49
-8.67 0.29 0.50
-8.83 0.32 0.47
-8.77 0.34 0.48
-8.78 0.36 0.47
-8.95 0.39 0.44
-8.79 0.41 0.47
-9.03 0.44 0.43
-8.73 0.45 0.48
-8.77 0.48 0.47
-8.03 0.46 0.61
-7.93 0.47 0.62
-8.01 0.50 0.61
-7.95 0.52 0.62
-7.94 0.54 0.62
-8.06 0.57 0.60
-8.07 0.59 0.60
-8.01 0.60 0.61
-8.10 0.63 0.59
-8.24 0.66 0.56
-8.21 0.68 0.57
-8.15 0.70 0.58
-5.77 0.53 1.01
-8.89 0.80 0.45
-8.88 0.82 0.45
-8.92 0.85 0.44
-9.10 0.89 0.41
-9.18 0.92 0.39
-8.97 0.93 0.43
-7.51 0.81 0.69
-9.09 0.98 0.40
-7.44 0.84 0.70
-7.60 0.87 0.67
-7.34 0.87 0.72
-7.35 0.89 0.72
-7.10 0.88 0.76
-7.29 0.92 0.73
-7.44 0.96 0.70
-7.47 0.98 0.69
-7.30 0.98 0.72
-7.21 0.99 0.74
-7.21 1.01 0.74
-7.29 1.04 0.72
-7.33 1.06 0.71
-7.24 1.07 0.73
-7.28 1.09 0.72
-7.31 1.12 0.71
-7.17 1.12 0.74
-7.51 1.18 0.68
-5.67 0.98 1.01
-5.16 1.02 1.10
-5.31 1.06 1.07
-5.50 1.11 1.03
-5.39 1.11 1.05
-5.45 1.13 1.04
-1.98 -0.56 1.42
-4.55 -0.88 0.96
-4.76 -0.89 0.92
-4.35 -0.82 0.99
-4.72 -0.83 0.93
-5.37 -0.89 0.81
-5.47 -0.88 0.79
-5.36 -0.85 0.81
-5.51 -0.85 0.78
-4.49 -0.72 0.97
-5.10 -0.77 0.86
-5.89 -0.83 0.72
-5.74 -0.80 0.74
-4.42 -0.65 0.98
-5.45 -0.73 0.80
-4.27 -0.61 1.01
-4.48 -0.61 0.97
-4.80 -0.62 0.91
-5.18 -0.64 0.84
-5.66 -0.66 0.76
-5.72 -0.65 0.75
-4.23 -0.51 1.02
-5.66 -0.60 0.76
-5.55 -0.58 0.78
-5.45 -0.55 0.80
-5.44 -0.53 0.80
-5.19 -0.50 0.84
-5.19 -0.48 0.84
-5.24 -0.47 0.83
-5.40 -0.46 0.81
-5.45 -0.44 0.80
-5.38 -0.42 0.81
-3.38 -0.30 1.17
-3.09 -0.27 1.22
-2.88 -0.25 1.26
-2.80 -0.23 1.27
-3.06 -0.23 1.23
-2.82 -0.21 1.27
-2.85 -0.20 1.27
-2.65 -0.18 1.30
-2.81 -0.17 1.27
-2.86 -0.16 1.26
-2.71 -0.15 1.29
-2.80 -0.14 1.27
-2.81 -0.12 1.27
-2.99 -0.12 1.24
-3.08 -0.10 1.22
-2.69 -0.09 1.29
-8.32 -0.13 0.57
-5.24 -0.07 1.12
-5.13 -0.05 1.14
-5.14 -0.04 1.13
-5.31 -0.03 1.10
-5.13 -0.01 1.14
-2.73 -0.00 1.24
-7.11 0.02 0.41
-7.16 0.04 0.40
-7.05 0.06 0.42
-8.64 0.27 0.42
-9.02 0.30 0.35
-8.97 0.32 0.36
-9.00 0.35 0.35
-8.75 0.36 0.40
-9.01 0.39 0.35
-9.01 0.42 0.35
-8.98 0.44 0.36
-9.04 0.46 0.34
-3.61 0.22 1.37
-8.36 0.47 0.47
-8.16 0.49 0.51
-8.11 0.50 0.52
-8.06 0.52 0.53
-8.18 0.55 0.50
-8.14 0.57 0.51
-8.09 0.59 0.52
-8.01 0.60 0.53
-8.15 0.63 0.51
-7.98 0.64 0.54
-7.98 0.66 0.54
-8.23 0.70 0.49
-8.39 0.74 0.46
-8.47 0.77 0.44
-8.40 0.78 0.45
-8.33 0.80 0.47
-8.55 0.84 0.42
-3.56 0.40 1.37
-8.39 0.87 0.45
-8.74 0.92 0.39
-7.95 0.87 0.54
-8.97 0.99 0.34
-7.37 0.85 0.64
-7.61 0.91 0.60
-7.47 0.92 0.62
-7.49 0.94 0.62
-7.61 0.97 0.60
-7.41 1.01 0.63
-7.50 1.04 0.61
-7.74 1.09 0.57
-7.76 1.11 0.56
-7.73 1.13 0.57
-7.85 1.17 0.54
-7.52 1.14 0.61
-7.80 1.20 0.55
-7.61 1.20 0.59
-7.71 1.23 0.57
-5.06 0.93 1.07
-5.12 0.98 1.06
-1.68 -0.65 1.44
-1.74 -0.63 1.43
-1.78 -0.62 1.43
-1.77 -0.61 1.43
-1.80 -0.61 1.42
-1.71 -0.58 1.44
-1.77 -0.58 1.43
-1.80 -0.58 1.42
-1.75 -0.56 1.43
-1.90 -0.54 1.40
-1.69 -0.51 1.44
-1.85 -0.52 1.41
-5.59 -0.97 0.70
-5.80 -0.98 0.66
-5.80 -0.96 0.66
-5.88 -0.95 0.65
-5.78 -0.92 0.67
-5.72 -0.89 0.68
-5.28 -0.82 0.76
-4.69 -0.74 0.87
-5.89 -0.83 0.65
-5.79 -0.80 0.67
-5.62 -0.77 0.70
-4.63 -0.66 0.89
-6.11 -0.78 0.60
-6.18 -0.76 0.59
-4.37 -0.58 0.94
-5.75 -0.69 0.67
-4.03 -0.52 1.00
-2.32 -0.37 1.32
-5.48 -0.61 0.72
-5.47 -0.59 0.73
-5.36 -0.56 0.75
-5.34 -0.54 0.75
-5.63 -0.54 0.70
-3.35 -0.38 1.13
-3.17 -0.35 1.16
-3.43 -0.35 1.11
-3.05 -0.32 1.19
-2.70 -0.28 1.25
-2.95 -0.29 1.20
-3.00 -0.28 1.20
-2.95 -0.26 1.20
-2.84 -0.25 1.22
-2.94 -0.24 1.21
-2.68 -0.21 1.26
-2.77 -0.21 1.24
-2.90 -0.20 1.21
-2.99 -0.19 1.20
-2.59 -0.16 1.27
-2.83 -0.16 1.23
-7.08 -0.27 0.42
-2.67 -0.13 1.26
-2.72 -0.12 1.25
-2.58 -0.11 1.27
-2.50 -0.09 1.29
-2.81 -0.09 1.23
-2.60 -0.07 1.27
-6.78 -0.11 0.48
-6.88 -0.09 0.46
-2.85 -0.04 1.22
-2.70 -0.03 1.25
-7.11 -0.03 0.41
-7.59 0.00 0.55
-7.73 0.02 0.52
-8.14 0.04 0.44
-8.33 0.07 0.40
-8.49 0.09 0.37
-8.41 0.11 0.39
-3.63 0.06 1.33
-8.50 0.15 0.37
-8.48 0.18 0.37
-8.57 0.20 0.35
-8.33 0.22 0.40
-3.84 0.12 1.29
-8.42 0.26 0.38
-8.56 0.29 0.35
-8.47 0.31 0.37
-8.65 0.42 0.33
-8.73 0.45 0.32
-8.27 0.49 0.40
-7.92 0.49 0.47
-7.96 0.52 0.47
-8.06 0.54 0.45
-8.24 0.58 0.41
-7.95 0.58 0.47
-7.88 0.59 0.48
-7.81 0.61 0.49
-8.06 0.65 0.44
-7.87 0.65 0.48
-7.53 0.65 0.55
-8.28 0.73 0.40
-7.84 0.71 0.48
-7.79 0.73 0.49
-7.91 0.76 0.47
-7.69 0.76 0.51
-7.88 0.80 0.47
-7.87 0.82 0.47
-4.01 0.47 1.24
-7.96 0.87 0.46
-8.07 0.90 0.43
-7.18 0.85 0.61
-7.57 0.91 0.53
-5.68 0.72 0.91
-6.07 0.78 0.83
-7.10 0.92 0.62
-7.62 1.00 0.52
-7.77 1.03 0.49
-7.70 1.09 0.50
-7.92 1.14 0.45
-7.95 1.18 0.45
-7.96 1.21 0.44
-5.46 0.89 0.94
-7.88 1.26 0.46
-5.76 0.97 0.88
-5.27 0.94 0.98
-5.35 0.96 0.96
-5.28 1.00 0.97
-5.28 1.03 0.97
-5.25 1.04 0.97
-5.43 1.08 0.94
-5.61 1.13 0.90
-5.58 1.14 0.91
-5.60 1.16 0.90
-5.40 1.14 0.94
-5.19 1.11 0.98
-5.63 1.23 0.89
-5.87 1.31 0.84
-6.00 1.35 0.81
-5.97 1.41 0.82
-1.62 -0.59 1.42
-1.69 -0.56 1.41
-1.74 -0.56 1.40
-1.71 -0.55 1.40
-1.91 -0.57 1.36
-5.26 -1.00 0.70
-5.60 -1.03 0.63
-5.28 -0.97 0.69
-2.05 -0.55 1.33
-5.21 -0.93 0.71
-5.28 -0.92 0.69
-5.38 -0.91 0.67
-5.22 -0.87 0.70
-5.27 -0.86 0.69
-5.40 -0.86 0.67
-5.27 -0.83 0.69
-5.51 -0.83 0.65
-5.00 -0.76 0.75
-2.21 -0.46 1.30
-4.66 -0.69 0.82
-2.09 -0.43 1.33
-5.01 -0.69 0.75
-4.60 -0.64 0.83
-4.60 -0.62 0.83
-4.60 -0.61 0.83
-4.49 -0.58 0.85
-5.06 -0.61 0.74
-5.06 -0.59 0.74
-4.66 -0.55 0.82
-4.99 -0.55 0.75
-5.19 -0.55 0.71
-5.15 -0.53 0.72
-5.18 -0.52 0.72
-3.79 -0.41 0.99
-5.30 -0.49 0.69
-3.59 -0.36 1.03
-3.46 -0.34 1.06
-3.31 -0.32 1.09
-3.46 -0.32 1.05
-3.24 -0.29 1.10
-3.03 -0.27 1.14
-2.98 -0.25 1.15
-3.14 -0.25 1.12
-3.04 -0.23 1.14
-2.96 -0.21 1.15
-3.00 -0.20 1.15
-2.94 -0.19 1.16
-7.71 -0.28 0.53
-4.54 -0.16 1.15
-7.50 -0.23 0.57
-7.71 -0.22 0.53
-7.70 -0.20 0.53
-7.67 -0.18 0.54
-7.82 -0.16 0.51
-7.87 -0.14 0.50
-7.64 -0.12 0.54
-7.76 -0.10 0.52
-7.88 -0.08 0.49
-7.81 -0.06 0.51
-7.71 -0.04 0.53
-7.64 -0.02 0.54
-5.69 0.18 0.55
-5.96 0.21 0.49
-5.97 0.23 0.49
-5.92 0.25 0.50
-6.02 0.27 0.48
-5.97 0.29 0.49
-3.39 0.21 1.02
-6.18 0.34 0.44
-6.14 0.35 0.45
-6.12 0.37 0.45
-8.18 0.49 0.35
-7.91 0.57 0.40
-7.71 0.58 0.45
-7.68 0.60 0.45
-7.36 0.59 0.52
-7.33 0.61 0.52
-3.53 0.33 1.31
-7.43 0.66 0.50
-7.67 0.70 0.45
-7.70 0.72 0.44
-7.65 0.74 0.45
-7.74 0.76 0.43
-8.11 0.82 0.36
-4.26 0.47 1.15
-7.61 0.81 0.46
-8.06 0.88 0.37
-7.10 0.80 0.56
-7.28 0.84 0.53
-6.75 0.80 0.64
-7.03 0.85 0.58
-6.02 0.92 0.78
-5.50 0.94 0.88
-5.50 0.95 0.88
-5.72 1.03 0.83
-5.86 1.07 0.80
-6.31 1.35 0.70
-6.22 1.35 0.72
-6.29 1.38 0.70
-1.50 -0.68 1.41
-1.62 -0.68 1.39
-1.44 -0.60 1.43
-1.83 -0.66 1.35
-1.44 -0.59 1.43
-1.53 -0.59 1.41
-1.55 -0.59 1.41
-1.47 -0.57 1.42
-1.55 -0.57 1.41
-1.61 -0.57 1.39
-1.69 -0.57 1.38
-1.68 -0.56 1.38
-1.67 -0.55 1.38
-5.49 -1.07 0.59
-1.58 -0.52 1.40
-5.60 -1.05 0.57
-5.40 -1.00 0.61
-5.45 -0.99 0.60
-5.42 -0.97 0.60
-5.39 -0.95 0.61
-5.35 -0.92 0.62
-5.16 -0.88 0.66
-5.10 -0.86 0.67
-5.20 -0.85 0.65
-5.35 -0.85 0.62
-4.86 -0.78 0.72
-1.95 -0.45 1.32
-1.86 -0.43 1.34
-5.02 -0.69 0.69
-4.22 -0.60 0.86
-4.28 -0.59 0.84
-2.22 -0.39 1.27
-2.00 -0.37 1.31
-2.05 -0.36 1.30
-2.23 -0.36 1.27
-2.24 -0.35 1.26
-2.20 -0.34 1.27
-4.88 -0.53 0.72
-5.29 -0.47 0.63
-5.17 -0.44 0.66
-3.42 -0.33 1.02
-3.32 -0.31 1.04
-2.95 -0.25 1.12
-6.28 -0.39 0.43
-2.69 -0.21 1.17
-2.65 -0.20 1.18
-2.76 -0.19 1.16
-2.68 -0.18 1.17
-2.99 -0.18 1.11
-2.59 -0.15 1.19
-2.54 -0.14 1.20
-2.73 -0.13 1.16
-7.50 0.00 0.42
-4.13 0.01 1.14
-4.14 0.02 1.14
-4.34 0.04 1.10
-7.38 0.08 0.44
-3.77 0.06 1.22
-4.57 0.08 1.05
-3.45 0.07 1.29
-3.71 0.10 1.23
-3.49 0.10 1.28
-3.68 0.12 1.24
-3.71 0.13 1.23
-4.06 0.15 1.16
-4.04 0.16 1.16
-3.56 0.15 1.26
-3.49 0.16 1.28
-3.40 0.17 1.30
-3.67 0.19 1.24
-7.28 0.36 0.46
-3.81 0.22 1.21
-7.25 0.40 0.47
-7.22 0.42 0.47
-7.25 0.44 0.46
-4.01 0.27 1.16
-7.31 0.48 0.45
-4.33 0.31 1.09
-7.57 0.53 0.39
-7.29 0.53 0.45
-7.03 0.53 0.51
-6.91 0.54 0.53
-7.14 0.58 0.48
-6.97 0.59 0.52
-7.25 0.63 0.46
-7.42 0.66 0.42
-7.13 0.65 0.48
-7.42 0.70 0.42
-7.48 0.72 0.41
-7.49 0.74 0.40
-7.64 0.78 0.37
-7.57 0.79 0.38
-5.85 0.64 0.76
-5.50 0.62 0.83
-5.65 0.65 0.80
-5.60 0.66 0.81
-5.69 0.69 0.79
-5.78 0.75 0.77
-5.46 0.72 0.84
-5.45 0.74 0.84
-5.63 0.78 0.80
-5.45 0.77 0.84
-5.23 0.76 0.88
-5.41 0.79 0.84
-5.12 0.77 0.91
-5.10 0.78 0.91
-5.43 0.84 0.84
-5.29 0.84 0.87
-5.52 0.88 0.82
-5.29 0.87 0.87
-5.38 0.89 0.85
-5.55 0.93 0.81
-5.51 0.94 0.82
-5.53 0.96 0.81
-6.06 1.06 0.69
-5.82 1.04 0.75
-6.09 1.10 0.69
-6.02 1.10 0.70
-6.00 1.12 0.70
-6.05 1.14 0.69
-6.06 1.16 0.69
-6.03 1.17 0.70
-6.24 1.22 0.65
-6.13 1.22 0.67
-6.18 1.25 0.66
-6.40 1.30 0.61
-6.48 1.34 0.59
-6.51 1.36 0.58
-6.45 1.37 0.60
-6.46 1.39 0.59
-6.40 1.39 0.61
-6.32 1.39 0.62
-6.29 1.41 0.63
-6.31 1.43 0.62
-6.33 1.45 0.62
-6.35 1.47 0.61
-6.39 1.50 0.60
-6.15 1.46 0.65
-6.13 1.48 0.66
-6.09 1.49 0.66
-6.17 1.52 0.65
-6.03 1.51 0.67
-6.04 1.53 0.67
-6.14 1.57 0.65
-6.07 1.57 0.66
-5.90 1.54 0.70
-3.45 -1.04 0.95
-1.91 -0.67 1.28
-1.82 -0.64 1.31
-1.92 -0.65 1.28
-1.80 -0.62 1.31
-1.74 -0.60 1.32
-1.86 -0.61 1.30
-1.81 -0.59 1.31
-1.80 -0.58 1.31
-1.89 -0.58 1.29
-1.95 -0.58 1.28
-2.12 -0.60 1.24
-2.05 -0.58 1.26
-1.93 -0.55 1.28
-5.06 -0.94 0.60
-2.03 -0.54 1.26
-4.98 -0.90 0.62
-2.09 -0.53 1.25
-2.17 -0.53 1.23
-4.58 -0.80 0.71
-2.47 -0.54 1.17
-4.63 -0.77 0.70
-4.59 -0.75 0.71
-3.90 -0.66 0.86
-4.32 -0.69 0.77
-4.43 -0.69 0.74
-2.60 -0.49 1.14
-4.80 -0.69 0.66
-2.41 -0.45 1.18
-4.32 -0.61 0.77
-4.52 -0.62 0.72
-4.43 -0.59 0.74
-4.41 -0.57 0.75
-4.23 -0.54 0.79
-4.60 -0.56 0.71
-4.54 -0.54 0.72
-4.60 -0.53 0.71
-4.38 -0.49 0.75
-4.60 -0.49 0.71
-4.63 -0.48 0.70
-4.81 -0.47 0.66
-4.84 -0.46 0.65
-3.67 -0.37 0.91
-3.51 -0.35 0.94
-3.94 -0.36 0.85
-4.67 -0.29 1.03
-7.44 -0.42 0.44
-4.76 -0.27 1.01
-7.54 -0.39 0.42
-4.72 -0.24 1.02
-4.14 -0.20 1.15
-7.62 -0.34 0.40
-7.55 -0.31 0.41
-7.68 -0.30 0.38
-7.56 -0.27 0.41
-7.41 -0.25 0.44
-7.46 -0.23 0.43
-7.55 -0.22 0.41
-7.39 -0.19 0.45
-7.44 -0.17 0.44
-7.62 -0.16 0.40
-7.56 -0.14 0.41
-7.42 -0.12 0.44
-7.35 -0.10 0.45
-7.47 -0.08 0.43
-7.54 -0.06 0.41
-4.22 -0.02 1.13
-4.34 -0.01 1.10
-4.02 -0.00 0.77
-3.78 0.02 0.83
-3.74 0.03 1.19
-7.30 0.08 0.39
-3.60 0.07 1.22
-3.62 0.08 1.21
-3.79 0.10 1.17
-3.58 0.10 1.22
-3.38 0.11 1.26
-3.48 0.12 1.24
-3.33 0.13 1.28
-6.89 0.25 0.47
-3.24 0.15 1.30
-3.33 0.17 1.27
-6.84 0.34 0.48
-6.78 0.36 0.50
-6.70 0.37 0.51
-6.82 0.41 0.49
-3.46 0.24 1.24
-7.01 0.48 0.44
-6.90 0.49 0.46
-7.24 0.55 0.39
-7.08 0.57 0.42
-7.18 0.60 0.40
-7.15 0.64 0.41
-7.10 0.69 0.42
-5.39 0.55 0.80
-5.46 0.59 0.78
-5.59 0.63 0.75
-5.41 0.63 0.79
-5.32 0.65 0.81
-5.24 0.65 0.83
-5.19 0.68 0.84
-4.96 0.68 0.89
-5.02 0.70 0.88
-4.87 0.71 0.91
-5.03 0.74 0.87
-5.18 0.79 0.84
-4.94 0.77 0.89
-5.15 0.81 0.84
-5.03 0.81 0.87
-5.18 0.86 0.83
-5.40 0.91 0.78
-5.45 0.95 0.77
-6.27 1.09 0.58
-2.32 0.48 1.48
-6.13 1.10 0.61
-6.07 1.11 0.62
-6.14 1.14 0.61
-6.31 1.20 0.57
-6.49 1.25 0.52
-6.43 1.27 0.54
-6.28 1.26 0.57
-6.23 1.29 0.58
-6.41 1.36 0.54
-6.28 1.35 0.56
-6.37 1.40 0.54
-6.27 1.40 0.56
-6.32 1.44 0.55
-6.40 1.48 0.53
-6.32 1.50 0.55
-1.37 -0.69 1.37
-1.53 -0.69 1.33
-1.47 -0.67 1.35
-1.58 -0.67 1.32
-1.87 -0.68 1.26
-2.83 -0.83 1.04
-2.55 -0.77 1.10
-3.18 -0.80 0.96
-5.08 -1.07 0.53
-2.54 -0.69 1.11
-2.32 -0.64 1.15
-2.41 -0.63 1.14
-1.99 -0.57 1.23
-1.99 -0.55 1.23
-5.36 -0.96 0.47
-1.88 -0.51 1.26
-4.92 -0.87 0.57
-4.81 -0.83 0.59
-2.33 -0.53 1.15
-2.71 -0.55 1.07
-2.61 -0.52 1.09
-3.47 -0.60 0.90
-3.39 -0.58 0.91
-2.34 -0.45 1.15
-2.00 -0.41 1.23
-2.44 -0.43 1.13
-2.21 -0.40 1.18
-4.07 -0.54 0.76
-4.29 -0.55 0.71
-3.59 -0.46 0.87
-3.81 -0.46 0.82
-4.56 -0.49 0.65
-4.12 -0.44 0.75
-3.18 -0.37 0.96
-3.71 -0.39 0.84
-3.80 -0.36 0.82
-3.21 -0.32 0.96
-3.48 -0.30 0.90
-3.26 -0.28 0.94
-3.45 -0.28 0.90
-3.58 -0.27 0.87
-2.74 -0.21 1.06
-2.69 -0.19 1.07
-2.75 -0.17 1.06
-2.92 -0.16 1.02
-2.97 -0.15 1.01
-2.96 -0.14 1.01
-3.04 -0.12 0.99
-2.96 -0.10 1.01
-4.31 -0.04 0.71
-3.77 -0.02 0.83
-5.13 0.04 0.82
-5.97 0.13 0.62
-7.03 0.16 0.37
-6.92 0.18 0.40
-6.89 0.20 0.40
-6.94 0.22 0.39
-6.72 0.25 0.44
-6.57 0.26 0.48
-6.81 0.28 0.42
-6.61 0.29 0.47
-6.61 0.31 0.47
-6.88 0.34 0.40
-6.79 0.36 0.42
-6.66 0.37 0.45
-6.75 0.39 0.43
-6.91 0.42 0.39
-6.84 0.43 0.41
-6.93 0.45 0.39
-6.60 0.45 0.46
-6.91 0.49 0.39
-6.90 0.51 0.39
-6.69 0.51 0.44
-6.65 0.54 0.45
-6.69 0.56 0.44
-6.44 0.56 0.50
-5.01 0.46 0.83
-5.07 0.48 0.82
-5.08 0.50 0.82
-5.05 0.51 0.82
-5.20 0.54 0.79
-5.19 0.55 0.79
-5.26 0.57 0.77
-5.19 0.58 0.79
-5.62 0.63 0.69
-5.39 0.63 0.74
-5.29 0.63 0.76
-5.34 0.65 0.75
-5.38 0.67 0.74
-6.91 0.85 0.38
-5.83 0.75 0.63
-5.45 0.72 0.72
-5.51 0.74 0.71
-5.42 0.75 0.73
-5.06 0.72 0.81
-5.36 0.77 0.74
-5.33 0.78 0.75
-5.79 0.86 0.64
-6.15 0.92 0.55
-6.31 0.96 0.51
-6.31 1.08 0.50
-6.40 1.11 0.48
-6.38 1.12 0.49
-6.42 1.15 0.48
-6.32 1.15 0.50
-6.42 1.18 0.48
-6.74 1.25 0.40
-6.50 1.25 0.45
-6.65 1.29 0.42
-6.72 1.32 0.40
-6.54 1.31 0.44
-6.49 1.32 0.45
-6.39 1.32 0.47
-3.38 -0.98 0.86
-3.28 -0.95 0.88
-3.39 -0.96 0.86
-3.37 -0.94 0.86
-3.29 -0.91 0.88
-3.11 -0.86 0.92
-3.37 -0.89 0.86
-4.77 -1.09 0.53
-5.15 -1.10 0.44
-4.85 -1.04 0.51
-4.62 -0.98 0.57
-4.59 -0.96 0.57
-4.65 -0.96 0.56
-5.27 -0.95 0.41
-5.21 -0.91 0.43
-4.67 -0.83 0.56
-4.78 -0.82 0.53
-4.70 -0.80 0.55
-4.39 -0.75 0.62
-4.14 -0.70 0.68
-3.94 -0.67 0.73
-4.21 -0.68 0.67
-4.21 -0.66 0.67
-3.96 -0.62 0.73
-3.89 -0.60 0.74
-4.20 -0.62 0.67
-4.03 -0.57 0.71
-4.13 -0.57 0.69
-4.17 -0.55 0.68
-3.95 -0.52 0.73
-3.93 -0.50 0.73
-3.85 -0.48 0.75
-4.00 -0.48 0.72
-4.08 -0.47 0.70
-4.08 -0.46 0.70
-3.93 -0.43 0.73
-3.82 -0.41 0.76
-4.27 -0.42 0.65
-4.06 -0.39 0.71
-3.87 -0.37 0.75
-4.29 -0.38 0.65
-4.31 -0.36 0.64
-4.26 -0.35 0.66
-4.48 -0.34 0.61
-3.98 -0.30 0.72
-4.14 -0.28 0.68
-4.29 -0.27 0.65
-4.50 -0.23 0.60
-1.69 -0.52 0.66
-2.87 0.64 0.77
-2.21 -0.20 0.65
-2.95 0.67 0.63
-2.78 0.76 0.62
-2.22 0.74 0.58
-3.14 0.29 0.61
-2.36 0.63 0.56
-2.96 0.67 0.57
-2.30 0.72 0.54
-1.84 0.87 0.53
-1.61 0.91 0.51
-3.30 0.70 0.53
-3.29 0.79 0.53
-2.06 0.81 0.50
-0.84 -0.90 0.49
-1.68 1.06 0.44
-2.03 0.86 0.42
-2.33 -0.44 0.40
-2.69 0.80 0.30
-2.86 0.72 0.23
-2.31 0.73 0.29
-2.19 0.72 0.31
-1.88 0.85 0.33
-2.39 0.86 0.25
-2.28 0.85 0.27
-1.55 0.90 0.33
-2.62 0.85 0.20
-2.56 0.89 0.21
-2.32 0.81 0.25
-2.19 0.86 0.26
-2.10 0.85 0.27
-2.35 0.84 0.22
-2.02 0.78 0.27
-2.02 0.92 0.25
-2.17 0.71 0.24
-2.04 0.80 0.25
-2.01 0.84 0.25
-1.89 0.86 0.26
-1.38 0.88 0.31
-2.14 0.82 0.21
-2.06 0.82 0.23
-2.05 0.88 0.22
-1.89 0.85 0.25
-1.61 0.83 0.28
-1.38 0.88 0.30
-2.09 0.77 0.21
-2.07 0.83 0.20
-1.90 0.80 0.24
-1.88 0.85 0.23
-1.86 0.90 0.23
-1.79 0.96 0.23
-1.61 0.93 0.25
-1.98 0.81 0.21
-1.88 0.84 0.22
-1.81 0.83 0.23
-1.72 0.85 0.24
-1.80 0.82 0.22
-1.70 0.82 0.23
-1.56 0.93 0.23
-0.85 -0.85 0.29
-1.52 0.84 0.24
-0.88 -0.77 0.29
-0.76 -0.88 0.22
-0.84 -0.90 0.22
-0.85 -0.85 0.22
-1.25 -0.82 0.23
-1.09 -0.71 0.25
-1.39 -0.54 0.27
-1.36 -0.62 0.25
-1.48 -0.54 0.25
-1.29 -0.66 0.22
-1.31 -0.61 0.24
-1.36 -0.52 0.26
-1.51 -0.50 0.23
-1.25 -0.58 0.23
-1.37 -0.57 0.22
-1.17 -0.59 0.22
-1.40 -0.50 0.20
-1.39 -0.41 0.23
-1.42 -0.40 0.22
-1.35 -0.30 0.26
-1.40 -0.32 0.22
-1.35 -0.14 0.25
