# .PCD v0.7 - Point Cloud Data file format
VERSION 0.7
FIELDS x y z
SIZE 4 4 4
TYPE F F F
COUNT 1 1 1
WIDTH 357
HEIGHT 1
VIEWPOINT 0 0 0 1 0 0 0
POINTS 357
DATA ASCII
-4.89 0.06 2.24
-4.81 0.44 2.13
-14.10 0.05 1.75
-4.39 0.82 2.02
-7.05 0.22 1.74
-3.82 0.44 1.96
-4.35 -0.52 1.88
-6.33 0.18 1.81
-6.33 0.20 1.81
-7.37 0.32 1.75
-4.24 -0.23 1.92
-3.27 -0.17 1.97
-3.67 -0.02 1.95
-3.65 -0.37 1.86
-4.57 -0.01 1.81
-6.46 0.08 1.74
-6.84 0.19 1.71
-6.41 0.20 1.70
-3.88 0.38 1.87
-6.64 0.06 1.65
-6.41 0.08 1.67
-6.34 0.09 1.67
-6.17 0.11 1.68
-5.90 0.20 1.70
-7.74 0.40 1.57
-4.35 -0.30 1.73
-3.95 -0.26 1.76
-3.65 -0.09 1.86
-5.65 0.24 1.59
-4.10 0.21 1.71
-3.59 -0.22 1.75
-4.39 -0.22 1.69
-4.22 0.05 1.77
-4.15 0.06 1.77
-6.39 0.27 1.59
-6.03 0.27 1.62
-5.62 0.38 1.65
-7.28 0.53 1.51
-3.98 0.38 1.78
-4.30 -0.14 1.76
-3.70 -0.10 1.81
-6.01 -0.06 1.62
-5.80 -0.04 1.64
-6.01 -0.01 1.62
-6.63 0.06 1.53
-4.21 0.06 1.74
-4.13 0.33 1.74
-4.32 -0.15 1.63
-3.78 0.08 1.75
-4.28 0.39 1.70
-4.24 0.41 1.70
-3.84 -0.15 1.63
-5.25 -0.13 1.50
-3.63 -0.04 1.76
-3.76 -0.03 1.75
-6.32 0.16 1.35
-6.32 0.18 1.35
-2.78 0.12 1.70
-4.32 0.35 1.66
-6.93 0.58 1.40
-7.13 0.67 1.38
-3.84 -0.37 1.60
-4.49 -0.26 1.54
-3.64 -0.17 1.62
-4.28 -0.17 1.56
-4.62 -0.17 1.52
-4.06 -0.14 1.58
-4.05 -0.11 1.58
-3.53 -0.06 1.63
-3.79 0.04 1.69
-4.22 0.06 1.64
-4.54 0.09 1.61
-4.85 0.11 1.58
-4.04 0.11 1.66
-4.12 0.13 1.65
-7.31 0.40 1.31
-3.96 -0.09 1.67
-3.84 -0.04 1.68
-3.89 -0.03 1.68
-3.89 -0.02 1.68
-6.27 -0.01 1.43
-3.89 0.36 1.64
-3.84 0.27 1.62
-3.73 -0.09 1.63
-4.02 0.06 1.57
-6.14 0.17 1.30
-5.09 0.22 1.43
-4.16 0.19 1.55
-3.97 0.32 1.57
-4.19 -0.22 1.40
-3.87 -0.19 1.44
-4.96 -0.15 1.30
-5.75 -0.13 1.20
-3.99 0.03 1.53
-4.16 0.21 1.51
-3.35 0.19 1.62
-6.47 0.35 1.20
-6.70 0.49 1.17
-3.97 -0.18 1.38
-4.07 -0.17 1.37
-5.40 -0.07 1.35
-5.92 -0.03 1.28
-2.83 0.06 1.50
-7.75 0.39 0.97
-4.51 0.44 1.42
-2.77 -0.26 1.51
-3.16 -0.18 1.46
-3.60 -0.06 1.39
-5.48 0.00 1.24
-5.51 0.06 1.23
-4.81 0.11 1.34
-4.47 0.22 1.39
-4.34 0.25 1.40
-3.87 0.40 1.47
-3.90 0.51 1.46
-4.00 -0.24 1.29
-3.89 -0.08 1.48
-6.14 0.16 0.91
-6.80 0.86 0.98
-3.91 -0.21 1.27
-2.50 -0.09 1.48
-5.40 0.06 1.15
-4.87 0.19 1.24
-4.68 0.21 1.27
-6.86 0.32 0.91
-3.86 0.24 1.40
-4.12 0.54 1.35
-3.71 -0.09 1.43
-4.20 0.12 1.31
-5.98 0.20 1.00
-3.77 0.14 1.38
-4.64 0.21 1.23
-4.45 0.23 1.27
-3.50 0.20 1.43
-3.70 0.24 1.39
-3.64 0.43 1.40
-2.30 0.34 1.63
-2.55 -0.07 1.40
-5.81 0.10 0.98
-4.71 0.17 1.18
-6.23 0.24 0.90
-5.12 0.22 1.10
-5.02 0.23 1.12
-4.59 0.22 1.20
-4.40 0.28 1.23
-6.37 0.42 0.87
-6.66 0.45 0.82
-4.18 0.32 1.27
-6.39 0.49 0.87
-6.42 0.51 0.86
-6.51 0.55 0.85
-6.43 0.56 0.86
-7.59 0.73 0.65
-4.17 0.50 1.26
-5.41 -0.93 0.85
-5.32 -0.90 0.86
-6.84 -0.59 0.59
-2.48 -0.18 1.38
-5.24 -0.15 0.88
-1.90 0.07 1.45
-4.97 0.17 1.08
-5.10 0.19 1.05
-4.85 0.19 1.10
-3.47 0.18 1.36
-3.06 0.25 1.44
-2.97 0.25 1.45
-3.79 0.47 1.29
-5.18 -0.97 0.83
-3.62 -0.08 1.12
-5.55 0.02 0.91
-5.70 0.06 0.88
-5.18 0.10 0.99
-5.00 0.13 1.02
-4.99 0.14 1.02
-4.92 0.15 1.04
-5.19 0.17 0.98
-5.05 0.20 1.01
-5.60 0.25 0.90
-4.47 0.24 1.12
-4.55 0.26 1.11
-6.46 0.45 0.73
-6.43 0.47 0.73
-6.50 0.49 0.72
-6.47 0.51 0.72
-6.43 0.52 0.73
-6.52 0.55 0.71
-6.43 0.56 0.73
-6.52 0.58 0.71
-4.16 0.41 1.18
-6.44 0.61 0.73
-6.42 0.63 0.73
-4.21 0.48 1.17
-5.69 -1.10 0.66
-5.44 -1.01 0.71
-5.28 -0.97 0.74
-3.57 -0.36 1.08
-5.48 -0.03 0.93
-5.14 0.07 0.71
-2.99 -0.28 1.16
-2.22 -0.19 1.32
-5.99 -0.00 0.71
-4.49 0.10 1.02
-5.98 0.15 0.70
-5.23 0.14 0.87
-5.02 0.15 0.91
-4.93 0.17 0.93
-4.84 0.18 0.95
-4.92 0.19 0.93
-5.08 0.21 0.90
-4.90 0.22 0.93
-4.31 0.26 1.06
-4.29 0.28 1.06
-4.07 0.30 1.11
-6.18 0.45 0.65
-3.99 0.33 1.13
-3.99 0.36 1.13
-3.80 0.36 1.17
-3.93 0.38 1.14
-3.63 0.64 1.19
-4.44 0.83 1.01
-4.41 0.84 1.02
-4.49 0.87 1.00
-4.51 0.89 0.99
-4.52 0.90 0.99
-4.57 0.92 0.98
-4.60 0.94 0.97
-4.71 0.97 0.95
-4.59 0.97 0.97
-4.66 0.99 0.96
-4.60 0.99 0.97
-4.59 1.01 0.97
-4.64 1.03 0.96
-4.60 1.04 0.97
-4.69 1.07 0.95
-4.62 1.07 0.96
-4.63 1.08 0.96
-4.61 1.09 0.96
-4.70 1.12 0.94
-4.68 1.13 0.95
-4.72 1.16 0.94
-4.69 1.16 0.94
-4.77 1.20 0.92
-4.82 1.23 0.91
-4.74 1.23 0.93
-4.69 1.24 0.94
-4.70 1.25 0.93
-4.63 1.25 0.95
-4.52 -1.07 0.77
-4.21 -0.81 0.84
-4.71 -0.86 0.74
-3.89 -0.45 0.92
-3.07 -0.34 1.09
-2.67 -0.20 1.42
-3.09 -0.20 1.33
-5.63 -0.03 0.78
-3.37 -0.01 1.27
-3.82 0.28 1.12
-3.81 0.35 1.12
-3.81 0.37 1.12
-3.64 0.37 1.16
-3.82 0.60 1.11
-3.93 0.66 1.08
-4.40 0.84 0.97
-4.45 0.86 0.96
-4.51 0.88 0.94
-4.63 0.92 0.91
-4.57 0.92 0.93
-4.57 0.97 0.92
-4.64 1.00 0.91
-4.60 1.02 0.92
-4.54 1.04 0.93
-4.63 1.07 0.91
-4.61 1.08 0.91
-4.63 1.12 0.90
-4.84 1.19 0.85
-6.77 -1.17 0.20
-6.74 -1.13 0.21
-6.75 -1.11 0.21
-6.74 -1.08 0.21
-4.10 -0.68 0.81
-2.30 -0.42 1.22
-2.67 -0.41 1.13
-2.74 -0.39 1.12
-2.97 -0.30 1.07
-2.77 -0.22 1.11
-2.92 -0.19 1.08
-5.81 0.11 0.61
-4.90 0.27 0.82
-5.72 0.34 0.63
-4.32 0.28 0.96
-4.48 0.31 0.92
-5.66 0.56 0.64
-4.57 -1.11 0.64
-4.54 -0.73 0.65
-1.83 -0.50 0.67
-2.16 0.90 0.68
-2.76 0.52 0.63
-2.30 0.95 0.61
-1.31 -0.92 0.59
-3.14 0.65 0.64
-1.42 -0.87 0.57
-1.80 -0.68 0.54
-2.49 -0.49 0.57
-2.60 0.68 0.55
-1.45 -0.96 0.55
-1.08 -0.86 0.53
-1.39 -0.77 0.52
-2.53 0.87 0.51
-1.76 0.91 0.50
-1.12 -0.91 0.52
-1.31 -0.73 0.51
-1.47 -0.80 0.51
-1.69 -0.97 0.52
-1.75 -0.63 0.50
-1.79 -0.74 0.49
-2.33 0.82 0.47
-1.78 0.85 0.47
-1.08 -0.93 0.50
-1.41 -0.72 0.49
-2.94 0.58 0.44
-2.59 0.60 0.44
-1.24 -0.98 0.48
-1.34 -0.71 0.48
-2.49 0.77 0.42
-1.26 -0.84 0.47
-1.96 -0.86 0.45
-2.33 0.82 0.41
-1.01 -0.86 0.46
-1.58 -1.08 0.45
-1.28 -1.00 0.44
-3.60 0.68 0.29
-0.97 -0.87 0.44
-1.53 -0.96 0.42
-1.52 -0.93 0.41
-3.00 0.60 0.25
-2.51 0.86 0.29
-2.37 0.70 0.29
-1.84 0.80 0.32
-2.12 0.87 0.25
-1.75 -0.90 0.30
-1.87 -0.65 0.29
-0.97 -1.05 0.28
-1.91 0.74 0.23
-1.81 0.90 0.22
-1.90 -0.95 0.21
-0.98 -0.79 0.30
-1.02 -0.75 0.30
-1.08 -0.84 0.28
-1.11 -0.84 0.28
-1.49 -0.76 0.27
-1.76 -0.84 0.22
-1.86 -0.70 0.23
-1.30 -0.86 0.24
-1.18 -0.76 0.26
-1.73 -0.74 0.20
-1.41 -0.75 0.21
-1.45 -0.68 0.23
