# .PCD v0.7 - Point Cloud Data file format
VERSION 0.7
FIELDS x y z
SIZE 4 4 4
TYPE F F F
COUNT 1 1 1
WIDTH 1458
HEIGHT 1
VIEWPOINT 0 0 0 1 0 0 0
POINTS 1458
DATA ASCII
-2.32 -0.52 2.23
-3.26 1.35 2.18
-3.08 1.27 2.17
-3.17 1.33 2.14
-7.53 -0.94 1.81
-12.32 0.33 1.59
-7.93 -1.06 1.75
-7.71 -0.89 1.76
-7.73 -0.85 1.76
-7.60 -0.81 1.77
-7.66 -0.42 1.76
-12.48 0.24 1.47
-7.83 -1.31 1.67
-7.93 -1.23 1.67
-7.79 -0.85 1.67
-7.61 -0.72 1.68
-7.71 -1.20 1.59
-7.46 -0.82 1.61
-7.61 -0.77 1.60
-7.79 -0.85 1.53
-11.10 0.41 1.31
-10.75 0.42 1.34
-10.77 0.45 1.34
-7.72 -1.30 1.49
-7.53 -1.25 1.50
-7.74 -1.25 1.49
-7.58 -1.21 1.50
-7.95 -1.11 1.47
-7.98 -1.02 1.47
-7.82 -0.98 1.48
-7.89 -0.93 1.48
-7.58 -0.86 1.50
-7.61 -0.84 1.50
-7.50 -0.71 1.50
-7.50 -0.69 1.50
-8.04 -0.28 1.54
-8.00 -0.26 1.55
-7.89 -0.24 1.55
-7.72 -0.21 1.57
-7.92 -0.17 1.55
-7.54 0.01 1.49
-11.93 0.07 1.12
-11.40 0.13 1.16
-11.14 0.32 1.18
-11.17 0.35 1.18
-11.06 0.38 1.19
-10.90 0.43 1.20
-10.93 0.46 1.20
-11.43 0.50 1.16
-8.03 -1.36 1.36
-7.81 -1.31 1.37
-8.11 -1.33 1.35
-8.09 -1.30 1.35
-2.73 -0.61 1.79
-7.62 -0.98 1.39
-7.74 -0.94 1.38
-7.53 -0.90 1.40
-7.83 -0.88 1.37
-7.82 -0.86 1.37
-7.73 -0.83 1.38
-7.67 -0.80 1.39
-8.04 -0.28 1.45
-7.99 -0.26 1.45
-7.84 -0.24 1.46
-7.73 -0.13 1.47
-7.28 -0.05 1.51
-7.69 -0.01 1.47
-1.85 -0.54 1.84
-7.83 -0.95 1.32
-7.49 -0.87 1.35
-7.58 -0.81 1.34
-10.18 0.82 1.13
-3.72 0.54 1.75
-8.04 -1.37 1.24
-8.19 -1.19 1.22
-8.22 -1.16 1.22
-7.99 -1.09 1.24
-7.59 -0.77 1.28
-7.60 -0.74 1.28
-7.47 -0.71 1.29
-7.56 -0.70 1.28
-5.60 -0.37 1.46
-9.93 -0.00 0.99
-10.37 0.75 1.05
-4.20 0.42 1.67
-4.07 0.42 1.69
-10.47 1.11 1.03
-8.01 -1.38 1.18
-6.13 -1.05 1.37
-8.34 -1.23 1.15
-8.15 -1.16 1.17
-6.02 -0.90 1.38
-6.06 -0.88 1.37
-8.12 -0.93 1.17
-7.93 -0.87 1.19
-7.53 -0.79 1.23
-7.60 -0.77 1.22
-5.27 -0.51 1.45
-5.55 -0.50 1.42
-5.59 -0.46 1.42
-5.33 -0.43 1.44
-6.07 -0.39 1.37
-5.78 -0.36 1.40
-5.80 -0.30 1.40
-7.56 0.01 1.29
-3.32 0.01 1.74
-10.84 0.09 0.93
-9.47 0.13 1.08
-10.08 0.16 1.02
-10.05 0.19 1.02
-10.56 0.25 0.96
-10.51 0.28 0.97
-10.31 0.30 0.99
-10.76 0.34 0.94
-12.10 0.44 0.80
-9.93 0.42 1.03
-10.62 0.50 0.95
-10.50 0.57 0.97
-10.85 0.73 0.93
-10.36 0.72 0.98
-10.07 0.73 1.01
-9.99 0.75 1.02
-10.23 0.92 0.99
-6.02 -1.10 1.32
-6.10 -1.09 1.31
-8.15 -1.33 1.10
-5.90 -1.02 1.34
-5.93 -1.01 1.33
-5.70 -0.96 1.36
-5.67 -0.94 1.36
-5.74 -0.93 1.35
-5.88 -0.92 1.34
-5.85 -0.90 1.34
-6.19 -0.92 1.31
-5.82 -0.86 1.34
-6.16 -0.88 1.31
-5.71 -0.81 1.36
-7.52 -0.88 1.16
-5.08 -0.62 1.42
-5.42 -0.63 1.39
-5.25 -0.60 1.40
-7.66 -0.77 1.15
-7.41 -0.73 1.18
-7.40 -0.71 1.18
-5.38 -0.49 1.39
-5.84 -0.42 1.34
-8.19 -1.26 1.03
-10.89 0.01 0.77
-10.90 0.09 0.77
-10.33 0.22 0.84
-10.40 0.25 0.83
-10.39 0.27 0.83
-10.96 0.32 0.76
-10.71 0.34 0.79
-10.28 0.35 0.84
-10.45 0.38 0.82
-11.19 0.49 0.73
-10.12 0.50 0.86
-11.55 0.59 0.69
-11.42 0.62 0.70
-10.05 0.81 0.86
-10.48 0.86 0.81
-10.66 0.91 0.79
-10.72 0.94 0.78
-10.16 0.92 0.85
-10.77 1.00 0.77
-10.51 1.19 0.80
-5.76 -1.14 1.24
-5.67 -1.07 1.25
-8.10 -1.38 0.96
-7.89 -1.32 0.99
-7.98 -1.31 0.98
-7.96 -1.28 0.98
-8.10 -1.28 0.96
-5.59 -0.95 1.26
-7.84 -1.20 1.00
-5.76 -0.91 1.24
-7.88 -1.13 0.99
-7.90 -1.08 0.99
-7.70 -1.04 1.01
-5.78 -0.82 1.24
-10.82 -0.07 0.78
-10.69 -0.02 0.80
-10.23 0.11 0.78
-10.52 0.14 0.74
-10.48 0.22 0.75
-7.37 0.18 1.14
-11.50 0.77 0.61
-10.38 0.78 0.75
-10.71 0.83 0.71
-11.66 0.92 0.59
-11.44 0.94 0.61
-11.19 0.95 0.64
-10.95 0.96 0.67
-10.69 0.99 0.71
-10.46 1.10 0.73
-5.77 -1.16 1.19
-5.67 -1.11 1.20
-5.63 -1.08 1.21
-7.84 -1.34 0.93
-7.79 -1.31 0.93
-7.90 -1.30 0.92
-7.89 -1.27 0.92
-5.99 -1.01 1.16
-5.49 -0.93 1.22
-7.89 -1.20 0.92
-7.93 -1.18 0.92
-7.86 -1.15 0.92
-7.77 -1.12 0.94
-7.72 -1.09 0.94
-5.42 -0.82 1.23
-5.68 -0.83 1.20
-7.64 -1.01 0.95
-5.28 -0.68 1.25
-5.20 -0.65 1.26
-5.39 -0.56 1.24
-4.99 -0.48 1.29
-4.83 -0.45 1.31
-5.17 -0.46 1.26
-5.01 -0.41 1.28
-5.16 -0.39 1.27
-5.21 -0.37 1.26
-5.24 -0.36 1.25
-5.49 -0.35 1.22
-5.34 -0.32 1.24
-5.47 -0.31 1.23
-5.72 -0.27 1.19
-7.50 0.01 1.07
-7.61 0.03 1.05
-7.70 0.05 1.04
-7.81 0.07 1.03
-10.62 0.12 0.65
-10.68 0.14 0.64
-7.53 0.12 1.06
-10.77 0.28 0.62
-7.05 0.21 1.13
-10.65 0.33 0.64
-7.32 0.25 1.09
-7.28 0.27 1.09
-7.07 0.28 1.12
-10.15 0.42 0.71
-10.84 0.48 0.61
-10.27 0.48 0.69
-11.23 0.55 0.56
-11.02 0.57 0.59
-11.14 0.60 0.57
-11.30 0.64 0.55
-11.03 0.65 0.58
-10.13 0.63 0.71
-11.12 0.71 0.57
-11.14 0.74 0.57
-10.98 0.76 0.59
-11.30 0.81 0.54
-11.33 0.84 0.54
-11.57 0.89 0.51
-11.58 0.92 0.51
-11.58 0.95 0.50
-11.50 0.97 0.52
-11.31 0.98 0.54
-10.72 0.99 0.62
-10.34 0.99 0.67
-10.81 1.08 0.61
-10.88 1.17 0.59
-8.07 -1.40 0.82
-7.69 -1.32 0.87
-7.86 -1.32 0.85
-5.57 -1.00 1.16
-5.26 -0.94 1.20
-5.54 -0.96 1.16
-7.84 -1.22 0.85
-8.13 -1.23 0.82
-7.82 -1.17 0.86
-5.67 -0.90 1.14
-5.70 -0.89 1.14
-7.81 -1.10 0.86
-5.21 -0.80 1.20
-5.49 -0.81 1.17
-5.68 -0.81 1.14
-7.46 -0.97 0.91
-5.45 -0.75 1.17
-5.54 -0.74 1.16
-7.10 -0.86 0.95
-5.80 -0.72 1.13
-5.67 -0.69 1.14
-5.31 -0.64 1.19
-5.22 -0.62 1.20
-5.96 -0.66 1.10
-6.02 -0.65 1.10
-5.53 -0.59 1.16
-5.48 -0.57 1.17
-5.60 -0.56 1.15
-6.52 -0.60 1.03
-5.65 -0.52 1.15
-5.48 -0.49 1.17
-5.19 -0.46 1.21
-6.19 -0.48 1.07
-5.60 -0.43 1.15
-5.56 -0.41 1.16
-5.21 -0.37 1.20
-5.50 -0.37 1.17
-5.28 -0.32 1.20
-5.87 -0.33 1.12
-5.37 -0.29 1.18
-5.09 -0.26 1.22
-10.59 -0.07 0.65
-7.51 -0.01 1.07
-9.84 0.05 0.50
-9.84 0.08 0.50
-9.84 0.11 0.50
-9.29 0.13 0.58
-10.18 0.17 0.45
-10.21 0.20 0.44
-9.75 0.22 0.51
-9.63 0.25 0.53
-10.64 0.30 0.56
-10.54 0.33 0.57
-10.09 0.34 0.64
-10.00 0.39 0.65
-10.21 0.42 0.62
-10.95 0.56 0.51
-11.05 0.60 0.50
-10.52 0.60 0.57
-9.97 0.59 0.65
-10.10 0.63 0.63
-10.96 0.73 0.51
-11.18 0.77 0.48
-11.04 0.79 0.50
-11.34 0.84 0.45
-11.36 0.87 0.45
-11.71 0.93 0.40
-11.33 0.93 0.45
-11.57 1.00 0.42
-4.99 0.48 1.36
-11.61 1.07 0.41
-10.87 1.03 0.51
-11.00 1.07 0.50
-10.85 1.08 0.52
-10.29 1.08 0.60
-10.99 1.18 0.50
-10.62 1.17 0.55
-10.35 1.17 0.58
-10.19 1.18 0.61
-10.54 1.25 0.56
-3.63 0.49 1.55
-10.67 1.31 0.54
-10.58 1.47 0.55
-7.93 -1.38 0.77
-7.76 -1.33 0.79
-8.10 -1.35 0.75
-7.80 -1.29 0.79
-8.10 -1.30 0.75
-7.94 -1.26 0.77
-7.69 -1.20 0.80
-7.81 -1.19 0.79
-7.85 -1.17 0.78
-5.30 -0.86 1.14
-7.77 -1.12 0.79
-7.66 -1.08 0.81
-5.51 -0.83 1.11
-7.54 -1.02 0.83
-7.60 -1.00 0.82
-5.33 -0.75 1.14
-7.19 -0.92 0.88
-7.02 -0.88 0.90
-6.84 -0.84 0.92
-5.09 -0.66 1.17
-5.14 -0.65 1.16
-5.36 -0.65 1.13
-5.16 -0.61 1.16
-5.34 -0.59 1.13
-5.08 -0.56 1.17
-5.79 -0.59 1.07
-5.47 -0.55 1.12
-5.58 -0.54 1.10
-5.35 -0.50 1.13
-5.66 -0.51 1.09
-5.49 -0.48 1.11
-5.86 -0.48 1.06
-5.42 -0.44 1.12
-6.26 -0.46 1.01
-5.53 -0.41 1.11
-5.55 -0.39 1.10
-6.57 -0.42 0.96
-5.85 -0.37 1.06
-6.68 -0.38 0.95
-5.22 -0.30 1.15
-5.34 -0.29 1.13
-7.10 -0.25 0.89
-6.94 -0.20 0.91
-7.07 -0.16 0.89
-7.52 -0.14 0.83
-10.69 0.01 0.47
-7.21 0.04 0.99
-10.60 0.11 0.48
-10.62 0.17 0.48
-10.39 0.22 0.51
-10.66 0.28 0.47
-7.12 0.23 1.00
-7.11 0.27 1.00
-7.05 0.28 1.01
-7.10 0.30 1.00
-6.98 0.34 1.02
-11.29 0.58 0.37
-11.18 0.60 0.39
-10.21 0.61 0.53
-11.11 0.68 0.39
-9.82 0.66 0.59
-11.13 0.80 0.39
-10.02 0.78 0.55
-11.05 0.88 0.40
-10.99 0.90 0.41
-10.00 0.88 0.56
-10.39 0.96 0.50
-10.60 1.03 0.46
-10.82 1.08 0.43
-11.13 1.14 0.38
-10.39 1.39 0.49
-8.19 -1.44 0.65
-5.36 -1.01 1.07
-5.56 -1.00 1.04
-7.65 -1.22 0.73
-7.91 -1.23 0.69
-7.97 -1.21 0.68
-8.02 -1.17 0.68
-7.87 -1.11 0.70
-5.38 -0.81 1.07
-8.00 -1.07 0.68
-7.89 -1.04 0.70
-7.11 -0.93 0.81
-5.76 -0.76 1.01
-5.26 -0.68 1.09
-5.20 -0.64 1.10
-6.42 -0.72 0.91
-5.41 -0.62 1.06
-5.83 -0.61 1.00
-5.82 -0.58 1.00
-5.98 -0.55 0.98
-6.09 -0.54 0.96
-5.61 -0.49 1.03
-5.24 -0.43 1.09
-6.53 -0.42 0.90
-6.33 -0.23 1.12
-6.10 -0.21 1.16
-6.12 -0.19 1.15
-6.24 -0.18 1.13
-6.44 -0.17 1.10
-10.68 -0.10 0.47
-10.19 -0.05 0.54
-10.02 -0.01 0.29
-10.16 0.02 0.27
-9.96 0.05 0.30
-10.04 0.08 0.29
-10.04 0.11 0.29
-9.98 0.14 0.30
-9.74 0.22 0.33
-9.21 0.32 0.41
-8.81 0.36 0.48
-8.73 0.41 0.49
-9.44 0.46 0.58
-9.61 0.52 0.55
-11.52 0.65 0.25
-11.27 0.66 0.29
-9.65 0.60 0.54
-11.28 0.72 0.28
-9.71 0.65 0.53
-10.69 0.74 0.38
-10.31 0.74 0.43
-9.87 0.74 0.50
-9.98 0.77 0.49
-9.89 0.79 0.50
-6.69 0.57 1.00
-10.14 0.86 0.46
-10.53 0.92 0.40
-10.38 0.93 0.42
-10.71 0.99 0.37
-10.62 1.01 0.38
-9.58 1.04 0.54
-10.19 1.15 0.44
-10.57 1.36 0.38
-10.57 1.41 0.38
-10.86 1.50 0.33
-3.18 0.71 1.54
-7.98 -1.46 0.61
-8.12 -1.38 0.59
-7.77 -1.28 0.64
-8.03 -1.29 0.60
-7.88 -1.25 0.63
-7.97 -1.24 0.61
-8.06 -1.22 0.60
-8.09 -1.20 0.59
-8.22 -1.19 0.57
-8.20 -1.17 0.58
-8.10 -1.13 0.59
-8.45 -1.14 0.54
-10.09 -1.17 0.28
-7.17 -0.87 0.74
-9.57 -0.90 0.37
-5.43 -0.44 1.01
-5.24 -0.41 1.04
-9.61 -0.29 0.36
-9.64 -0.23 0.35
-9.32 -0.20 0.40
-9.50 -0.14 0.37
-9.31 -0.12 0.40
-9.49 -0.09 0.38
-9.57 -0.06 0.36
-10.78 0.01 0.28
-7.50 0.02 0.82
-10.50 0.06 0.32
-10.27 0.08 0.36
-10.53 0.11 0.32
-10.23 0.14 0.37
-10.35 0.16 0.35
-10.52 0.19 0.32
-10.81 0.23 0.27
-10.55 0.25 0.31
-10.67 0.28 0.29
-7.17 0.21 0.87
-6.89 0.26 0.91
-9.25 0.36 0.52
-5.20 0.23 1.19
-9.38 0.41 0.50
-9.56 0.45 0.47
-9.45 0.47 0.49
-9.50 0.49 0.48
-9.38 0.51 0.50
-9.45 0.54 0.49
-9.49 0.57 0.48
-9.57 0.59 0.47
-9.52 0.62 0.48
-9.61 0.65 0.46
-6.97 0.50 0.90
-9.78 0.71 0.43
-9.82 0.73 0.42
-9.98 0.77 0.40
-10.18 0.81 0.36
-10.86 0.89 0.25
-6.93 0.61 0.90
-7.09 0.64 0.87
-7.44 0.69 0.82
-10.48 0.97 0.31
-7.24 0.75 0.85
-10.34 1.17 0.33
-10.27 1.19 0.34
-10.10 1.20 0.37
-10.21 1.24 0.35
-10.46 1.32 0.30
-10.41 1.37 0.31
-7.84 -1.61 0.54
-7.61 -1.50 0.58
-8.01 -1.54 0.52
-7.79 -1.48 0.55
-7.57 -1.43 0.59
-7.27 -1.36 0.64
-7.43 -1.36 0.61
-7.38 -1.33 0.62
-7.66 -1.34 0.58
-7.40 -1.29 0.62
-7.50 -1.28 0.60
-7.38 -1.24 0.62
-7.88 -1.28 0.54
-7.25 -1.18 0.64
-7.89 -1.23 0.54
-7.98 -1.22 0.53
-8.13 -1.21 0.50
-7.69 -1.14 0.57
-7.83 -1.13 0.55
-6.51 -0.96 0.77
-6.21 -0.91 0.82
-8.41 -1.12 0.46
-6.39 -0.88 0.79
-6.16 -0.84 0.82
-8.37 -1.04 0.46
-6.40 -0.82 0.79
-6.80 -0.84 0.72
-6.62 -0.80 0.75
-7.70 -0.88 0.57
-6.76 -0.77 0.73
-7.01 -0.77 0.69
-6.44 -0.70 0.78
-6.48 -0.69 0.77
-6.23 -0.65 0.81
-6.44 -0.64 0.78
-5.49 -0.55 0.93
-6.86 -0.61 0.71
-5.46 -0.50 0.94
-5.33 -0.45 0.96
-5.29 -0.43 0.97
-10.86 -0.46 0.27
-10.58 -0.37 0.31
-8.21 -0.27 0.70
-11.05 -0.33 0.23
-8.06 -0.23 0.73
-10.26 -0.18 0.37
-7.27 -0.11 0.86
-7.77 -0.10 0.78
-7.82 -0.08 0.77
-10.66 -0.08 0.30
-10.54 -0.05 0.32
-10.83 -0.02 0.27
-10.50 0.11 0.23
-9.95 0.13 0.33
-9.45 0.15 0.41
-10.03 0.18 0.31
-9.19 0.19 0.46
-10.41 0.24 0.25
-9.13 0.24 0.47
-9.44 0.27 0.41
-9.41 0.29 0.42
-10.37 0.35 0.25
-9.52 0.37 0.40
-9.24 0.38 0.45
-9.61 0.42 0.38
-9.13 0.43 0.47
-9.14 0.45 0.46
-9.08 0.47 0.47
-9.41 0.51 0.42
-9.47 0.54 0.40
-9.29 0.55 0.44
-9.33 0.58 0.43
-9.42 0.61 0.41
-9.50 0.64 0.40
-9.68 0.67 0.36
-9.64 0.70 0.37
-9.78 0.73 0.35
-9.66 0.75 0.37
-9.81 0.78 0.34
-9.71 0.80 0.36
-9.96 0.85 0.31
-10.10 0.88 0.29
-9.88 0.99 0.32
-7.38 0.80 0.76
-10.01 1.13 0.30
-9.75 1.13 0.34
-9.99 1.18 0.30
-10.12 1.22 0.28
-10.01 1.24 0.29
-7.22 -1.58 0.57
-7.26 -1.56 0.56
-7.39 -1.51 0.54
-2.69 -0.76 1.35
-7.37 -1.47 0.55
-7.29 -1.43 0.56
-7.60 -1.45 0.51
-7.60 -1.43 0.51
-7.43 -1.38 0.54
-7.43 -1.36 0.54
-7.28 -1.31 0.56
-7.36 -1.30 0.55
-7.31 -1.27 0.56
-6.92 -1.20 0.63
-7.58 -1.26 0.51
-7.72 -1.26 0.49
-6.91 -1.13 0.63
-6.82 -1.10 0.64
-7.71 -1.18 0.49
-7.63 -1.15 0.50
-7.45 -1.11 0.54
-6.38 -0.96 0.72
-6.29 -0.93 0.74
-5.81 -0.86 0.82
-6.28 -0.89 0.74
-6.02 -0.84 0.78
-6.59 -0.88 0.68
-6.39 -0.84 0.72
-7.02 -0.88 0.61
-6.54 -0.81 0.69
-6.82 -0.82 0.65
-6.29 -0.75 0.74
-6.84 -0.78 0.64
-5.37 -0.63 0.89
-5.30 -0.61 0.91
-5.48 -0.61 0.88
-6.33 -0.65 0.73
-5.78 -0.59 0.82
-6.04 -0.59 0.78
-5.20 -0.51 0.92
-5.38 -0.51 0.89
-5.44 -0.49 0.88
-5.32 -0.47 0.90
-5.16 -0.44 0.93
-2.18 -0.25 1.44
-5.83 -0.44 0.82
-7.23 -0.50 0.58
-6.70 -0.45 0.67
-7.13 -0.45 0.59
-7.35 -0.44 0.56
-7.27 -0.41 0.57
-8.02 -0.42 0.44
-7.45 -0.37 0.54
-7.08 -0.34 0.60
-4.85 -0.24 0.98
-1.98 -0.13 1.47
-7.55 -0.26 0.52
-7.42 -0.23 0.54
-7.47 -0.21 0.53
-6.86 -0.18 0.64
-7.40 -0.17 0.54
-7.47 -0.14 0.53
-8.15 -0.10 0.42
-5.38 0.02 1.07
-5.23 0.06 1.10
-10.03 0.13 0.23
-9.87 0.16 0.25
-9.92 0.18 0.25
-9.66 0.20 0.29
-9.00 0.21 0.41
-8.99 0.23 0.41
-8.79 0.25 0.45
-8.78 0.28 0.45
-8.92 0.30 0.42
-8.68 0.32 0.47
-9.46 0.42 0.32
-7.03 0.35 0.77
-9.30 0.48 0.35
-9.35 0.51 0.34
-9.43 0.54 0.33
-9.58 0.57 0.30
-9.54 0.59 0.31
-9.65 0.62 0.29
-9.66 0.65 0.28
-9.69 0.67 0.28
-9.40 0.68 0.33
-9.61 0.72 0.29
-9.70 0.77 0.27
-9.62 0.79 0.29
-9.50 0.83 0.31
-6.46 0.60 0.86
-6.36 0.63 0.88
-6.74 0.68 0.81
-7.05 0.73 0.75
-7.69 0.81 0.64
-7.95 0.87 0.59
-8.11 0.91 0.56
-5.22 0.64 1.08
-8.20 0.99 0.54
-8.26 1.01 0.53
-8.07 1.01 0.56
-8.13 1.04 0.55
-6.06 0.87 0.93
-6.37 1.03 0.86
-5.71 1.07 0.98
-7.28 -1.54 0.48
-7.20 -1.51 0.50
-7.19 -1.48 0.50
-7.33 -1.48 0.47
-7.18 -1.44 0.50
-7.16 -1.41 0.51
-7.12 -1.38 0.51
-7.24 -1.38 0.49
-6.80 -1.25 0.57
-7.27 -1.29 0.49
-6.93 -1.22 0.55
-7.13 -1.23 0.51
-5.74 -1.02 0.76
-7.80 -1.27 0.39
-7.75 -1.24 0.40
-5.92 -0.99 0.73
-7.18 -1.12 0.51
-7.38 -1.12 0.47
-6.48 -1.00 0.63
-6.25 -0.95 0.67
-6.09 -0.91 0.70
-6.17 -0.90 0.69
-6.14 -0.88 0.69
-6.07 -0.85 0.71
-6.16 -0.84 0.69
-6.35 -0.84 0.66
-6.28 -0.81 0.67
-5.51 -0.72 0.81
-6.32 -0.78 0.66
-5.03 -0.64 0.89
-6.20 -0.72 0.68
-5.10 -0.61 0.88
-5.41 -0.62 0.83
-6.43 -0.68 0.64
-6.52 -0.67 0.63
-6.05 -0.61 0.71
-5.61 -0.56 0.79
-5.69 -0.55 0.78
-5.43 -0.51 0.82
-5.29 -0.49 0.85
-4.97 -0.45 0.90
-5.07 -0.44 0.89
-4.97 -0.41 0.90
-5.29 -0.41 0.85
-5.21 -0.39 0.86
-7.15 -0.47 0.51
-7.38 -0.46 0.47
-7.20 -0.43 0.50
-7.26 -0.41 0.49
-7.01 -0.38 0.54
-7.38 -0.37 0.47
-6.04 -0.30 0.71
-7.31 -0.32 0.48
-7.06 -0.29 0.53
-6.81 -0.26 0.57
-6.40 -0.23 0.65
-6.80 -0.22 0.57
-7.28 -0.21 0.49
-6.99 -0.18 0.54
-7.31 -0.16 0.48
-8.33 -0.13 0.54
-10.11 -0.07 0.21
-5.09 0.01 0.82
-8.15 0.11 0.24
-8.05 0.14 0.26
-8.06 0.16 0.25
-8.12 0.19 0.24
-8.15 0.21 0.24
-9.58 0.27 0.22
-8.74 0.27 0.38
-9.05 0.31 0.32
-9.02 0.33 0.32
-8.97 0.35 0.33
-9.22 0.38 0.28
-9.33 0.41 0.26
-9.31 0.43 0.27
-9.47 0.46 0.23
-9.17 0.47 0.29
-9.10 0.49 0.30
-9.54 0.54 0.22
-7.26 0.69 0.65
-7.24 0.71 0.65
-8.21 0.81 0.46
-7.94 0.83 0.52
-7.74 0.83 0.55
-7.80 0.86 0.54
-7.71 0.87 0.56
-7.80 0.90 0.54
-8.17 1.00 0.47
-5.73 0.78 0.93
-6.25 0.89 0.83
-7.80 1.11 0.53
-6.06 0.90 0.87
-6.30 0.95 0.82
-5.25 0.86 1.02
-7.33 -1.60 0.39
-7.24 -1.56 0.41
-7.21 -1.53 0.41
-7.10 -1.49 0.43
-6.90 -1.42 0.47
-6.93 -1.40 0.47
-7.04 -1.39 0.45
-7.53 -1.44 0.35
-6.85 -1.32 0.48
-7.29 -1.36 0.40
-7.34 -1.35 0.39
-7.49 -1.34 0.36
-7.17 -1.28 0.42
-7.58 -1.31 0.35
-7.07 -1.22 0.44
-8.26 -1.35 0.22
-6.50 -1.10 0.55
-6.15 -1.04 0.62
-7.37 -1.17 0.39
-7.75 -1.19 0.32
-7.82 -1.17 0.30
-7.82 -1.15 0.30
-6.16 -0.94 0.62
-6.51 -0.96 0.55
-7.38 -1.03 0.39
-6.66 -0.93 0.52
-6.43 -0.89 0.57
-6.38 -0.86 0.58
-6.30 -0.83 0.59
-6.74 -0.86 0.51
-6.42 -0.80 0.57
-5.81 -0.73 0.68
-6.26 -0.75 0.60
-5.40 -0.62 0.76
-6.60 -0.63 0.54
-6.36 -0.59 0.58
-6.63 -0.59 0.53
-6.80 -0.58 0.50
-6.48 -0.54 0.56
-6.54 -0.52 0.55
-6.36 -0.45 0.58
-6.63 -0.45 0.53
-6.46 -0.42 0.56
-6.48 -0.40 0.56
-6.93 -0.40 0.47
-6.79 -0.37 0.50
-6.80 -0.35 0.50
-6.57 -0.30 0.54
-2.16 -0.14 1.37
-7.33 -0.28 0.40
-6.97 -0.25 0.47
-6.80 -0.22 0.50
-6.91 -0.20 0.48
-7.12 -0.18 0.44
-7.99 -0.10 0.27
-1.65 -0.02 1.46
-8.58 0.00 0.33
-8.39 0.02 0.36
-8.38 0.05 0.37
-8.11 0.07 0.42
-5.86 0.06 0.87
-5.37 0.07 0.96
-5.24 0.09 0.99
-4.98 0.10 1.04
-4.97 0.11 1.04
-5.01 0.13 1.03
-4.96 0.14 1.04
-4.76 0.15 1.08
-4.86 0.16 1.06
-4.89 0.18 1.06
-8.57 0.31 0.32
-8.87 0.35 0.26
-8.87 0.37 0.26
-6.47 0.29 0.74
-6.64 0.46 0.70
-6.43 0.46 0.74
-6.40 0.50 0.75
-6.52 0.52 0.72
-7.17 0.62 0.59
-7.54 0.67 0.52
-7.80 0.72 0.47
-7.24 0.69 0.58
-7.38 0.72 0.55
-7.40 0.74 0.54
-7.46 0.77 0.53
-7.47 0.79 0.53
-7.90 0.85 0.44
-7.44 0.82 0.53
-7.47 0.85 0.53
-7.26 0.84 0.57
-7.25 0.86 0.57
-7.52 0.91 0.52
-6.64 0.83 0.69
-7.91 1.00 0.44
-6.89 0.90 0.64
-6.41 0.86 0.74
-6.79 0.92 0.66
-6.40 0.89 0.74
-6.46 0.92 0.72
-7.71 1.10 0.47
-7.70 1.12 0.47
-7.48 1.11 0.52
-7.69 1.15 0.47
-6.43 1.00 0.73
-6.72 1.06 0.67
-5.24 0.87 0.96
-5.57 0.93 0.90
-5.47 0.93 0.92
-5.41 0.93 0.93
-5.40 0.95 0.93
-5.50 0.98 0.91
-5.57 1.00 0.90
-5.59 1.02 0.89
-5.44 1.01 0.92
-5.45 1.03 0.92
-5.63 1.08 0.88
-5.31 1.04 0.94
-7.35 -1.60 0.30
-7.17 -1.55 0.33
-5.87 -1.32 0.59
-6.82 -1.45 0.40
-7.12 -1.48 0.35
-6.70 -1.39 0.43
-6.60 -1.35 0.45
-6.53 -1.32 0.46
-6.42 -1.28 0.49
-6.53 -1.28 0.46
-6.52 -1.25 0.47
-6.47 -1.23 0.48
-6.42 -1.20 0.49
-6.50 -1.19 0.47
-6.98 -1.23 0.38
-6.76 -1.18 0.42
-6.73 -1.16 0.43
-7.48 -1.23 0.28
-6.59 -1.09 0.46
-6.41 -1.05 0.49
-6.97 -1.10 0.38
-7.29 -1.11 0.32
-6.77 -1.03 0.42
-6.67 -1.00 0.44
-6.54 -0.96 0.47
-6.45 -0.93 0.49
-7.61 -1.03 0.26
-6.95 -0.94 0.39
-7.19 -0.95 0.34
-6.98 -0.90 0.38
-5.83 -0.77 0.61
-6.47 -0.81 0.48
-6.52 -0.79 0.47
-4.80 -0.62 0.81
-5.84 -0.69 0.61
-5.83 -0.67 0.61
-5.83 -0.64 0.61
-5.89 -0.62 0.60
-6.40 -0.64 0.50
-6.38 -0.62 0.50
-4.65 -0.48 0.84
-6.47 -0.58 0.48
-6.43 -0.56 0.49
-6.23 -0.53 0.53
-5.02 -0.43 0.77
-4.80 -0.41 0.81
-6.29 -0.47 0.52
-6.32 -0.45 0.51
-6.68 -0.45 0.44
-6.56 -0.42 0.47
-6.67 -0.34 0.44
-7.49 -0.29 0.55
-7.25 -0.26 0.59
-7.40 -0.25 0.56
-7.53 -0.23 0.54
-7.59 -0.22 0.52
-7.74 -0.20 0.50
-7.84 -0.18 0.48
-7.84 -0.16 0.48
-7.63 -0.14 0.52
-5.90 -0.09 0.86
-8.02 -0.10 0.44
-8.03 -0.08 0.44
-8.26 -0.06 0.39
-8.60 -0.02 0.32
-2.53 0.18 1.22
-2.64 0.21 1.19
-8.32 0.65 0.29
-8.18 0.68 0.32
-7.92 0.68 0.37
-7.77 0.69 0.41
-7.69 0.70 0.42
-7.58 0.71 0.44
-7.46 0.72 0.47
-7.16 0.72 0.53
-7.13 0.73 0.54
-7.42 0.78 0.47
-7.12 0.77 0.54
-7.15 0.79 0.53
-7.16 0.81 0.53
-7.26 0.84 0.50
-6.82 0.81 0.60
-7.59 0.92 0.44
-8.02 0.98 0.35
-7.89 0.99 0.37
-8.08 1.03 0.33
-7.96 1.04 0.35
-7.69 1.03 0.41
-7.83 1.07 0.38
-5.16 0.75 0.94
-5.03 0.75 0.97
-3.11 0.51 1.37
-7.85 1.15 0.37
-6.13 0.96 0.73
-7.79 1.21 0.38
-6.40 1.03 0.67
-7.21 1.16 0.50
-5.53 0.93 0.86
-5.35 0.92 0.89
-5.33 0.93 0.90
-5.42 0.96 0.88
-5.29 0.96 0.90
-5.36 0.98 0.89
-5.62 1.04 0.83
-5.31 1.00 0.90
-7.03 1.40 0.53
-5.98 -1.37 0.50
-5.89 -1.34 0.52
-5.86 -1.31 0.53
-5.77 -1.28 0.55
-6.20 -1.33 0.46
-6.79 -1.40 0.34
-6.26 -1.30 0.45
-6.69 -1.34 0.36
-6.38 -1.27 0.43
-6.94 -1.33 0.31
-6.84 -1.30 0.33
-6.51 -1.23 0.40
-6.73 -1.24 0.36
-7.00 -1.25 0.30
-6.82 -1.21 0.34
-6.77 -1.18 0.35
-6.92 -1.18 0.32
-7.08 -1.18 0.28
-6.94 -1.12 0.31
-7.27 -1.13 0.25
-7.29 -1.11 0.24
-6.62 -1.01 0.38
-7.05 -1.04 0.29
-6.72 -0.98 0.36
-6.49 -0.94 0.41
-6.47 -0.91 0.41
-6.71 -0.92 0.36
-6.76 -0.90 0.35
-6.01 -0.75 0.51
-6.13 -0.62 0.48
-6.14 -0.52 0.48
-6.49 -0.50 0.41
-6.27 -0.47 0.45
-6.60 -0.47 0.39
-6.40 -0.44 0.43
-6.49 -0.42 0.41
-6.38 -0.39 0.43
-1.55 -0.16 1.42
-1.55 -0.15 1.42
-1.65 -0.15 1.40
-7.01 -0.34 0.30
-1.81 -0.14 1.37
-1.64 -0.12 1.40
-7.10 -0.27 0.28
-6.87 -0.24 0.33
-1.52 -0.09 1.43
-1.74 -0.08 1.38
-7.14 -0.16 0.27
-7.18 -0.14 0.27
-7.88 0.04 0.31
-7.90 0.06 0.31
-5.30 0.07 0.87
-4.90 0.08 0.95
-4.83 0.09 0.97
-4.72 0.12 0.99
-4.75 0.13 0.99
-4.57 0.14 1.02
-4.39 0.16 1.06
-6.28 0.29 0.65
-4.64 0.25 1.01
-3.75 0.25 1.20
-4.14 0.29 1.11
-3.82 0.28 1.18
-3.97 0.30 1.15
-8.01 0.63 0.27
-4.13 0.36 1.11
-3.78 0.36 1.19
-7.52 0.67 0.37
-7.48 0.69 0.38
-7.12 0.70 0.46
-4.46 0.47 1.04
-4.17 0.46 1.10
-4.20 0.49 1.10
-4.39 0.52 1.05
-5.11 0.60 0.90
-7.56 0.89 0.36
-7.59 0.92 0.35
-7.56 0.94 0.36
-4.22 0.58 1.09
-7.66 1.01 0.33
-5.68 0.79 0.77
-4.96 0.73 0.92
-6.14 0.91 0.66
-5.90 0.91 0.71
-6.40 1.00 0.60
-5.76 0.92 0.74
-6.43 1.05 0.60
-5.70 0.96 0.75
-6.20 1.05 0.64
-5.63 1.00 0.77
-5.70 1.03 0.75
-5.38 0.99 0.82
-5.67 1.07 0.75
-5.59 1.07 0.77
-5.29 1.04 0.84
-6.96 1.36 0.47
-6.66 1.32 0.53
-6.72 1.35 0.52
-5.98 1.25 0.68
-6.33 1.33 0.60
-5.99 1.29 0.68
-5.81 1.29 0.72
-5.78 1.30 0.72
-3.43 0.84 1.24
-5.93 -1.37 0.43
-2.23 -0.73 1.23
-2.27 -0.73 1.23
-2.22 -0.71 1.24
-2.72 -0.78 1.13
-2.20 -0.69 1.24
-5.66 -1.21 0.49
-2.26 -0.67 1.23
-1.90 -0.61 1.31
-6.31 -1.25 0.36
-6.76 -1.27 0.26
-6.80 -1.23 0.25
-6.65 -1.15 0.28
-6.66 -1.13 0.28
-6.85 -1.13 0.24
-6.79 -1.08 0.26
-6.71 -1.05 0.27
-6.61 -1.02 0.29
-6.58 -0.99 0.30
-6.47 -0.96 0.33
-6.21 -0.91 0.38
-6.38 -0.91 0.35
-6.30 -0.88 0.36
-6.49 -0.88 0.32
-6.27 -0.83 0.37
-6.50 -0.84 0.32
-6.12 -0.78 0.40
-6.02 -0.75 0.42
-6.00 -0.73 0.43
-6.14 -0.72 0.40
-6.16 -0.70 0.39
-5.94 -0.67 0.44
-2.90 -0.41 1.09
-5.70 -0.61 0.49
-5.37 -0.57 0.56
-2.86 -0.37 1.10
-4.96 -0.50 0.65
-5.73 -0.54 0.49
-4.96 -0.47 0.65
-5.92 -0.51 0.44
-4.75 -0.42 0.70
-4.87 -0.41 0.67
-5.35 -0.33 0.86
-7.14 -0.41 0.48
-7.30 -0.40 0.44
-7.43 -0.37 0.41
-7.58 -0.35 0.38
-7.78 -0.34 0.34
-7.56 -0.29 0.38
-7.40 -0.27 0.42
-7.46 -0.25 0.40
-7.58 -0.22 0.38
-7.69 -0.18 0.36
-7.69 -0.14 0.35
-7.79 -0.12 0.33
-7.91 -0.10 0.31
-5.19 -0.04 0.89
-8.03 -0.02 0.28
-3.49 0.02 0.91
-6.65 0.44 0.50
-6.43 0.44 0.55
-6.52 0.47 0.53
-3.55 0.31 1.20
-7.54 0.61 0.29
-3.70 0.34 1.17
-3.58 0.34 1.19
-3.69 0.36 1.17
-7.07 0.65 0.40
-3.45 0.36 1.22
-3.72 0.39 1.16
-7.06 0.71 0.40
-3.57 0.40 1.19
-4.13 0.47 1.06
-3.80 0.45 1.14
-6.85 0.76 0.44
-3.57 0.44 1.19
-6.98 0.81 0.41
-3.95 0.51 1.10
-3.91 0.51 1.11
-7.15 0.89 0.37
-4.95 0.65 0.87
-4.11 0.57 1.06
-4.21 0.59 1.04
-6.84 0.93 0.44
-4.19 0.61 1.05
-4.36 0.65 1.01
-6.95 0.99 0.41
-4.62 0.71 0.94
-6.62 0.99 0.49
-4.92 0.77 0.88
-4.24 0.69 1.03
-6.45 1.02 0.52
-6.17 1.00 0.59
-6.12 1.00 0.60
-5.48 0.93 0.74
-5.42 0.93 0.76
-5.32 0.93 0.78
-5.54 0.98 0.73
-5.51 0.99 0.73
-5.43 0.99 0.75
-5.48 1.02 0.74
-5.41 1.02 0.75
-5.63 1.07 0.70
-5.67 1.10 0.69
-5.86 1.14 0.65
-6.28 1.24 0.55
-6.07 1.22 0.60
-6.55 1.32 0.48
-6.79 1.38 0.43
-6.46 1.36 0.50
-6.19 1.32 0.56
-6.74 1.44 0.44
-5.72 1.27 0.67
-5.88 1.31 0.63
-5.78 1.31 0.66
-6.07 -1.41 0.32
-5.80 -1.34 0.39
-2.21 -0.73 1.20
-5.91 -1.32 0.36
-5.79 -1.28 0.39
-5.74 -1.26 0.40
-5.75 -1.24 0.40
-5.71 -1.21 0.41
-2.18 -0.63 1.21
-6.34 -0.86 0.27
-6.03 -0.81 0.34
-4.83 -0.64 0.61
-4.68 -0.61 0.65
-2.79 -0.43 1.07
-4.79 -0.59 0.62
-2.90 -0.42 1.05
-2.87 -0.40 1.05
-5.39 -0.58 0.49
-4.96 -0.53 0.58
-4.84 -0.51 0.61
-4.76 -0.49 0.63
-4.87 -0.48 0.60
-1.21 -0.22 1.43
-1.21 -0.21 1.43
-1.97 -0.25 1.25
-1.19 -0.20 1.43
-1.66 -0.21 1.32
-1.50 -0.20 1.36
-1.47 -0.19 1.37
-1.42 -0.18 1.38
-1.64 -0.18 1.33
-1.76 -0.17 1.30
-4.16 -0.26 0.76
-1.82 -0.16 1.29
-4.30 -0.24 0.73
-1.64 -0.13 1.33
-1.78 -0.13 1.30
-1.59 -0.11 1.34
-1.62 -0.10 1.33
-1.59 -0.09 1.34
-3.97 -0.14 0.80
-3.63 -0.12 0.88
-5.26 0.09 0.76
-4.78 0.11 0.87
-4.74 0.12 0.88
-4.63 0.14 0.91
-6.51 0.43 0.46
-6.54 0.47 0.45
-6.59 0.51 0.44
-7.11 0.64 0.31
-7.11 0.66 0.31
-6.95 0.72 0.35
-7.03 0.74 0.33
-6.79 0.74 0.39
-6.70 0.75 0.41
-6.64 0.76 0.42
-6.74 0.79 0.39
-6.73 0.80 0.40
-6.67 0.82 0.41
-6.82 0.85 0.37
-6.92 0.88 0.35
-6.86 0.89 0.36
-6.96 0.92 0.34
-7.01 0.95 0.33
-7.18 0.99 0.28
-6.94 0.97 0.34
-7.04 1.01 0.32
-6.57 0.96 0.43
-6.14 0.92 0.53
-6.38 0.97 0.47
-6.53 1.01 0.43
-6.14 0.97 0.53
-5.56 0.91 0.67
-5.87 0.97 0.59
-5.44 0.92 0.69
-5.42 0.93 0.70
-6.24 1.07 0.50
-6.09 1.07 0.53
-6.26 1.11 0.49
-5.82 1.06 0.60
-5.84 1.08 0.59
-5.84 1.09 0.59
-6.17 1.17 0.51
-6.13 1.18 0.52
-6.00 1.17 0.55
-6.21 1.22 0.50
-6.51 1.29 0.43
-6.48 1.31 0.43
-6.28 1.29 0.48
-6.31 1.31 0.47
-5.71 -1.35 0.33
-5.76 -1.34 0.32
-5.81 -1.33 0.31
-5.73 -1.29 0.33
-5.69 -1.19 0.34
-5.40 -1.13 0.41
-5.53 -1.13 0.38
-5.70 -1.12 0.34
-3.05 -0.70 0.96
-3.18 -0.71 0.93
-3.05 -0.68 0.96
-3.03 -0.66 0.97
-3.10 -0.66 0.95
-3.15 -0.65 0.94
-3.03 -0.63 0.97
-3.05 -0.62 0.96
-3.03 -0.60 0.97
-3.05 -0.59 0.96
-3.08 -0.58 0.95
-2.85 -0.55 1.01
-3.19 -0.57 0.93
-2.82 -0.52 1.02
-2.53 -0.48 1.08
-2.91 -0.44 0.99
-4.94 -0.58 0.52
-4.98 -0.52 0.51
-4.77 -0.41 0.56
-5.74 -0.44 0.33
-5.10 -0.39 0.48
-4.72 -0.32 0.57
-4.58 -0.30 0.60
-4.40 -0.27 0.65
-4.52 -0.26 0.62
-4.36 -0.24 0.66
-4.63 -0.23 0.59
-4.74 -0.22 0.57
-4.04 -0.19 0.73
-4.18 -0.17 0.70
-4.18 -0.16 0.70
-3.99 -0.14 0.74
-3.93 -0.12 0.76
-1.69 -0.44 0.59
-1.02 -0.82 0.58
-1.56 -0.90 0.53
-0.84 -0.90 0.53
-1.24 -0.94 0.51
-3.64 0.37 0.43
-2.28 -0.59 0.44
-1.79 0.87 0.41
-2.01 -0.84 0.40
-2.45 0.75 0.32
-1.68 -0.28 0.40
-2.40 0.65 0.29
-2.35 -0.69 0.30
-2.33 0.89 0.24
-1.79 0.73 0.32
-1.77 -0.72 0.33
-2.40 0.72 0.22
-1.42 0.89 0.32
-1.82 -0.85 0.29
-1.63 0.88 0.27
-0.71 -0.89 0.32
-0.84 -0.88 0.32
-1.44 -0.82 0.32
-1.90 0.68 0.25
-1.98 0.81 0.22
-1.55 0.89 0.27
-0.80 -0.89 0.29
-0.85 -0.87 0.28
-1.01 -0.82 0.30
-0.89 -0.87 0.27
-1.19 -0.96 0.25
-1.50 -0.79 0.27
-0.89 -0.87 0.26
-1.54 0.87 0.20
-0.72 -0.87 0.23
-0.85 -0.87 0.24
-0.92 -0.90 0.24
-1.01 -0.83 0.26
-1.15 -0.86 0.25
-1.43 -0.81 0.24
-0.93 -0.86 0.24
-0.96 -0.87 0.23
-1.22 -0.82 0.24
-1.45 -0.77 0.23
-1.34 0.73 0.22
-0.98 -0.80 0.23
-1.08 -0.85 0.20
-1.01 -0.79 0.21
