# .PCD v0.7 - Point Cloud Data file format
VERSION 0.7
FIELDS x y z
SIZE 4 4 4
TYPE F F F
COUNT 1 1 1
WIDTH 1550
HEIGHT 1
VIEWPOINT 0 0 0 1 0 0 0
POINTS 1550
DATA ASCII
-3.23 -0.52 2.24
-9.24 0.70 2.09
-14.93 0.05 1.06
-6.51 -0.84 1.57
-6.23 -0.77 1.59
-6.13 -0.74 1.60
-6.00 -0.71 1.61
-6.27 -0.69 1.59
-6.22 -0.63 1.59
-6.11 -0.60 1.60
-8.29 0.33 1.43
-5.66 -0.87 1.54
-5.39 -0.82 1.57
-5.83 -0.85 1.53
-5.81 -0.83 1.53
-5.88 -0.80 1.53
-6.01 -0.79 1.52
-6.15 -0.78 1.50
-6.16 -0.77 1.50
-5.86 -0.72 1.53
-6.14 -0.73 1.51
-6.24 -0.72 1.50
-6.07 -0.68 1.51
-5.94 -0.65 1.52
-5.93 -0.61 1.52
-6.15 -0.61 1.51
-5.83 -0.55 1.53
-6.08 -0.72 1.47
-6.13 -0.70 1.46
-5.70 -0.55 1.50
-8.49 0.03 1.32
-8.80 0.14 1.29
-8.19 0.35 1.34
-8.43 0.40 1.32
-8.36 0.42 1.32
-10.16 1.10 1.15
-10.36 1.15 1.13
-6.01 -0.83 1.42
-5.95 -0.79 1.43
-6.03 -0.75 1.42
-6.20 -0.75 1.40
-6.04 -0.72 1.42
-5.71 -0.67 1.45
-5.95 -0.67 1.43
-5.96 -0.65 1.43
-5.89 -0.61 1.43
-7.75 0.08 1.20
-7.77 0.12 1.20
-7.28 0.18 1.24
-7.53 0.21 1.22
-8.36 0.24 1.27
-8.31 0.39 1.27
-8.57 0.43 1.25
-8.29 0.43 1.28
-8.22 0.45 1.28
-8.56 0.56 1.25
-8.51 0.60 1.25
-9.85 1.02 1.11
-10.10 1.07 1.09
-10.08 1.09 1.09
-10.11 1.12 1.08
-10.33 1.17 1.06
-10.38 1.23 1.06
-10.42 1.26 1.05
-10.44 1.32 1.05
-10.31 1.35 1.06
-6.20 -0.87 1.35
-6.01 -0.71 1.37
-6.00 -0.69 1.37
-6.03 -0.68 1.37
-6.10 -0.66 1.37
-5.71 -0.56 1.40
-5.42 -0.52 1.43
-5.81 -0.49 1.39
-11.12 -0.75 0.86
-11.39 -0.73 0.84
-11.07 -0.62 0.87
-15.01 -0.07 0.48
-15.04 -0.03 0.47
-15.60 0.05 0.45
-8.36 0.05 1.21
-8.34 0.09 1.22
-8.71 0.12 1.18
-8.11 0.17 1.24
-7.90 0.19 1.26
-7.97 0.21 1.25
-8.06 0.24 1.24
-8.35 0.26 1.21
-8.44 0.29 1.20
-8.22 0.30 1.23
-8.14 0.32 1.23
-8.19 0.35 1.23
-7.92 0.36 1.26
-7.89 0.37 1.26
-7.78 0.39 1.27
-7.88 0.42 1.26
-7.98 0.44 1.25
-8.44 0.51 1.20
-8.62 0.56 1.18
-8.35 0.57 1.21
-4.70 0.35 1.60
-8.50 0.62 1.19
-8.79 0.73 1.16
-8.73 0.75 1.16
-9.17 0.83 1.12
-9.36 0.87 1.10
-5.83 -0.68 1.34
-5.82 -0.66 1.34
-5.53 -0.62 1.37
-5.76 -0.62 1.35
-5.63 -0.59 1.36
-5.57 -0.57 1.37
-5.39 -0.54 1.39
-5.40 -0.50 1.39
-5.46 -0.47 1.38
-4.80 -0.35 1.45
-4.72 -0.32 1.46
-5.23 -0.33 1.40
-4.81 -0.30 1.45
-4.49 -0.27 1.48
-4.50 -0.25 1.48
-7.41 0.39 1.10
-8.04 0.63 1.18
-10.39 1.31 0.91
-10.69 -0.57 0.74
-10.69 -0.54 0.74
-14.34 -0.42 0.33
-8.14 -0.02 1.02
-15.27 0.16 0.27
-7.57 0.22 1.18
-7.82 0.27 1.15
-8.03 0.36 1.13
-7.74 0.37 1.16
-8.05 0.40 1.12
-7.90 0.52 1.14
-10.49 1.40 0.82
-5.34 -0.43 1.29
-14.69 -0.21 0.34
-14.72 -0.18 0.33
-14.69 -0.14 0.34
-14.77 -0.07 0.33
-14.82 -0.03 0.32
-7.89 0.03 0.92
-8.60 0.05 1.00
-7.60 0.22 1.12
-7.49 0.24 1.14
-7.68 0.26 1.11
-7.78 0.29 1.10
-7.47 0.30 1.14
-8.16 0.34 1.05
-7.82 0.35 1.09
-7.89 0.37 1.09
-7.82 0.39 1.09
-7.69 0.41 1.11
-7.77 0.43 1.10
-8.03 0.46 1.07
-7.70 0.47 1.11
-7.86 0.49 1.09
-7.65 0.52 1.11
-8.08 0.57 1.06
-7.98 0.59 1.07
-8.08 0.61 1.06
-8.38 0.66 1.02
-7.92 0.64 1.08
-8.66 0.83 0.98
-9.32 0.96 0.89
-9.10 0.97 0.92
-9.49 1.03 0.87
-9.44 1.05 0.88
-9.62 1.09 0.85
-10.27 1.27 0.77
-10.32 1.30 0.76
-10.73 1.38 0.71
-10.85 1.42 0.69
-10.68 1.43 0.71
-10.88 1.48 0.69
-10.70 1.48 0.71
-2.75 -0.76 1.57
-6.83 -1.13 1.05
-5.50 -0.56 1.22
-5.69 -0.56 1.19
-5.37 -0.52 1.24
-5.48 -0.50 1.22
-5.36 -0.48 1.24
-5.25 -0.45 1.25
-5.09 -0.43 1.27
-5.19 -0.42 1.26
-5.26 -0.40 1.25
-5.12 -0.38 1.27
-4.94 -0.35 1.29
-5.07 -0.34 1.27
-5.19 -0.33 1.26
-4.92 -0.30 1.29
-4.80 -0.28 1.31
-4.47 -0.23 1.35
-4.69 -0.21 1.32
-4.51 -0.17 1.34
-4.06 -0.12 1.40
-6.73 -0.10 1.06
-7.01 -0.06 1.03
-6.81 -0.04 1.05
-8.95 0.00 0.89
-8.82 0.03 0.90
-8.72 0.05 0.92
-8.65 0.07 0.93
-8.69 0.09 0.92
-8.62 0.11 0.93
-8.39 0.13 0.96
-8.53 0.16 0.94
-8.50 0.18 0.94
-8.17 0.19 0.99
-8.35 0.22 0.96
-8.40 0.24 0.96
-7.77 0.25 1.04
-8.23 0.28 0.98
-8.14 0.30 0.99
-8.19 0.32 0.98
-7.82 0.33 1.03
-7.69 0.34 1.05
-7.86 0.37 1.03
-8.38 0.42 0.96
-7.94 0.42 1.01
-7.83 0.43 1.03
-7.85 0.45 1.03
-7.74 0.47 1.04
-7.74 0.49 1.04
-7.91 0.52 1.02
-7.81 0.53 1.03
-7.97 0.56 1.01
-8.28 0.61 0.97
-8.47 0.64 0.94
-8.25 0.65 0.97
-8.23 0.67 0.97
-7.82 0.66 1.03
-8.84 0.76 0.89
-8.15 0.75 0.98
-9.00 0.84 0.87
-8.93 0.86 0.87
-9.09 0.90 0.85
-8.95 0.91 0.87
-8.66 0.90 0.91
-8.82 0.94 0.89
-9.42 1.02 0.81
-9.33 1.04 0.82
-9.69 1.10 0.77
-9.75 1.13 0.76
-9.91 1.18 0.74
-10.02 1.21 0.72
-10.49 1.29 0.66
-10.44 1.31 0.66
-10.49 1.35 0.66
-10.71 1.40 0.63
-10.75 1.43 0.62
-10.70 1.46 0.63
-10.70 1.57 0.62
-6.73 -1.20 1.00
-6.72 -1.18 1.00
-6.77 -1.17 0.99
-7.01 -1.04 0.96
-6.69 -0.90 1.00
-6.91 -0.88 0.97
-6.97 -0.87 0.97
-6.37 -0.73 1.05
-5.86 -0.66 1.11
-5.83 -0.62 1.12
-5.63 -0.59 1.15
-5.67 -0.57 1.14
-5.56 -0.53 1.15
-5.39 -0.50 1.18
-5.64 -0.50 1.14
-5.18 -0.43 1.21
-5.09 -0.39 1.22
-4.92 -0.35 1.24
-5.16 -0.35 1.21
-4.98 -0.32 1.23
-5.28 -0.30 1.19
-10.27 -0.44 0.53
-4.73 -0.20 1.27
-8.96 -0.04 0.88
-8.96 -0.02 0.88
-8.44 0.03 0.69
-7.13 0.11 0.88
-8.00 0.15 0.75
-8.25 0.18 0.72
-8.11 0.22 0.74
-8.19 0.25 0.73
-7.76 0.23 0.98
-8.07 0.25 0.94
-7.63 0.26 1.00
-7.92 0.29 0.96
-7.87 0.31 0.96
-7.85 0.33 0.97
-7.79 0.35 0.97
-7.82 0.37 0.97
-7.92 0.39 0.96
-8.20 0.43 0.92
-8.13 0.45 0.93
-7.85 0.45 0.96
-8.00 0.48 0.94
-8.14 0.51 0.92
-7.99 0.52 0.94
-7.78 0.53 0.97
-8.60 0.60 0.86
-8.62 0.63 0.85
-8.19 0.62 0.91
-7.86 0.62 0.96
-7.90 0.64 0.95
-7.82 0.66 0.96
-9.26 0.79 0.76
-9.32 0.82 0.75
-8.83 0.85 0.82
-8.53 0.84 0.86
-9.04 0.94 0.79
-8.89 0.95 0.81
-9.58 1.04 0.71
-9.60 1.06 0.71
-10.14 1.17 0.63
-10.04 1.19 0.64
-10.28 1.24 0.61
-10.41 1.28 0.59
-10.41 1.31 0.59
-10.49 1.35 0.58
-11.13 1.45 0.48
-11.21 1.49 0.47
-10.95 1.49 0.51
-10.58 1.47 0.56
-10.89 1.54 0.51
-10.91 1.57 0.51
-10.79 1.58 0.53
-10.97 1.69 0.50
-2.88 -0.83 1.48
-3.02 -0.84 1.46
-2.95 -0.81 1.47
-6.66 -1.21 0.94
-6.96 -1.24 0.90
-6.84 -1.09 0.92
-7.09 -1.10 0.88
-6.82 -1.04 0.92
-6.66 -1.00 0.94
-6.84 -1.00 0.92
-6.78 -0.97 0.93
-7.00 -0.98 0.90
-7.03 -0.96 0.89
-6.41 -0.83 0.98
-6.41 -0.81 0.98
-6.09 -0.76 1.03
-6.45 -0.77 0.97
-6.08 -0.72 1.03
-6.17 -0.71 1.01
-5.96 -0.67 1.04
-5.94 -0.65 1.05
-5.77 -0.62 1.07
-5.86 -0.61 1.06
-5.73 -0.58 1.08
-5.85 -0.57 1.06
-5.47 -0.52 1.11
-5.48 -0.51 1.11
-5.64 -0.50 1.09
-5.47 -0.47 1.11
-5.43 -0.45 1.12
-5.16 -0.41 1.16
-4.77 -0.38 1.21
-4.93 -0.37 1.19
-4.92 -0.35 1.19
-4.85 -0.33 1.20
-4.82 -0.31 1.20
-4.89 -0.30 1.19
-5.01 -0.29 1.18
-5.22 -0.28 1.15
-4.94 -0.25 1.19
-4.99 -0.24 1.18
-4.85 -0.21 1.20
-4.88 -0.20 1.19
-4.81 -0.18 1.20
-4.75 -0.16 1.21
-4.69 -0.14 1.22
-4.77 -0.13 1.21
-4.60 -0.11 1.23
-4.52 -0.09 1.24
-4.63 -0.08 1.23
-8.76 0.00 0.77
-8.98 0.03 0.73
-8.74 0.05 0.77
-8.74 0.07 0.77
-9.00 0.10 0.73
-7.71 0.10 0.92
-7.61 0.12 0.94
-8.43 0.16 0.81
-7.45 0.16 0.96
-7.46 0.20 0.96
-7.59 0.22 0.94
-7.83 0.25 0.90
-8.19 0.30 0.85
-8.25 0.34 0.84
-7.93 0.37 0.89
-8.00 0.40 0.88
-7.40 0.39 0.96
-7.39 0.43 0.96
-7.94 0.50 0.88
-4.80 0.35 1.35
-7.41 0.53 0.96
-7.52 0.55 0.94
-5.53 0.45 1.24
-7.62 0.64 0.93
-9.05 0.80 0.71
-8.48 0.82 0.80
-9.08 0.94 0.70
-9.76 1.08 0.60
-10.13 1.20 0.54
-10.49 1.29 0.49
-10.62 1.36 0.47
-10.61 1.39 0.47
-10.89 1.45 0.43
-6.72 -1.29 0.86
-6.68 -1.26 0.87
-2.60 -0.60 1.48
-2.66 -0.60 1.47
-7.03 -1.11 0.82
-2.92 -0.61 1.43
-2.82 -0.58 1.45
-2.66 -0.55 1.47
-7.19 -1.04 0.80
-6.98 -1.00 0.83
-6.82 -0.96 0.85
-7.02 -0.96 0.82
-6.65 -0.90 0.88
-6.79 -0.89 0.86
-6.53 -0.85 0.89
-6.40 -0.81 0.91
-6.73 -0.82 0.87
-6.49 -0.78 0.90
-6.23 -0.74 0.94
-6.17 -0.71 0.95
-6.11 -0.69 0.96
-6.36 -0.69 0.92
-6.11 -0.65 0.96
-5.75 -0.60 1.01
-5.90 -0.59 0.99
-9.56 -0.83 0.45
-4.96 -0.49 1.13
-4.75 -0.46 1.16
-4.79 -0.45 1.16
-5.10 -0.45 1.11
-4.68 -0.41 1.17
-4.75 -0.39 1.16
-4.45 -0.36 1.21
-4.95 -0.37 1.13
-4.50 -0.33 1.20
-4.62 -0.32 1.18
-10.34 -0.56 0.33
-10.41 -0.54 0.32
-9.59 -0.17 0.65
-8.97 -0.09 0.74
-4.71 0.05 1.11
-7.70 0.09 0.65
-7.92 0.14 0.62
-8.15 0.17 0.58
-7.53 0.18 0.68
-8.11 0.29 0.58
-7.98 0.31 0.60
-7.55 0.32 0.67
-7.59 0.35 0.66
-8.04 0.39 0.59
-8.33 0.41 0.76
-7.75 0.41 0.85
-7.71 0.44 0.86
-7.83 0.47 0.84
-8.23 0.51 0.78
-8.21 0.53 0.78
-8.43 0.57 0.74
-8.87 0.62 0.68
-9.09 0.66 0.64
-9.08 0.70 0.64
-9.29 0.74 0.61
-9.11 0.75 0.64
-8.36 0.76 0.75
-9.06 0.84 0.64
-9.53 0.96 0.57
-9.44 0.97 0.58
-9.35 0.99 0.59
-10.10 1.11 0.47
-9.94 1.12 0.50
-9.91 1.17 0.50
-10.02 1.21 0.48
-10.56 1.30 0.40
-11.45 1.43 0.26
-11.27 1.44 0.28
-11.31 1.47 0.28
-11.30 1.50 0.28
-11.68 1.61 0.22
-11.22 1.58 0.29
-11.33 1.62 0.27
-6.75 -1.18 0.80
-6.73 -1.16 0.80
-7.00 -1.17 0.76
-6.72 -1.12 0.80
-7.37 -1.18 0.70
-7.09 -1.12 0.74
-7.40 -1.13 0.70
-7.17 -1.08 0.73
-7.01 -1.04 0.76
-7.10 -1.03 0.74
-7.17 -1.02 0.73
-7.19 -1.00 0.73
-7.36 -0.99 0.70
-7.31 -0.96 0.71
-7.24 -0.94 0.72
-7.19 -0.91 0.73
-7.26 -0.89 0.72
-7.39 -0.88 0.70
-6.84 -0.81 0.79
-6.29 -0.74 0.87
-6.20 -0.71 0.89
-6.26 -0.70 0.88
-5.85 -0.63 0.94
-9.40 -0.82 0.39
-9.40 -0.79 0.39
-9.50 -0.77 0.37
-9.39 -0.74 0.39
-9.56 -0.72 0.36
-4.87 -0.42 1.09
-9.71 -0.67 0.34
-9.62 -0.64 0.35
-9.65 -0.61 0.35
-5.08 -0.36 1.06
-9.98 -0.54 0.30
-10.16 -0.52 0.27
-9.89 -0.45 0.31
-9.78 -0.34 0.33
-5.08 -0.17 1.06
-5.02 -0.13 1.07
-4.80 -0.08 1.10
-5.21 0.00 1.20
-8.93 0.02 0.59
-8.90 0.05 0.60
-8.80 0.07 0.61
-9.05 0.09 0.57
-9.02 0.12 0.58
-7.70 0.12 0.79
-9.15 0.17 0.56
-9.34 0.19 0.53
-8.94 0.21 0.59
-7.23 0.19 0.87
-8.12 0.23 0.72
-8.96 0.28 0.59
-5.15 0.18 1.21
-8.35 0.30 0.69
-8.36 0.33 0.68
-8.29 0.35 0.69
-8.51 0.38 0.66
-8.61 0.40 0.64
-8.88 0.44 0.60
-8.51 0.44 0.66
-7.15 0.40 0.88
-7.33 0.43 0.85
-8.61 0.51 0.64
-8.35 0.52 0.68
-8.30 0.54 0.69
-8.57 0.58 0.64
-8.87 0.62 0.59
-8.72 0.63 0.62
-9.15 0.69 0.55
-9.00 0.70 0.57
-8.97 0.72 0.58
-9.03 0.75 0.57
-9.10 0.78 0.55
-8.88 0.78 0.59
-8.82 0.80 0.60
-9.15 0.85 0.54
-9.09 0.87 0.55
-9.52 0.93 0.48
-9.74 0.98 0.44
-9.45 0.98 0.49
-9.28 1.01 0.52
-10.19 1.21 0.37
-9.83 1.19 0.42
-10.85 1.33 0.26
-11.00 1.49 0.23
-6.48 -1.34 0.76
-6.81 -1.35 0.71
-6.82 -1.33 0.71
-6.63 -1.28 0.74
-6.48 -1.24 0.76
-6.45 -1.21 0.77
-6.76 -1.23 0.72
-6.75 -1.21 0.72
-6.35 -1.14 0.79
-3.03 -0.68 1.33
-6.78 -1.15 0.72
-6.96 -1.15 0.69
-6.87 -1.12 0.70
-6.98 -1.11 0.69
-7.18 -1.11 0.65
-6.61 -1.02 0.75
-6.54 -0.99 0.76
-7.14 -1.04 0.66
-7.01 -1.00 0.68
-6.96 -0.98 0.69
-7.16 -0.97 0.66
-6.76 -0.91 0.72
-7.00 -0.91 0.68
-7.40 -0.93 0.62
-7.74 -0.94 0.56
-6.97 -0.85 0.69
-6.67 -0.80 0.74
-6.60 -0.77 0.75
-6.35 -0.73 0.79
-6.44 -0.72 0.78
-6.37 -0.69 0.79
-6.15 -0.65 0.83
-5.79 -0.61 0.88
-5.85 -0.59 0.87
-5.96 -0.58 0.86
-5.65 -0.54 0.91
-9.25 -0.76 0.32
-5.84 -0.51 0.88
-5.58 -0.48 0.92
-9.58 -0.70 0.26
-9.56 -0.67 0.27
-5.63 -0.35 1.14
-5.57 -0.33 1.15
-5.59 -0.32 1.14
-5.20 -0.28 1.21
-5.46 -0.28 1.16
-10.76 -0.49 0.30
-10.58 -0.40 0.33
-5.35 -0.19 1.18
-5.14 -0.15 1.22
-5.42 -0.15 1.17
-9.82 -0.22 0.45
-9.29 -0.19 0.54
-10.13 -0.13 0.40
-5.23 -0.06 1.20
-5.26 -0.03 1.19
-7.34 -0.02 0.85
-5.94 -0.00 0.79
-6.07 0.02 0.77
-6.16 0.04 0.75
-5.08 0.04 1.18
-7.54 0.08 0.76
-8.91 0.12 0.52
-8.94 0.14 0.51
-8.91 0.16 0.52
-7.45 0.16 0.77
-8.79 0.20 0.54
-9.11 0.24 0.48
-8.91 0.25 0.52
-8.55 0.27 0.58
-8.27 0.28 0.63
-8.06 0.29 0.66
-8.26 0.32 0.63
-8.39 0.35 0.61
-8.50 0.37 0.59
-8.52 0.40 0.58
-8.54 0.42 0.58
-8.38 0.43 0.61
-8.75 0.48 0.54
-8.53 0.49 0.58
-8.47 0.51 0.59
-8.18 0.51 0.64
-8.22 0.53 0.63
-8.12 0.55 0.65
-7.91 0.56 0.68
-8.04 0.59 0.66
-8.28 0.62 0.62
-8.11 0.63 0.65
-8.55 0.69 0.57
-8.68 0.72 0.55
-9.19 0.78 0.46
-8.65 0.76 0.55
-9.01 0.81 0.49
-8.86 0.83 0.51
-9.13 0.87 0.47
-8.98 0.88 0.49
-9.19 0.93 0.46
-9.25 0.96 0.44
-9.28 0.98 0.44
-9.44 1.02 0.41
-9.51 1.05 0.40
-9.15 1.04 0.46
-9.97 1.15 0.32
-9.99 1.18 0.31
-10.34 1.25 0.25
-10.55 1.30 0.21
-10.62 1.33 0.20
-5.68 0.86 1.06
-2.73 -0.76 1.34
-6.58 -1.33 0.68
-6.13 -1.20 0.76
-6.59 -1.25 0.68
-6.59 -1.23 0.68
-7.03 -1.25 0.60
-6.56 -1.16 0.68
-4.08 -0.79 1.11
-6.98 -1.11 0.61
-4.41 -0.77 1.06
-4.06 -0.70 1.12
-4.19 -0.69 1.09
-4.40 -0.70 1.06
-3.40 -0.57 1.23
-3.82 -0.58 1.16
-3.47 -0.54 1.22
-3.67 -0.54 1.18
-3.77 -0.54 1.17
-4.06 -0.55 1.12
-3.79 -0.49 1.16
-3.77 -0.46 1.17
-5.97 -0.62 0.79
-5.94 -0.60 0.79
-5.59 -0.55 0.85
-2.36 -0.31 1.41
-5.39 -0.48 0.89
-5.13 -0.43 0.93
-5.14 -0.42 0.93
-4.88 -0.38 0.98
-4.73 -0.36 1.00
-4.39 -0.33 1.06
-4.63 -0.31 1.02
-4.43 -0.27 1.05
-4.67 -0.26 1.01
-4.57 -0.24 1.03
-4.65 -0.23 1.02
-4.42 -0.20 1.06
-4.51 -0.18 1.04
-4.40 -0.14 1.06
-4.59 -0.13 1.03
-8.66 -0.18 0.33
-4.88 -0.10 0.98
-5.62 -0.09 0.85
-6.14 -0.06 0.76
-6.28 -0.02 0.73
-5.38 0.00 1.08
-5.32 0.01 1.09
-5.31 0.03 1.09
-5.27 0.04 1.10
-5.24 0.06 1.10
-5.50 0.07 1.05
-8.80 0.14 0.46
-7.04 0.13 0.78
-5.20 0.11 1.11
-5.18 0.13 1.11
-5.01 0.14 1.14
-5.11 0.15 1.12
-7.53 0.24 0.69
-7.72 0.26 0.65
-7.61 0.28 0.67
-8.11 0.32 0.58
-8.17 0.34 0.57
-5.04 0.23 1.13
-4.88 0.24 1.16
-8.29 0.41 0.55
-8.68 0.45 0.48
-5.08 0.29 1.13
-4.73 0.29 1.19
-7.63 0.46 0.66
-8.09 0.51 0.58
-8.33 0.54 0.54
-8.52 0.57 0.50
-4.15 0.32 1.29
-7.68 0.56 0.65
-7.87 0.60 0.62
-8.04 0.63 0.59
-8.17 0.66 0.56
-5.99 0.51 0.96
-5.51 0.49 1.04
-9.34 0.82 0.35
-5.45 0.52 1.05
-9.11 0.85 0.39
-5.76 0.58 1.00
-9.47 0.93 0.32
-9.21 0.93 0.37
-5.62 0.61 1.02
-5.76 0.64 1.00
-6.26 0.70 0.90
-5.60 0.65 1.02
-9.42 1.07 0.33
-8.04 0.97 0.58
-5.47 0.75 1.04
-5.61 0.84 1.01
-5.71 0.88 1.00
-3.35 1.03 1.40
-2.89 -0.83 1.27
-2.79 -0.78 1.29
-3.06 -0.81 1.24
-2.73 -0.75 1.30
-6.26 -1.26 0.67
-6.26 -1.24 0.66
-3.24 -0.79 1.21
-2.85 -0.72 1.28
-6.86 -1.27 0.56
-6.61 -1.21 0.60
-6.65 -1.20 0.60
-4.79 -0.93 0.93
-4.17 -0.83 1.04
-4.52 -0.86 0.98
-4.32 -0.82 1.02
-4.19 -0.79 1.04
-4.25 -0.78 1.03
-4.26 -0.77 1.03
-4.24 -0.75 1.03
-4.38 -0.75 1.01
-4.34 -0.73 1.02
-4.20 -0.70 1.04
-4.21 -0.68 1.04
-4.81 -0.73 0.93
-6.65 -0.90 0.60
-6.50 -0.87 0.62
-6.40 -0.83 0.64
-6.27 -0.80 0.67
-6.14 -0.77 0.69
-6.31 -0.76 0.66
-5.98 -0.72 0.72
-5.85 -0.69 0.74
-6.27 -0.70 0.67
-6.01 -0.66 0.71
-5.85 -0.63 0.74
-3.73 -0.45 1.13
-6.03 -0.60 0.71
-5.75 -0.56 0.76
-6.03 -0.56 0.71
-6.16 -0.55 0.69
-4.28 -0.41 1.03
-4.46 -0.41 0.99
-3.84 -0.36 1.10
-4.88 -0.40 0.92
-4.41 -0.36 1.00
-4.58 -0.35 0.97
-4.72 -0.34 0.95
-4.55 -0.32 0.98
-4.52 -0.29 0.98
-4.63 -0.28 0.96
-4.57 -0.26 0.97
-4.44 -0.24 1.00
-4.60 -0.23 0.97
-4.93 -0.22 0.91
-4.51 -0.19 0.99
-4.72 -0.18 0.95
-4.53 -0.16 0.98
-4.41 -0.14 1.00
-4.54 -0.13 0.98
-5.39 -0.09 1.08
-5.33 -0.07 1.09
-5.39 -0.06 1.08
-5.19 -0.04 1.11
-5.38 -0.03 1.08
-5.36 -0.01 1.08
-4.73 -0.00 0.88
-4.90 0.02 0.85
-4.76 0.03 0.88
-4.52 0.05 0.92
-4.69 0.06 0.89
-4.53 0.08 0.92
-4.61 0.09 0.91
-4.79 0.11 0.87
-4.38 0.12 0.95
-4.55 0.14 0.92
-4.45 0.16 0.94
-7.61 0.22 0.60
-7.55 0.24 0.61
-8.43 0.31 0.45
-7.80 0.30 0.56
-8.55 0.35 0.42
-8.30 0.37 0.47
-8.57 0.40 0.42
-8.93 0.44 0.35
-7.66 0.40 0.59
-8.74 0.47 0.38
-8.60 0.49 0.41
-8.60 0.51 0.41
-8.60 0.53 0.41
-8.38 0.54 0.45
-8.14 0.55 0.50
-8.75 0.61 0.38
-8.52 0.62 0.42
-8.15 0.61 0.49
-5.47 0.44 1.00
-8.03 0.65 0.51
-5.38 0.47 1.01
-8.94 0.76 0.34
-8.92 0.78 0.34
-5.09 0.49 1.07
-5.19 0.51 1.05
-5.20 0.53 1.05
-9.18 0.90 0.29
-5.66 0.60 0.96
-5.44 0.59 1.00
-5.19 0.58 1.05
-5.35 0.61 1.02
-5.18 0.61 1.05
-5.76 0.72 0.94
-5.62 0.75 0.96
-5.17 0.74 1.05
-5.57 0.80 0.97
-4.02 0.63 1.26
-2.92 -0.85 1.23
-2.91 -0.81 1.23
-6.06 -1.23 0.63
-6.47 -1.27 0.55
-6.40 -1.24 0.57
-2.84 -0.72 1.24
-6.50 -1.22 0.55
-2.70 -0.67 1.27
-2.54 -0.64 1.30
-6.71 -1.16 0.51
-6.83 -1.16 0.49
-7.44 -1.21 0.37
-6.40 -1.06 0.57
-4.39 -0.79 0.95
-4.21 -0.76 0.98
-4.51 -0.78 0.93
-4.86 -0.80 0.86
-6.72 -0.99 0.51
-4.43 -0.72 0.94
-4.72 -0.74 0.89
-4.32 -0.68 0.96
-4.47 -0.68 0.93
-6.09 -0.82 0.63
-6.23 -0.82 0.60
-6.33 -0.81 0.58
-6.24 -0.78 0.60
-6.19 -0.75 0.61
-6.20 -0.73 0.61
-5.79 -0.68 0.69
-5.94 -0.67 0.66
-3.27 -0.44 1.16
-5.70 -0.62 0.70
-5.88 -0.61 0.67
-5.88 -0.59 0.67
-6.09 -0.59 0.63
-4.33 -0.45 0.96
-6.05 -0.55 0.64
-6.25 -0.54 0.60
-4.50 -0.41 0.93
-4.90 -0.42 0.85
-4.27 -0.37 0.97
-4.20 -0.35 0.99
-4.23 -0.33 0.98
-4.37 -0.33 0.95
-4.46 -0.31 0.94
-6.33 -0.38 0.58
-6.58 -0.37 0.54
-4.44 -0.27 0.94
-6.71 -0.34 0.51
-4.16 -0.23 0.99
-3.99 -0.20 1.03
-3.86 -0.19 1.05
-6.41 -0.24 0.57
-4.30 -0.17 0.97
-4.69 -0.16 0.89
-5.17 -0.16 0.80
-4.79 -0.13 0.87
-5.98 -0.13 0.65
-6.10 -0.12 0.63
-4.36 -0.08 0.95
-4.86 -0.07 0.86
-6.29 -0.06 0.59
-4.73 -0.03 0.88
-5.07 -0.02 0.82
-6.98 -0.00 0.65
-6.79 0.02 0.69
-5.38 0.03 0.97
-6.95 0.05 0.66
-5.34 0.06 0.98
-5.51 0.07 0.94
-8.55 0.13 0.34
-5.23 0.10 1.00
-7.15 0.15 0.62
-7.00 0.17 0.65
-7.24 0.19 0.60
-7.15 0.21 0.62
-7.97 0.25 0.45
-8.16 0.28 0.42
-8.28 0.30 0.39
-7.36 0.29 0.57
-6.92 0.29 0.66
-7.54 0.33 0.54
-5.22 0.26 1.00
-4.99 0.26 1.04
-7.28 0.38 0.59
-5.20 0.30 1.00
-7.32 0.42 0.58
-8.10 0.48 0.42
-7.57 0.48 0.53
-7.32 0.48 0.58
-5.28 0.37 0.98
-5.30 0.39 0.98
-5.16 0.40 1.00
-5.16 0.41 1.00
-5.19 0.43 1.00
-5.16 0.44 1.00
-5.20 0.46 0.99
-5.28 0.48 0.98
-5.32 0.49 0.97
-5.14 0.49 1.01
-5.13 0.51 1.01
-5.15 0.52 1.00
-5.14 0.54 1.00
-5.13 0.55 1.00
-5.06 0.56 1.02
-5.11 0.58 1.01
-5.00 0.58 1.03
-4.90 0.58 1.05
-5.39 0.65 0.95
-5.39 0.66 0.95
-5.58 0.81 0.91
-5.76 0.84 0.87
-4.78 0.79 1.06
-4.20 0.84 1.17
-5.63 -1.29 0.64
-5.49 -1.24 0.67
-3.40 -0.89 1.08
-5.26 -1.17 0.71
-5.45 -1.18 0.68
-5.38 -1.15 0.69
-5.15 -1.10 0.74
-5.23 -1.09 0.72
-6.52 -1.26 0.46
-6.25 -1.20 0.52
-5.39 -1.06 0.69
-2.76 -0.68 1.21
-5.96 -1.10 0.58
-5.89 -1.08 0.59
-4.92 -0.93 0.78
-5.09 -0.93 0.75
-4.69 -0.87 0.83
-4.60 -0.84 0.85
-4.89 -0.86 0.79
-4.66 -0.81 0.84
-4.30 -0.75 0.91
-4.37 -0.75 0.89
-4.52 -0.75 0.86
-4.36 -0.72 0.89
-4.45 -0.71 0.88
-4.48 -0.70 0.87
-4.63 -0.70 0.84
-4.60 -0.68 0.85
-4.57 -0.66 0.85
-4.73 -0.66 0.82
-4.96 -0.66 0.78
-4.32 -0.59 0.90
-4.42 -0.58 0.88
-6.02 -0.70 0.57
-5.55 -0.64 0.66
-5.13 -0.59 0.74
-5.02 -0.56 0.77
-5.23 -0.56 0.72
-5.51 -0.57 0.67
-5.85 -0.57 0.61
-5.83 -0.55 0.61
-4.10 -0.42 0.95
-4.24 -0.41 0.92
-4.39 -0.41 0.89
-4.48 -0.40 0.87
-4.24 -0.37 0.92
-4.22 -0.35 0.93
-4.38 -0.34 0.89
-4.39 -0.33 0.89
-4.22 -0.31 0.93
-4.47 -0.30 0.88
-3.97 -0.26 0.97
-4.28 -0.26 0.91
-3.69 -0.22 1.03
-5.60 -0.23 0.93
-5.32 -0.20 0.98
-5.33 -0.19 0.98
-5.67 -0.18 0.91
-5.84 -0.17 0.88
-6.09 -0.16 0.83
-5.33 -0.13 0.98
-5.47 -0.12 0.95
-5.43 -0.10 0.96
-5.31 -0.09 0.98
-5.21 -0.07 1.00
-5.26 -0.06 0.99
-6.84 -0.05 0.68
-6.93 -0.04 0.66
-6.77 -0.02 0.70
-4.38 -0.00 0.84
-5.11 0.02 0.69
-4.29 0.03 0.86
-4.39 0.05 0.84
-6.30 0.10 0.44
-6.94 0.13 0.31
-4.75 0.13 0.76
-4.83 0.15 0.74
-4.45 0.15 0.82
-4.62 0.18 0.79
-5.04 0.20 0.70
-4.47 0.20 0.82
-4.30 0.23 0.85
-7.40 0.39 0.50
-7.97 0.43 0.38
-7.52 0.43 0.47
-5.59 0.35 0.87
-8.37 0.52 0.30
-7.72 0.52 0.43
-5.04 0.40 0.98
-5.27 0.43 0.93
-5.13 0.43 0.96
-5.04 0.44 0.98
-4.93 0.46 1.00
-4.93 0.47 1.00
-5.33 0.52 0.92
-5.02 0.51 0.98
-4.82 0.51 1.02
-4.74 0.51 1.04
-5.06 0.55 0.97
-5.03 0.57 0.98
-5.73 0.85 0.83
-5.36 -1.31 0.63
-5.27 -1.24 0.65
-5.42 -1.25 0.62
-5.43 -1.23 0.62
-5.26 -1.19 0.65
-5.25 -1.17 0.65
-5.17 -1.14 0.67
-5.11 -1.11 0.69
-5.54 -1.16 0.60
-5.51 -1.12 0.60
-5.18 -1.03 0.67
-4.79 -0.93 0.75
-4.71 -0.90 0.77
-4.69 -0.88 0.77
-4.81 -0.88 0.75
-4.72 -0.85 0.77
-4.66 -0.83 0.78
-4.61 -0.81 0.79
-4.60 -0.79 0.79
-3.93 -0.70 0.93
-5.00 -0.80 0.71
-4.70 -0.75 0.77
-4.62 -0.73 0.79
-4.62 -0.71 0.79
-4.71 -0.70 0.77
-4.59 -0.67 0.80
-4.64 -0.66 0.79
-5.02 -0.68 0.71
-4.39 -0.61 0.84
-4.01 -0.56 0.92
-3.98 -0.54 0.92
-4.07 -0.53 0.90
-3.97 -0.51 0.93
-4.13 -0.51 0.89
-3.77 -0.47 0.97
-3.67 -0.44 0.99
-3.80 -0.44 0.96
-4.89 -0.50 0.74
-4.41 -0.45 0.83
-4.35 -0.40 0.85
-4.19 -0.36 0.88
-4.31 -0.35 0.86
-4.47 -0.35 0.82
-3.97 -0.31 0.93
-4.27 -0.31 0.86
-3.93 -0.28 0.93
-3.80 -0.26 0.96
-3.95 -0.25 0.93
-3.74 -0.22 0.97
-6.22 -0.22 0.46
-6.24 -0.20 0.46
-3.77 -0.13 0.97
-5.90 -0.15 0.53
-3.81 -0.10 0.96
-6.25 -0.12 0.46
-6.42 -0.10 0.42
-4.30 -0.06 0.86
-4.14 -0.05 0.89
-4.63 -0.03 0.79
-6.82 -0.02 0.34
-6.79 -0.00 0.55
-6.72 0.02 0.57
-7.26 0.04 0.45
-6.68 0.05 0.58
-5.24 0.06 0.89
-5.27 0.07 0.88
-5.47 0.09 0.84
-5.74 0.11 0.78
-5.33 0.12 0.87
-6.76 0.16 0.56
-6.64 0.17 0.58
-6.93 0.20 0.52
-6.83 0.22 0.54
-6.86 0.23 0.54
-7.27 0.27 0.45
-7.44 0.29 0.41
-3.39 0.16 1.28
-7.27 0.32 0.45
-5.10 0.25 0.91
-7.42 0.37 0.41
-7.93 0.41 0.30
-5.54 0.33 0.82
-5.98 0.37 0.72
-5.76 0.37 0.77
-5.74 0.39 0.77
-5.71 0.40 0.78
-5.39 0.39 0.85
-5.49 0.42 0.83
-5.15 0.41 0.90
-5.20 0.43 0.89
-5.21 0.44 0.88
-5.00 0.44 0.93
-5.05 0.46 0.92
-4.89 0.46 0.95
-4.97 0.48 0.94
-5.02 0.50 0.92
-4.86 0.50 0.96
-5.00 0.52 0.93
-5.23 0.56 0.88
-6.46 0.69 0.61
-6.72 0.73 0.55
-4.99 0.58 0.93
-4.77 0.57 0.98
-5.10 0.62 0.90
-5.16 0.64 0.89
-6.44 0.79 0.61
-5.07 0.66 0.91
-5.26 0.69 0.87
-5.07 0.68 0.91
-5.20 0.71 0.88
-5.56 0.77 0.80
-5.56 0.79 0.80
-5.57 0.80 0.79
-5.38 0.79 0.84
-5.97 0.89 0.71
-5.89 0.89 0.72
-5.41 0.89 0.83
-4.68 0.85 0.98
-4.63 0.86 0.99
-4.50 0.85 1.02
-4.59 0.88 1.00
-4.88 0.95 0.94
-4.04 0.86 1.12
-3.17 -1.10 1.02
-3.21 -1.08 1.02
-3.37 -1.10 0.98
-3.26 -1.07 1.01
-3.70 -1.14 0.91
-3.34 -1.06 0.99
-3.45 -1.06 0.97
-4.97 -1.34 0.64
-5.16 -1.35 0.60
-5.47 -1.39 0.53
-5.48 -1.37 0.53
-5.33 -1.33 0.56
-5.51 -1.34 0.52
-5.41 -1.31 0.54
-5.34 -1.28 0.56
-5.24 -1.24 0.58
-5.24 -1.22 0.58
-5.03 -1.17 0.63
-5.03 -1.15 0.63
-5.09 -1.15 0.61
-5.16 -1.14 0.60
-5.47 -1.17 0.53
-5.42 -1.14 0.54
-5.49 -1.13 0.53
-5.15 -1.07 0.60
-5.11 -1.04 0.61
-4.90 -1.00 0.66
-5.02 -1.00 0.63
-4.72 -0.94 0.70
-4.89 -0.94 0.66
-4.60 -0.89 0.72
-4.61 -0.87 0.72
-4.62 -0.86 0.72
-4.86 -0.87 0.67
-4.60 -0.82 0.72
-4.61 -0.81 0.72
-4.77 -0.81 0.69
-4.38 -0.75 0.77
-4.51 -0.75 0.75
-4.38 -0.72 0.77
-4.64 -0.73 0.72
-4.32 -0.68 0.79
-4.36 -0.67 0.78
-4.12 -0.63 0.83
-3.95 -0.60 0.87
-4.05 -0.59 0.85
-3.98 -0.57 0.86
-3.96 -0.56 0.87
-3.94 -0.54 0.87
-3.95 -0.53 0.87
-3.91 -0.51 0.88
-3.81 -0.49 0.90
-3.80 -0.47 0.90
-3.77 -0.45 0.91
-4.00 -0.46 0.86
-4.34 -0.47 0.78
-4.01 -0.43 0.86
-4.08 -0.42 0.84
-4.18 -0.41 0.82
-4.23 -0.40 0.81
-4.32 -0.39 0.79
-6.93 -0.42 0.53
-7.33 -0.42 0.44
-7.25 -0.40 0.46
-5.11 -0.28 0.92
-7.47 -0.37 0.41
-7.49 -0.33 0.41
-5.02 -0.19 0.94
-6.93 -0.24 0.53
-5.09 -0.17 0.92
-5.10 -0.15 0.92
-5.10 -0.14 0.92
-5.12 -0.13 0.92
-5.26 -0.12 0.89
-5.43 -0.10 0.85
-6.40 -0.10 0.64
-6.59 -0.09 0.60
-6.23 -0.07 0.68
-5.62 -0.05 0.81
-7.13 -0.04 0.48
-5.31 -0.02 0.87
-4.71 -0.00 0.64
-5.37 0.01 0.49
-5.28 0.04 0.82
-5.86 0.06 0.69
-5.16 0.07 0.85
-5.28 0.08 0.82
-5.16 0.10 0.85
-5.77 0.12 0.71
-7.33 0.17 0.36
-7.45 0.19 0.33
-7.47 0.21 0.33
-7.31 0.30 0.36
-7.36 0.35 0.35
-7.37 0.37 0.35
-7.07 0.39 0.41
-7.48 0.43 0.32
-7.46 0.45 0.32
-7.43 0.47 0.33
-7.20 0.49 0.38
-5.36 0.39 0.80
-5.12 0.39 0.85
-4.87 0.39 0.91
-5.26 0.43 0.82
-5.13 0.43 0.85
-5.03 0.44 0.87
-5.15 0.46 0.84
-4.72 0.44 0.94
-4.49 0.44 0.99
-4.65 0.46 0.95
-4.72 0.48 0.94
-4.67 0.49 0.95
-4.76 0.51 0.93
-4.83 0.53 0.91
-4.92 0.57 0.89
-4.60 0.55 0.96
-5.15 0.62 0.84
-4.13 0.53 1.07
-4.88 0.62 0.90
-5.02 0.65 0.86
-5.01 0.66 0.87
-4.62 0.63 0.95
-4.90 0.68 0.89
-5.35 0.74 0.79
-5.19 0.74 0.82
-5.81 0.83 0.68
-5.52 0.81 0.75
-5.76 0.86 0.69
-5.78 0.88 0.68
-5.61 0.87 0.72
-5.66 0.89 0.71
-5.71 0.91 0.70
-4.55 0.82 0.96
-4.72 0.86 0.92
-4.70 0.87 0.92
-4.68 0.88 0.93
-3.59 -1.13 0.88
-3.39 -1.08 0.93
-5.24 -1.40 0.51
-5.52 -1.42 0.44
-5.27 -1.35 0.50
-5.41 -1.34 0.47
-5.16 -1.28 0.53
-5.15 -1.24 0.53
-4.70 -1.13 0.63
-4.82 -1.13 0.61
-5.13 -1.15 0.54
-5.24 -1.15 0.51
-5.17 -1.10 0.53
-4.83 -1.02 0.61
-2.50 -0.67 1.13
-4.47 -0.92 0.69
-4.48 -0.90 0.69
-4.42 -0.86 0.70
-4.70 -0.87 0.64
-4.43 -0.82 0.70
-4.55 -0.80 0.67
-4.61 -0.79 0.66
-4.90 -0.79 0.59
-4.74 -0.74 0.63
-4.53 -0.70 0.68
-4.02 -0.62 0.79
-3.78 -0.58 0.85
-3.99 -0.57 0.80
-4.04 -0.55 0.79
-4.02 -0.53 0.79
-3.92 -0.49 0.82
-3.72 -0.46 0.86
-3.81 -0.44 0.84
-3.47 -0.39 0.92
-3.84 -0.40 0.83
-4.11 -0.39 0.77
-4.14 -0.38 0.77
-5.86 -0.44 0.38
-5.97 -0.41 0.35
-4.19 -0.30 0.75
-5.78 -0.34 0.40
-4.14 -0.23 0.77
-3.94 -0.20 0.81
-3.96 -0.19 0.81
-5.39 -0.22 0.49
-5.52 -0.20 0.46
-5.84 -0.19 0.38
-5.62 -0.17 0.43
-4.02 -0.03 0.79
-6.29 0.03 0.53
-5.99 0.05 0.60
-6.16 0.06 0.56
-5.98 0.08 0.60
-6.45 0.10 0.49
-6.26 0.11 0.53
-6.44 0.13 0.49
-6.63 0.16 0.45
-5.26 0.40 0.76
-4.98 0.42 0.82
-5.00 0.44 0.82
-4.97 0.45 0.83
-4.83 0.45 0.86
-4.70 0.46 0.89
-4.87 0.48 0.85
-5.13 0.52 0.79
-5.27 0.55 0.75
-4.72 0.51 0.88
-5.04 0.55 0.81
-4.96 0.56 0.82
-4.78 0.55 0.87
-4.72 0.56 0.88
-4.82 0.59 0.86
-4.88 0.61 0.84
-4.72 0.60 0.88
-4.95 0.64 0.82
-5.09 0.67 0.79
-6.31 0.83 0.50
-6.03 0.81 0.57
-5.90 0.81 0.60
-5.69 0.80 0.65
-5.80 0.83 0.62
-5.66 0.83 0.65
-5.65 0.84 0.65
-5.66 0.86 0.65
-5.84 0.90 0.61
-5.67 0.89 0.65
-5.59 0.90 0.66
-5.67 0.93 0.64
-5.72 0.95 0.63
-5.62 0.95 0.65
-5.78 0.99 0.62
-5.61 -1.47 0.35
-5.54 -1.44 0.37
-5.50 -1.41 0.37
-5.35 -1.37 0.41
-5.14 -1.31 0.46
-5.34 -1.33 0.41
-5.46 -1.33 0.39
-5.35 -1.29 0.41
-5.26 -1.26 0.43
-4.85 -1.17 0.53
-5.08 -1.20 0.48
-4.95 -1.16 0.51
-5.06 -1.16 0.48
-5.22 -1.17 0.45
-5.07 -1.13 0.48
-5.00 -1.10 0.50
-4.79 -1.05 0.55
-4.74 -1.02 0.56
-4.68 -1.00 0.57
-4.58 -0.97 0.60
-4.56 -0.95 0.60
-4.50 -0.92 0.62
-4.75 -0.94 0.56
-5.43 -1.02 0.40
-4.79 -0.91 0.55
-4.37 -0.84 0.65
-4.48 -0.84 0.62
-4.51 -0.83 0.62
-4.57 -0.82 0.60
-4.37 -0.78 0.65
-4.80 -0.81 0.55
-4.85 -0.80 0.54
-4.89 -0.79 0.53
-4.68 -0.75 0.58
-4.99 -0.77 0.51
-4.70 -0.72 0.58
-4.62 -0.70 0.59
-4.31 -0.62 0.67
-4.31 -0.60 0.67
-4.29 -0.59 0.67
-4.31 -0.56 0.67
-4.37 -0.53 0.65
-4.24 -0.50 0.68
-3.88 -0.45 0.77
-4.24 -0.46 0.68
-4.21 -0.44 0.69
-4.23 -0.43 0.69
-4.25 -0.40 0.68
-5.43 -0.44 0.40
-4.34 -0.36 0.66
-5.61 -0.41 0.36
-3.76 -0.30 0.80
-3.87 -0.28 0.77
-5.70 -0.30 0.34
-5.54 -0.28 0.38
-5.39 -0.24 0.42
-5.65 -0.15 0.35
-1.39 -0.88 0.75
-1.12 -0.85 0.60
-1.31 -0.91 0.56
-0.86 -0.97 0.55
-3.55 0.78 0.47
-2.52 -0.51 0.31
-2.74 0.74 0.22
-2.22 0.88 0.27
-2.16 0.70 0.28
-2.13 0.74 0.26
-2.07 0.76 0.27
-2.21 0.67 0.24
-2.22 0.74 0.23
-2.26 0.77 0.20
-2.06 0.75 0.23
-1.97 0.80 0.24
-1.72 0.86 0.27
-1.53 0.77 0.30
-2.15 0.70 0.21
-2.10 0.72 0.21
-2.04 0.74 0.22
-0.94 -0.98 0.30
-1.86 0.82 0.22
-1.72 0.86 0.24
-1.37 0.85 0.28
-1.01 -0.82 0.31
-1.94 0.71 0.21
-1.76 0.84 0.20
-0.89 -0.74 0.29
-1.54 0.78 0.22
-1.01 -0.84 0.23
-1.08 -0.78 0.25
-1.00 -0.72 0.25
-1.12 -0.75 0.23
