# .PCD v0.7 - Point Cloud Data file format
VERSION 0.7
FIELDS x y z
SIZE 4 4 4
TYPE F F F
COUNT 1 1 1
WIDTH 297
HEIGHT 1
VIEWPOINT 0 0 0 1 0 0 0
POINTS 297
DATA ASCII
-7.71 0.17 1.72
-7.82 0.24 1.71
-5.88 -0.03 1.81
-7.50 0.01 1.74
-5.27 0.05 1.86
-7.90 0.19 1.72
-7.94 0.26 1.71
-8.17 0.29 1.70
-8.11 0.33 1.71
-5.40 0.26 1.85
-8.53 0.41 1.68
-5.13 0.48 1.86
-7.11 0.25 1.73
-8.20 0.33 1.66
-8.43 0.36 1.65
-8.33 0.42 1.65
-8.27 0.44 1.66
-4.98 0.34 1.85
-7.62 0.00 1.66
-7.28 0.08 1.68
-7.03 0.12 1.70
-8.41 0.45 1.61
-8.05 0.45 1.63
-8.18 0.48 1.62
-8.09 0.54 1.63
-5.76 -0.34 1.71
-7.64 -0.02 1.66
-7.22 0.05 1.57
-7.14 0.14 1.57
-7.01 0.18 1.58
-8.08 0.52 1.58
-8.17 0.65 1.57
-6.85 0.04 1.63
-7.81 0.17 1.56
-7.15 0.20 1.60
-7.49 -0.08 1.58
-3.96 0.32 1.81
-6.76 0.06 1.55
-5.76 0.07 1.63
-7.22 0.25 1.51
-7.18 0.33 1.51
-6.88 0.34 1.54
-5.07 -0.25 1.69
-5.10 -0.24 1.69
-4.80 -0.13 1.71
-7.90 -0.06 1.46
-5.80 0.07 1.59
-6.75 -0.33 1.42
-5.33 -0.26 1.54
-5.37 -0.15 1.54
-7.32 0.10 1.41
-5.34 -0.19 1.50
-7.06 0.13 1.28
-7.14 0.15 1.27
-6.81 0.17 1.30
-6.66 0.19 1.32
-6.62 0.34 1.43
-6.74 0.37 1.42
-8.05 0.62 1.28
-7.75 0.77 1.31
-5.17 0.62 1.57
-5.42 -0.14 1.45
-6.78 -0.12 1.31
-7.03 0.06 1.34
-5.01 0.09 1.55
-5.20 -0.13 1.53
-5.06 -0.11 1.55
-4.77 -0.09 1.58
-6.09 -0.05 1.44
-7.02 0.15 1.17
-4.78 0.01 1.50
-7.03 -0.21 1.23
-6.41 -0.12 1.31
-6.49 0.14 1.25
-7.39 0.34 1.13
-3.91 -0.04 1.44
-3.48 0.02 1.60
-8.85 0.30 0.87
-8.36 0.44 0.94
-3.64 -0.48 1.43
-6.67 -0.05 1.17
-6.85 0.00 0.94
-6.46 0.06 0.99
-5.85 0.11 1.08
-4.93 0.53 1.35
-4.93 -0.29 1.21
-4.81 -0.16 1.23
-4.24 0.01 1.42
-6.60 0.09 1.07
-4.91 0.15 1.32
-5.00 0.17 1.30
-7.47 0.26 0.93
-4.97 0.24 1.31
-5.62 0.48 1.20
-4.48 0.45 1.37
-3.89 -0.24 1.31
-6.71 -0.16 1.05
-3.78 -0.09 1.49
-6.54 -0.07 1.08
-6.71 -0.05 1.05
-4.17 -0.02 1.43
-7.70 0.04 0.67
-6.86 0.15 0.80
-3.91 0.27 1.43
-7.59 0.56 0.85
-4.92 -0.07 1.11
-4.51 -0.03 1.17
-3.82 0.01 1.41
-5.89 0.13 1.07
-6.42 0.16 0.98
-6.55 0.27 0.96
-7.13 0.42 0.86
-5.81 0.22 1.03
-7.64 0.45 0.71
-7.48 0.58 0.73
-3.23 0.42 1.46
-5.19 0.76 1.12
-5.52 0.92 1.06
-6.29 -0.24 0.76
-6.33 -0.02 0.75
-6.94 0.05 0.77
-6.64 0.09 0.82
-6.43 0.16 0.86
-5.67 0.17 1.00
-5.73 0.23 0.98
-5.79 0.25 0.97
-5.90 0.27 0.95
-5.93 0.29 0.95
-4.93 0.35 1.13
-5.10 0.37 1.10
-7.27 0.54 0.70
-7.42 0.59 0.67
-7.30 0.60 0.70
-7.44 0.65 0.67
-5.14 0.50 1.09
-4.65 0.48 1.17
-5.41 0.74 1.03
-5.53 0.78 1.01
-5.52 0.80 1.01
-5.51 0.81 1.01
-5.45 0.82 1.02
-5.65 0.86 0.98
-5.57 0.87 1.00
-5.42 0.86 1.02
-5.87 1.06 0.94
-5.61 1.05 0.98
-5.73 1.08 0.96
-5.70 1.11 0.96
-5.76 1.14 0.95
-5.55 1.12 0.99
-5.75 1.17 0.95
-5.82 1.20 0.94
-5.76 1.20 0.95
-5.67 1.20 0.97
-5.77 1.24 0.95
-5.70 1.24 0.96
-5.73 1.26 0.95
-5.78 -1.07 0.78
-6.27 -1.10 0.70
-6.46 -0.05 0.86
-5.80 0.16 0.71
-7.07 0.40 0.67
-7.43 0.57 0.60
-7.41 0.59 0.60
-7.39 0.63 0.61
-5.55 1.10 0.94
-2.04 -0.51 1.43
-6.51 0.14 0.72
-6.96 0.17 0.63
-6.13 0.22 0.79
-5.62 0.29 0.89
-5.48 0.30 0.92
-4.83 0.33 1.04
-4.67 0.40 1.07
-4.10 0.43 1.18
-5.35 0.75 0.93
-5.84 1.22 0.81
-5.63 1.31 0.85
-5.53 -1.09 0.70
-5.26 -1.02 0.75
-5.30 -1.01 0.74
-5.49 -1.02 0.70
-5.28 -0.90 0.75
-5.78 -0.93 0.65
-6.83 -0.20 0.66
-2.91 0.90 1.37
-6.53 0.03 0.58
-5.65 0.20 0.77
-4.67 0.26 0.98
-4.52 0.27 1.01
-4.67 0.30 0.98
-4.63 0.31 0.98
-4.67 0.33 0.98
-4.53 0.33 1.01
-6.95 0.54 0.48
-5.88 0.82 0.70
-5.44 0.80 0.79
-4.61 0.79 0.97
-4.83 0.86 0.92
-5.24 1.09 0.82
-5.23 1.15 0.82
-5.74 1.33 0.71
-5.26 -1.09 0.62
-5.18 -1.06 0.64
-5.19 -1.03 0.64
-5.55 -1.06 0.56
-5.78 -1.06 0.51
-5.61 -1.00 0.55
-4.86 -0.87 0.71
-4.90 -0.77 0.70
-4.90 -0.76 0.70
-5.19 -0.77 0.64
-4.96 -0.73 0.69
-4.98 -0.72 0.68
-5.11 -0.71 0.65
-4.25 -0.21 1.07
-6.24 -0.22 0.65
-3.90 -0.06 1.15
-3.22 0.01 1.01
-5.91 0.09 0.65
-3.55 0.09 1.18
-3.54 0.10 1.18
-4.88 0.27 0.88
-3.92 0.33 1.09
-4.13 0.49 1.04
-4.82 -0.88 0.65
-5.24 -0.91 0.56
-3.87 -0.46 0.87
-3.71 -0.42 0.90
-3.08 -0.24 1.04
-3.30 -0.24 1.00
-5.75 -0.13 0.44
-5.92 0.14 0.58
-5.86 0.17 0.59
-5.69 0.20 0.63
-4.50 0.87 0.89
-4.69 -0.92 0.62
-4.66 -0.68 0.63
-1.74 -0.74 0.66
-1.37 -0.83 0.62
-1.66 -0.91 0.64
-1.93 -0.75 0.59
-1.55 0.87 0.54
-1.81 -0.82 0.56
-2.11 0.86 0.54
-1.59 0.87 0.53
-5.62 0.10 0.66
-2.43 0.81 0.53
-1.05 -0.88 0.54
-1.24 -0.94 0.54
-2.12 0.87 0.50
-1.86 0.81 0.50
-1.35 -0.89 0.52
-1.55 -0.89 0.50
-1.04 -0.91 0.50
-2.22 -0.68 0.48
-1.63 0.86 0.46
-1.38 -0.89 0.48
-2.01 0.77 0.43
-2.38 0.85 0.40
-2.19 0.94 0.41
-1.07 -0.98 0.46
-1.45 -0.99 0.45
-1.01 -0.86 0.45
-1.69 -0.89 0.41
-2.35 0.91 0.34
-2.81 0.96 0.28
-2.45 0.90 0.29
-2.44 0.82 0.25
-1.03 -0.93 0.37
-1.94 -0.85 0.30
-2.05 0.88 0.26
-1.79 0.80 0.30
-1.50 0.87 0.32
-2.07 0.70 0.25
-1.89 0.79 0.27
-1.19 -0.91 0.33
-1.48 -0.83 0.32
-1.94 0.84 0.24
-1.87 0.91 0.24
-1.45 0.86 0.29
-0.94 -0.82 0.33
-1.41 0.85 0.27
-1.79 -0.81 0.25
-1.76 0.84 0.20
-1.12 -0.80 0.29
-1.22 -0.87 0.27
-1.62 -0.77 0.25
-1.64 -0.62 0.28
-1.01 -0.84 0.27
-1.06 -1.03 0.21
-1.44 -0.84 0.24
-1.04 -0.86 0.23
-1.49 0.68 0.22
-1.52 -0.75 0.21
-0.97 -0.84 0.21
-1.18 -0.66 0.26
