# .PCD v0.7 - Point Cloud Data file format
VERSION 0.7
FIELDS x y z
SIZE 4 4 4
TYPE F F F
COUNT 1 1 1
WIDTH 1707
HEIGHT 1
VIEWPOINT 0 0 0 1 0 0 0
POINTS 1707
DATA ASCII
-3.50 1.53 2.24
-3.40 1.48 2.21
-5.02 1.51 2.19
-3.43 1.48 2.19
-3.52 1.52 2.19
-3.55 1.53 2.17
-3.35 1.48 2.16
-1.65 -0.25 2.06
-1.63 -0.26 2.05
-12.87 0.53 1.40
-6.37 -0.40 1.63
-6.49 -0.47 1.57
-6.41 -0.44 1.58
-6.47 -0.42 1.58
-6.34 -0.40 1.58
-6.40 -0.38 1.58
-6.48 -0.36 1.57
-6.38 -0.34 1.58
-6.50 -0.32 1.57
-6.86 -0.27 1.55
-8.64 0.03 1.55
-12.35 0.19 1.30
-12.20 0.25 1.30
-12.25 0.28 1.30
-12.42 0.32 1.29
-6.40 -0.42 1.54
-6.32 -0.40 1.54
-6.67 -0.39 1.52
-6.47 -0.36 1.53
-6.57 -0.35 1.52
-6.49 -0.32 1.53
-6.78 -0.31 1.51
-6.73 -0.54 1.47
-6.28 -0.48 1.50
-6.24 -0.45 1.51
-6.40 -0.44 1.49
-6.25 -0.41 1.51
-6.34 -0.40 1.50
-6.29 -0.38 1.50
-6.37 -0.36 1.50
-6.38 -0.34 1.49
-6.57 -0.31 1.48
-6.74 -0.29 1.47
-8.17 -0.04 1.35
-12.05 0.16 1.18
-11.93 0.19 1.19
-12.48 0.29 1.14
-12.55 0.35 1.14
-12.49 0.41 1.14
-12.34 0.50 1.15
-6.59 -0.66 1.43
-6.13 -0.59 1.47
-6.68 -0.60 1.42
-6.29 -0.54 1.45
-6.19 -0.51 1.46
-6.52 -0.51 1.43
-6.53 -0.49 1.43
-7.10 -0.50 1.38
-7.02 -0.35 1.58
-7.69 -0.26 1.52
-8.51 -0.15 1.46
-8.51 -0.13 1.46
-8.80 -0.09 1.43
-12.07 -0.03 1.18
-8.22 0.01 1.23
-7.96 0.03 1.25
-6.55 -0.59 1.39
-6.40 -0.56 1.40
-6.55 -0.55 1.38
-6.67 -0.54 1.37
-6.69 -0.52 1.37
-6.66 -0.50 1.37
-6.33 -0.46 1.40
-6.54 -0.45 1.38
-6.85 -0.44 1.36
-6.45 -0.40 1.39
-6.83 -0.40 1.36
-6.51 -0.37 1.39
-6.70 -0.35 1.37
-6.49 -0.32 1.39
-6.42 -0.30 1.40
-6.54 -0.28 1.38
-6.76 -0.27 1.36
-6.55 -0.24 1.38
-7.15 -0.24 1.33
-7.12 -0.22 1.33
-7.24 -0.20 1.32
-8.06 -0.02 1.24
-12.19 0.07 1.02
-12.16 0.10 1.02
-8.69 0.09 1.33
-12.24 0.16 1.02
-12.37 0.22 1.00
-12.15 0.25 1.02
-12.54 0.32 0.99
-12.15 0.43 1.02
-8.62 0.54 1.33
-7.43 -0.84 1.25
-6.92 -0.71 1.30
-7.08 -0.70 1.28
-7.38 -0.70 1.25
-7.49 -0.68 1.24
-7.16 -0.64 1.27
-7.46 -0.64 1.24
-6.61 -0.54 1.33
-6.66 -0.52 1.32
-6.76 -0.50 1.31
-6.57 -0.47 1.33
-6.73 -0.46 1.31
-6.63 -0.43 1.32
-6.66 -0.41 1.32
-6.94 -0.41 1.29
-6.44 -0.36 1.34
-6.36 -0.34 1.35
-6.47 -0.32 1.34
-6.59 -0.31 1.33
-6.63 -0.29 1.32
-6.39 -0.26 1.35
-6.78 -0.25 1.31
-8.02 -0.26 1.19
-7.45 -0.22 1.24
-6.67 -0.18 1.32
-7.65 -0.18 1.22
-8.57 -0.09 1.35
-8.57 -0.04 1.35
-8.41 -0.02 1.36
-7.88 0.00 1.14
-7.96 0.03 1.13
-8.00 0.05 1.12
-8.07 0.08 1.12
-8.28 0.10 1.10
-8.54 0.18 1.07
-8.70 0.24 1.05
-8.29 0.25 1.09
-12.14 0.34 0.95
-7.58 -0.81 1.17
-7.53 -0.78 1.18
-7.16 -0.73 1.22
-7.27 -0.71 1.21
-6.77 -0.65 1.26
-6.23 -0.57 1.31
-6.44 -0.55 1.29
-6.29 -0.52 1.31
-6.38 -0.50 1.30
-6.37 -0.48 1.30
-6.81 -0.49 1.25
-6.66 -0.46 1.27
-6.78 -0.44 1.26
-6.85 -0.42 1.25
-6.76 -0.40 1.26
-6.29 -0.36 1.31
-6.41 -0.34 1.29
-6.53 -0.33 1.28
-6.57 -0.31 1.28
-6.48 -0.28 1.29
-6.65 -0.27 1.27
-6.90 -0.25 1.24
-6.60 -0.22 1.27
-8.13 -0.24 1.11
-7.71 -0.21 1.16
-7.77 -0.18 1.15
-6.71 -0.14 1.26
-6.55 -0.12 1.28
-6.76 -0.10 1.26
-7.47 -0.06 1.18
-7.33 -0.04 1.20
-7.98 -0.02 1.13
-8.53 0.00 1.23
-8.47 0.02 1.24
-8.47 0.05 1.24
-8.50 0.07 1.24
-8.61 0.09 1.22
-8.66 0.11 1.22
-8.69 0.14 1.22
-8.79 0.16 1.20
-8.65 0.18 1.22
-8.53 0.20 1.23
-8.86 0.23 1.20
-8.85 0.25 1.20
-8.51 0.29 1.23
-8.82 0.32 1.20
-8.77 0.34 1.20
-8.66 0.36 1.21
-8.75 0.39 1.21
-8.65 0.41 1.22
-8.86 0.44 1.19
-8.78 0.46 1.20
-8.75 0.48 1.20
-8.77 0.50 1.20
-7.36 -0.79 1.13
-7.39 -0.77 1.13
-7.36 -0.74 1.13
-7.30 -0.72 1.14
-6.98 -0.65 1.17
-6.93 -0.62 1.18
-6.31 -0.56 1.25
-6.43 -0.53 1.24
-6.64 -0.52 1.21
-6.55 -0.49 1.22
-6.50 -0.47 1.23
-6.39 -0.44 1.24
-6.49 -0.43 1.23
-6.40 -0.40 1.24
-6.38 -0.38 1.24
-6.37 -0.36 1.24
-6.38 -0.34 1.24
-6.22 -0.32 1.26
-6.23 -0.30 1.26
-6.77 -0.25 1.42
-8.64 -0.29 1.22
-8.86 -0.27 1.20
-8.73 -0.25 1.21
-8.80 -0.22 1.21
-8.68 -0.20 1.22
-8.56 -0.17 1.23
-8.68 -0.13 1.22
-8.59 -0.11 1.23
-8.49 -0.09 1.24
-8.45 -0.06 1.24
-8.54 -0.04 1.23
-8.33 -0.02 1.25
-6.01 -0.54 1.23
-6.34 -0.54 1.19
-6.33 -0.50 1.19
-6.68 -0.50 1.15
-6.37 -0.46 1.19
-6.58 -0.45 1.16
-6.60 -0.43 1.16
-6.17 -0.39 1.21
-6.30 -0.38 1.20
-6.27 -0.36 1.20
-6.15 -0.33 1.21
-7.31 -0.36 1.08
-6.44 -0.30 1.18
-6.21 -0.28 1.21
-6.53 -0.26 1.17
-6.25 -0.24 1.20
-6.37 -0.22 1.19
-6.25 -0.20 1.20
-6.36 -0.18 1.19
-6.39 -0.16 1.18
-6.28 -0.14 1.20
-6.25 -0.12 1.20
-6.55 -0.06 1.16
-6.36 -0.04 1.19
-8.40 0.00 1.12
-8.74 0.07 1.08
-8.64 0.09 1.09
-8.83 0.16 1.07
-12.31 0.28 0.67
-9.42 0.32 1.00
-9.29 0.34 1.02
-9.12 0.35 1.03
-2.10 0.48 1.84
-6.41 -0.53 1.12
-8.15 -0.61 0.91
-7.53 -0.45 1.23
-7.37 -0.42 1.25
-6.68 -0.37 1.32
-6.76 -0.36 1.32
-7.01 -0.35 1.29
-8.49 -0.13 1.11
-8.46 -0.11 1.12
-8.34 -0.09 1.13
-8.49 -0.06 1.11
-8.32 -0.02 1.13
-7.67 0.03 0.90
-9.12 0.21 0.97
-12.02 0.46 0.61
-5.93 0.62 1.35
-4.67 -0.57 1.29
-6.92 -0.62 1.00
-6.39 -0.57 1.07
-6.37 -0.54 1.07
-6.84 -0.55 1.01
-6.24 -0.50 1.09
-6.54 -0.49 1.05
-6.59 -0.48 1.04
-6.34 -0.44 1.07
-6.79 -0.44 1.02
-6.60 -0.41 1.04
-6.16 -0.37 1.10
-6.54 -0.37 1.05
-6.20 -0.34 1.09
-6.08 -0.31 1.11
-6.20 -0.30 1.09
-5.88 -0.27 1.13
-6.20 -0.26 1.09
-6.05 -0.23 1.11
-6.17 -0.22 1.09
-6.28 -0.20 1.08
-6.17 -0.18 1.09
-6.28 -0.16 1.08
-6.33 -0.14 1.07
-6.19 -0.12 1.09
-6.21 -0.10 1.09
-7.00 -0.08 0.98
-6.85 -0.06 1.00
-7.18 -0.04 0.96
-7.68 -0.02 0.89
-7.90 0.00 1.06
-8.07 0.02 1.04
-7.88 0.04 1.06
-8.55 0.13 0.97
-8.86 0.16 0.93
-6.77 0.14 1.21
-8.85 0.21 0.93
-9.10 0.23 0.90
-9.36 0.26 0.87
-8.87 0.30 0.93
-12.03 0.43 0.52
-12.20 0.46 0.50
-12.03 0.49 0.52
-12.28 0.56 0.48
-6.60 0.47 1.22
-6.69 0.52 1.21
-6.41 0.51 1.25
-6.42 0.53 1.24
-6.25 0.54 1.27
-6.07 0.56 1.29
-6.49 0.61 1.23
-6.56 -0.64 0.98
-6.93 -0.65 0.93
-6.95 -0.63 0.93
-7.03 -0.61 0.92
-7.28 -0.60 0.88
-6.45 -0.53 1.00
-6.73 -0.53 0.96
-7.02 -0.52 0.92
-7.15 -0.51 0.90
-6.65 -0.46 0.97
-6.43 -0.43 1.00
-6.39 -0.40 1.01
-6.33 -0.38 1.01
-6.44 -0.37 1.00
-6.65 -0.35 0.97
-6.19 -0.32 1.03
-6.33 -0.30 1.01
-6.25 -0.28 1.02
-6.22 -0.26 1.03
-6.63 -0.25 0.97
-6.40 -0.22 1.00
-5.99 -0.19 1.06
-6.15 -0.18 1.04
-6.14 -0.16 1.04
-6.22 -0.14 1.03
-8.33 -0.13 1.01
-7.17 -0.09 1.16
-8.43 -0.07 0.99
-8.10 -0.04 1.04
-8.35 -0.02 1.00
-6.30 0.00 0.95
-6.99 0.02 0.85
-7.05 0.05 0.84
-7.78 0.10 0.74
-4.42 0.20 1.47
-6.20 0.35 1.23
-5.89 0.48 1.27
-6.30 0.52 1.21
-6.24 0.53 1.22
-6.24 0.55 1.22
-6.20 0.56 1.22
-6.32 0.59 1.20
-6.08 0.59 1.24
-6.15 0.64 1.23
-5.86 0.68 1.26
-3.83 -0.75 1.32
-6.55 -0.64 0.92
-6.70 -0.63 0.90
-6.95 -0.63 0.86
-6.98 -0.61 0.86
-7.30 -0.60 0.81
-7.25 -0.58 0.82
-7.39 -0.56 0.80
-6.84 -0.51 0.88
-7.00 -0.50 0.86
-6.95 -0.47 0.86
-6.97 -0.45 0.86
-7.03 -0.43 0.85
-6.54 -0.39 0.92
-6.57 -0.37 0.92
-6.18 -0.34 0.97
-6.28 -0.32 0.96
-6.55 -0.31 0.92
-6.30 -0.28 0.96
-6.51 -0.27 0.93
-6.38 -0.24 0.94
-6.55 -0.23 0.92
-7.00 -0.22 0.85
-6.49 -0.18 0.93
-6.74 -0.17 0.89
-6.79 -0.15 0.88
-6.51 -0.12 0.92
-6.78 -0.10 0.89
-7.07 -0.09 0.84
-6.53 -0.06 0.92
-6.98 -0.04 0.86
-6.30 -0.02 0.95
-7.78 -0.00 0.95
-8.32 0.02 0.87
-8.63 0.04 0.82
-8.63 0.07 0.82
-8.64 0.09 0.82
-8.74 0.11 0.81
-8.86 0.14 0.79
-8.80 0.16 0.80
-7.07 0.15 1.05
-7.02 0.17 1.05
-8.75 0.23 0.80
-8.79 0.25 0.80
-6.51 0.21 1.13
-6.54 0.23 1.12
-6.72 0.25 1.10
-6.28 0.25 1.16
-6.29 0.27 1.16
-6.15 0.28 1.18
-6.35 0.30 1.15
-6.46 0.33 1.13
-6.43 0.34 1.14
-6.16 0.35 1.18
-6.15 0.36 1.18
-6.19 0.38 1.17
-5.95 0.38 1.20
-6.07 0.41 1.19
-6.24 0.43 1.16
-6.01 0.44 1.20
-6.25 0.47 1.16
-6.15 0.48 1.17
-6.27 0.50 1.16
-6.32 0.52 1.15
-6.24 0.53 1.16
-6.21 0.55 1.16
-6.17 0.56 1.17
-6.20 0.60 1.16
-6.58 -0.64 0.85
-6.68 -0.61 0.83
-6.99 -0.54 0.78
-7.14 -0.53 0.76
-6.90 -0.49 0.80
-7.22 -0.49 0.75
-7.02 -0.46 0.78
-7.17 -0.44 0.76
-6.75 -0.40 0.82
-6.55 -0.37 0.85
-6.91 -0.37 0.80
-6.61 -0.33 0.84
-6.62 -0.31 0.84
-6.56 -0.24 1.13
-6.86 -0.24 1.08
-6.71 -0.21 1.10
-6.81 -0.20 1.09
-8.50 -0.22 0.85
-7.48 -0.18 0.99
-7.79 -0.16 0.95
-8.08 -0.15 0.91
-8.07 -0.13 0.91
-7.80 -0.10 0.95
-7.73 -0.08 0.96
-7.40 -0.06 1.00
-7.48 -0.04 0.99
-7.51 -0.02 0.99
-6.73 0.00 0.76
-6.12 0.02 0.86
-6.10 0.04 0.86
-7.08 0.09 0.70
-7.81 0.17 0.58
-6.02 0.33 0.87
-6.31 0.37 1.11
-10.09 0.64 0.53
-6.77 0.54 1.03
-6.67 0.58 1.05
-6.61 -0.50 0.78
-6.96 -0.43 0.73
-7.08 -0.39 0.71
-7.01 -0.35 0.72
-6.89 -0.32 0.74
-6.67 -0.29 0.77
-6.77 -0.27 0.76
-6.77 -0.25 0.76
-6.89 -0.21 0.74
-6.79 -0.19 0.75
-5.95 -0.15 0.89
-5.97 -0.13 0.88
-5.88 -0.09 0.90
-6.08 -0.08 0.86
-5.92 -0.06 0.89
-6.05 -0.04 0.87
-6.49 -0.02 0.80
-7.88 -0.00 0.80
-8.15 0.02 0.76
-8.01 0.04 0.78
-7.69 0.06 0.83
-7.21 0.07 0.91
-7.38 0.10 0.88
-8.27 0.13 0.74
-7.49 0.14 0.86
-6.82 0.14 0.97
-6.47 0.15 1.02
-6.58 0.17 1.00
-8.44 0.24 0.71
-6.67 0.21 0.99
-8.77 0.29 0.65
-6.09 0.23 1.08
-6.06 0.24 1.09
-6.31 0.27 1.05
-6.62 0.30 1.00
-6.45 0.31 1.02
-6.46 0.33 1.02
-6.24 0.33 1.06
-6.35 0.35 1.04
-6.92 0.40 0.95
-6.72 0.41 0.98
-6.28 0.40 1.05
-6.38 0.42 1.03
-7.27 0.50 0.89
-6.67 0.48 0.98
-6.52 0.49 1.01
-6.55 0.50 1.00
-6.40 0.51 1.03
-6.49 0.54 1.01
-6.37 0.54 1.03
-6.46 0.67 1.01
-5.29 0.80 1.19
-5.56 -0.62 0.89
-7.26 -0.42 0.90
-7.11 -0.39 0.93
-7.02 -0.37 0.94
-6.84 -0.34 0.97
-7.28 -0.35 0.90
-7.39 -0.33 0.88
-6.97 -0.30 0.95
-6.83 -0.27 0.97
-6.72 -0.25 0.99
-7.05 -0.24 0.94
-7.22 -0.23 0.91
-6.75 -0.20 0.98
-6.68 -0.18 0.99
-6.75 -0.16 0.98
-7.15 -0.15 0.92
-7.53 -0.14 0.86
-8.53 -0.13 0.70
-7.85 -0.10 0.81
-8.08 -0.06 0.77
-8.38 -0.05 0.72
-8.22 -0.02 0.75
-6.64 -0.00 0.63
-5.63 0.02 0.81
-5.80 0.04 0.78
-7.12 0.05 0.86
-7.38 0.08 0.82
-8.71 0.11 0.59
-8.52 0.13 0.62
-8.40 0.15 0.64
-8.66 0.18 0.60
-6.53 0.22 0.96
-6.74 0.25 0.92
-6.03 0.26 1.04
-3.68 0.20 1.43
-3.88 0.22 1.40
-6.45 0.36 0.97
-3.95 0.25 1.39
-6.32 0.39 0.99
-6.32 0.40 0.99
-6.37 0.42 0.98
-6.45 0.44 0.96
-6.56 0.47 0.95
-6.58 0.49 0.94
-6.50 0.50 0.95
-6.58 0.52 0.94
-7.18 0.60 0.84
-7.23 0.63 0.83
-6.68 0.60 0.92
-6.87 0.63 0.89
-6.42 0.61 0.97
-6.47 0.65 0.96
-6.45 0.74 0.96
-4.76 0.58 1.24
-4.76 0.59 1.24
-6.48 0.79 0.95
-4.30 0.57 1.32
-6.40 0.82 0.96
-6.32 0.83 0.97
-6.41 0.86 0.96
-5.98 0.82 1.03
-5.49 0.79 1.11
-6.09 0.90 1.01
-3.66 -0.43 1.16
-4.26 -0.17 1.05
-4.21 -0.15 1.06
-6.63 -0.00 0.88
-3.71 0.01 1.39
-6.83 0.03 0.85
-7.31 0.06 0.76
-3.79 0.06 1.38
-3.87 0.08 1.37
-3.63 0.08 1.41
-8.21 0.19 0.60
-3.58 0.10 1.42
-6.09 0.18 0.97
-3.71 0.13 1.39
-7.66 0.26 0.70
-7.25 0.26 0.77
-7.38 0.29 0.75
-6.73 0.28 0.86
-6.30 0.28 0.94
-5.76 0.28 1.03
-4.06 0.22 1.33
-6.61 0.35 0.88
-6.38 0.35 0.92
-6.09 0.36 0.97
-6.49 0.40 0.90
-6.37 0.41 0.92
-6.62 0.44 0.88
-6.39 0.44 0.92
-6.29 0.45 0.93
-6.41 0.48 0.91
-6.74 0.52 0.85
-7.21 0.57 0.77
-7.33 0.60 0.75
-7.28 0.61 0.76
-6.63 0.58 0.87
-4.53 0.43 1.24
-7.00 0.65 0.80
-7.06 0.67 0.79
-7.70 0.74 0.68
-4.07 0.44 1.32
-4.31 0.47 1.28
-4.85 0.55 1.18
-6.54 0.75 0.88
-6.32 0.74 0.92
-6.18 0.75 0.94
-6.37 0.78 0.91
-6.30 0.79 0.92
-6.03 0.78 0.97
-6.49 0.85 0.89
-6.47 0.86 0.89
-6.43 0.88 0.90
-6.06 0.87 0.96
-5.91 0.90 0.98
-5.70 0.88 1.02
-5.71 0.90 1.02
-5.29 0.92 1.09
-5.33 0.94 1.08
-4.88 -0.62 0.89
-4.89 -0.59 0.88
-4.65 -0.55 0.93
-4.87 -0.55 0.89
-4.86 -0.54 0.89
-5.27 -0.55 0.81
-5.52 -0.55 0.77
-4.41 -0.42 0.97
-5.59 -0.22 0.75
-4.56 -0.16 0.94
-4.68 -0.15 0.92
-6.25 -0.10 0.95
-6.42 -0.09 0.92
-6.63 -0.07 0.88
-6.61 -0.05 0.89
-7.06 -0.04 0.81
-6.90 -0.02 0.83
-5.27 -0.00 0.75
-5.70 0.02 0.66
-5.14 0.07 0.77
-2.51 0.07 1.28
-5.46 0.13 0.71
-5.12 0.14 0.78
-2.71 0.11 1.24
-6.01 0.27 0.93
-6.07 0.29 0.92
-6.36 0.34 0.86
-7.81 0.42 0.59
-6.15 0.36 0.90
-6.23 0.38 0.88
-6.28 0.40 0.88
-6.46 0.43 0.84
-6.45 0.44 0.84
-6.36 0.46 0.86
-6.60 0.49 0.81
-6.37 0.49 0.86
-7.56 0.59 0.64
-8.13 0.65 0.53
-7.47 0.62 0.65
-7.16 0.62 0.71
-3.80 0.37 1.33
-4.08 0.40 1.28
-3.74 0.39 1.34
-7.62 0.74 0.62
-6.61 0.67 0.81
-3.71 0.43 1.35
-6.22 0.68 0.88
-6.43 0.79 0.84
-6.22 0.78 0.87
-6.46 0.83 0.83
-6.53 0.85 0.82
-6.00 0.86 0.91
-5.71 0.87 0.96
-5.83 0.90 0.94
-5.50 0.87 1.00
-5.56 0.89 0.99
-5.19 0.86 1.06
-4.60 -0.55 0.88
-4.93 -0.56 0.82
-5.56 -0.20 0.69
-5.58 -0.18 0.69
-5.36 -0.16 0.73
-5.14 -0.11 0.77
-5.15 -0.05 0.77
-5.27 -0.04 0.75
-5.29 -0.02 0.74
-3.55 -0.00 1.35
-7.05 0.02 0.67
-7.19 0.17 0.64
-6.14 0.16 0.84
-6.03 0.18 0.87
-6.14 0.19 0.84
-6.21 0.23 0.83
-3.90 0.17 1.28
-6.07 0.26 0.85
-6.03 0.27 0.86
-6.08 0.29 0.85
-6.03 0.30 0.86
-5.96 0.32 0.87
-6.09 0.34 0.85
-6.03 0.35 0.86
-6.27 0.38 0.81
-6.51 0.41 0.77
-6.30 0.42 0.81
-6.41 0.44 0.79
-6.48 0.46 0.77
-6.65 0.49 0.74
-6.85 0.52 0.70
-7.02 0.55 0.66
-7.55 0.61 0.56
-7.45 0.62 0.58
-7.51 0.65 0.57
-7.00 0.63 0.67
-7.42 0.68 0.58
-3.98 0.41 1.25
-4.07 0.43 1.24
-6.78 0.68 0.71
-7.31 0.75 0.60
-6.64 0.70 0.73
-4.07 0.47 1.23
-6.41 0.72 0.78
-6.14 0.71 0.83
-6.28 0.74 0.80
-6.19 0.75 0.82
-6.22 0.77 0.81
-6.37 0.80 0.78
-6.23 0.80 0.81
-6.14 0.81 0.82
-6.24 0.84 0.81
-5.79 0.81 0.89
-5.59 0.81 0.93
-5.43 0.80 0.96
-5.50 0.83 0.95
-5.50 0.84 0.95
-5.41 0.84 0.96
-5.23 0.83 1.00
-5.35 0.87 0.97
-5.38 0.90 0.97
-5.20 0.89 1.00
-5.05 0.88 1.03
-4.72 -0.59 0.79
-4.88 -0.57 0.76
-4.62 -0.53 0.81
-4.48 -0.51 0.84
-4.04 -0.46 0.93
-4.09 -0.45 0.92
-3.81 -0.40 0.98
-4.07 -0.40 0.93
-4.30 -0.39 0.88
-6.37 -0.19 0.80
-6.47 -0.17 0.78
-6.13 -0.15 0.85
-6.38 -0.14 0.80
-6.35 -0.12 0.81
-7.09 -0.12 0.66
-6.76 -0.04 0.73
-5.16 0.02 0.64
-5.22 0.03 0.63
-5.24 0.16 0.63
-2.78 0.19 1.14
-2.95 0.20 1.11
-2.99 0.22 1.10
-2.84 0.22 1.13
-6.09 0.32 0.80
-6.49 0.36 0.71
-6.23 0.36 0.77
-6.11 0.37 0.79
-6.92 0.45 0.63
-6.81 0.46 0.65
-7.31 0.51 0.55
-7.20 0.53 0.57
-7.37 0.56 0.53
-7.35 0.59 0.54
-7.40 0.62 0.52
-6.72 0.66 0.66
-6.80 0.68 0.64
-6.24 0.71 0.76
-6.31 0.74 0.74
-6.67 0.79 0.67
-6.55 0.80 0.69
-6.19 0.78 0.76
-6.35 0.81 0.73
-6.21 0.81 0.76
-4.94 0.79 1.01
-5.39 0.87 0.92
-5.32 0.87 0.93
-5.08 0.87 0.98
-4.93 -0.10 0.69
-5.05 -0.09 0.67
-5.79 -0.00 0.80
-5.74 0.01 0.81
-5.92 0.03 0.77
-6.41 0.05 0.66
-5.89 0.06 0.77
-6.25 0.08 0.70
-5.74 0.09 0.81
-5.94 0.11 0.76
-5.81 0.12 0.79
-5.77 0.14 0.80
-5.76 0.15 0.80
-5.91 0.17 0.77
-5.89 0.19 0.77
-5.91 0.20 0.77
-5.89 0.22 0.77
-6.12 0.24 0.72
-5.93 0.25 0.76
-5.94 0.27 0.76
-5.94 0.28 0.76
-6.01 0.30 0.74
-6.07 0.32 0.73
-3.69 0.22 1.23
-3.54 0.22 1.26
-6.83 0.41 0.57
-6.71 0.42 0.59
-6.91 0.45 0.55
-6.97 0.49 0.54
-6.55 0.48 0.63
-3.82 0.34 1.20
-6.26 0.55 0.69
-6.09 0.55 0.72
-6.16 0.58 0.70
-3.62 0.38 1.24
-3.70 0.39 1.23
-6.59 0.66 0.61
-6.47 0.67 0.64
-6.55 0.70 0.62
-6.64 0.72 0.60
-6.70 0.75 0.59
-6.35 0.78 0.66
-6.18 0.78 0.69
-6.06 0.78 0.72
-6.02 0.79 0.73
-5.97 0.80 0.73
-5.93 0.81 0.74
-2.01 -0.70 1.26
-4.24 -0.52 0.78
-6.25 -0.25 0.70
-6.27 -0.24 0.70
-6.16 -0.22 0.72
-6.21 -0.20 0.71
-5.86 -0.18 0.78
-6.04 -0.17 0.75
-5.95 -0.13 0.76
-5.87 -0.10 0.78
-5.71 -0.08 0.82
-6.01 -0.07 0.75
-3.43 -0.03 1.30
-3.51 -0.02 1.28
-6.03 -0.02 0.75
-5.99 0.06 0.69
-6.04 0.16 0.68
-6.19 0.26 0.64
-3.66 0.19 1.20
-6.33 0.33 0.61
-3.58 0.22 1.22
-3.71 0.30 1.19
-3.83 0.32 1.16
-3.76 0.33 1.18
-3.70 0.34 1.19
-3.69 0.36 1.19
-6.02 0.58 0.67
-3.59 0.38 1.21
-3.91 0.43 1.14
-4.69 0.61 0.96
-4.46 0.62 1.01
-4.80 0.69 0.93
-4.80 0.70 0.93
-4.80 0.73 0.93
-5.44 0.83 0.79
-2.11 -0.84 1.20
-1.75 -0.76 1.28
-2.04 -0.80 1.22
-1.80 -0.74 1.27
-1.75 -0.72 1.29
-1.96 -0.74 1.24
-1.86 -0.71 1.26
-1.86 -0.70 1.26
-1.79 -0.68 1.28
-1.98 -0.69 1.23
-2.59 -0.65 1.09
-3.58 -0.56 0.87
-3.63 -0.42 0.86
-3.67 -0.40 0.85
-1.53 -0.21 1.34
-2.53 -0.10 1.11
-6.06 0.11 0.61
-5.90 0.12 0.64
-5.94 0.15 0.63
-6.09 0.17 0.60
-5.99 0.24 0.62
-6.19 0.28 0.58
-6.02 0.29 0.61
-3.83 0.35 1.12
-5.76 0.53 0.67
-5.79 0.54 0.66
-6.17 0.59 0.57
-6.30 0.62 0.54
-5.33 0.82 0.75
-3.75 -0.50 0.77
-3.55 0.67 0.60
-9.90 -1.02 1.27
-6.30 -0.62 1.54
-6.61 -0.58 1.52
-6.36 -0.54 1.54
-6.42 -0.52 1.53
-6.39 -0.50 1.54
-6.33 -0.48 1.54
-6.26 -0.46 1.55
-6.41 -0.44 1.54
-10.06 -1.36 0.99
-9.92 -1.32 1.00
-7.79 -0.97 1.09
-7.51 -0.92 1.12
-8.50 -0.98 1.01
-7.74 -0.84 1.09
-7.86 -0.90 1.02
-7.61 -0.85 1.04
-8.13 -1.00 0.91
-8.62 -1.02 0.85
-7.56 -0.90 0.98
-7.54 -0.87 0.98
-8.22 -0.74 0.90
-13.31 0.74 0.45
-9.21 -1.21 0.70
-8.29 -0.99 0.82
-12.78 0.68 0.42
-9.32 -1.39 0.60
-8.76 -1.25 0.68
-9.02 -1.25 0.64
-9.25 -1.22 0.61
-8.36 -1.10 0.73
-8.52 -1.06 0.71
-8.45 -1.03 0.72
-8.48 -1.01 0.72
-8.24 -0.96 0.75
-8.00 -0.79 0.78
-8.10 -0.78 0.77
-12.06 0.52 0.42
-12.74 0.64 0.33
-12.42 0.81 0.37
-9.15 -1.37 0.54
-9.02 -1.33 0.56
-9.01 -1.27 0.56
-8.93 -1.18 0.58
-8.42 -1.05 0.65
-7.60 -0.86 0.77
-7.81 -0.85 0.74
-7.63 -0.77 0.76
-8.02 -0.77 0.71
-9.17 -1.38 0.45
-9.30 -1.34 0.43
-9.28 -1.31 0.43
-8.54 -1.17 0.55
-8.95 -1.19 0.48
-8.67 -1.13 0.53
-8.55 -1.09 0.54
-8.77 -1.09 0.51
-8.72 -1.06 0.52
-7.51 -0.85 0.70
-8.31 -0.90 0.58
-8.28 -0.87 0.59
-6.31 -0.68 0.89
-8.28 -0.82 0.59
-7.76 -0.75 0.67
-6.81 -0.64 0.81
-7.45 -0.64 0.71
-7.31 -0.61 0.74
-7.30 -0.58 0.74
-9.11 -1.42 0.38
-9.19 -1.40 0.37
-8.99 -1.32 0.40
-8.99 -1.30 0.40
-8.84 -1.23 0.42
-8.71 -1.19 0.45
-8.93 -1.16 0.41
-8.84 -1.12 0.42
-8.68 -1.05 0.45
-8.37 -0.97 0.50
-8.46 -0.91 0.49
-8.24 -0.86 0.52
-8.36 -0.85 0.50
-8.29 -0.82 0.51
-8.40 -0.80 0.50
-8.07 -0.75 0.55
-7.62 -0.67 0.62
-7.50 -0.64 0.64
-7.67 -0.63 0.61
-7.29 -0.58 0.67
-7.41 -0.57 0.65
-7.46 -0.52 0.65
-7.41 -0.50 0.65
-7.35 -0.47 0.66
-7.22 -0.42 0.69
-7.42 -0.39 0.65
-7.35 -0.25 0.66
-6.28 -1.17 0.76
-6.33 -1.15 0.75
-6.32 -0.97 0.76
-5.57 -0.87 0.88
-8.77 -1.20 0.34
-5.77 -0.85 0.85
-8.77 -1.15 0.34
-5.79 -0.78 0.85
-5.23 -0.70 0.94
-8.50 -0.99 0.39
-5.40 -0.68 0.91
-8.56 -0.94 0.38
-8.42 -0.91 0.40
-8.50 -0.89 0.39
-8.27 -0.82 0.43
-7.60 -0.74 0.54
-7.62 -0.72 0.54
-7.61 -0.70 0.54
-7.73 -0.68 0.52
-7.61 -0.65 0.54
-7.80 -0.64 0.51
-7.96 -0.62 0.48
-7.67 -0.58 0.53
-7.39 -0.54 0.58
-7.46 -0.53 0.56
-6.54 0.91 0.94
-6.20 0.93 0.99
-6.40 0.98 0.96
-6.22 -1.10 0.71
-6.14 -1.01 0.72
-5.92 -0.96 0.76
-5.90 -0.94 0.76
-5.24 -0.83 0.88
-6.02 -0.88 0.74
-5.99 -0.85 0.75
-5.84 -0.82 0.77
-5.84 -0.80 0.77
-5.41 -0.74 0.85
-5.41 -0.72 0.85
-5.32 -0.69 0.87
-5.91 -0.71 0.76
-8.41 -0.90 0.32
-5.51 -0.64 0.83
-7.76 -0.80 0.44
-7.72 -0.77 0.44
-7.80 -0.76 0.43
-7.56 -0.69 0.47
-7.61 -0.67 0.46
-7.42 -0.64 0.50
-7.49 -0.62 0.48
-6.88 -0.56 0.59
-6.93 -0.54 0.58
-6.96 -0.52 0.58
-7.07 -0.50 0.56
-6.69 -0.46 0.63
-6.50 -0.43 0.66
-6.52 -0.41 0.65
-6.75 -0.40 0.61
-6.71 -0.38 0.62
-6.49 -0.35 0.66
-6.55 -0.33 0.65
-6.45 -0.31 0.67
-6.75 -0.30 0.61
-6.79 -0.28 0.61
-6.68 -0.25 0.62
-7.52 -0.21 0.48
-7.77 -0.19 0.43
-7.87 -0.14 0.41
-8.07 -0.12 0.38
-8.21 -0.10 0.35
-8.18 -0.07 0.36
-8.08 -0.05 0.38
-8.17 -0.02 0.36
-8.74 0.09 0.51
-8.50 0.11 0.55
-7.91 0.83 0.64
-6.54 0.91 0.88
-6.35 0.92 0.91
-6.12 0.91 0.95
-6.21 0.99 0.93
-5.62 0.93 1.03
-5.57 0.94 1.04
-5.63 1.00 1.03
-5.70 1.02 1.02
-5.65 1.05 1.02
-5.31 1.01 1.08
-5.53 1.06 1.04
-4.90 0.98 1.16
-5.18 1.06 1.10
-5.04 1.06 1.13
-4.79 1.06 1.17
-4.71 -1.65 0.90
-4.62 -1.45 0.92
-5.50 -1.23 0.77
-5.78 -1.25 0.72
-6.18 -1.30 0.64
-5.10 -1.11 0.84
-5.62 -1.17 0.75
-5.67 -1.16 0.74
-6.08 -1.20 0.66
-5.99 -1.17 0.68
-5.90 -1.13 0.69
-5.99 -1.13 0.68
-5.62 -1.04 0.75
-6.00 -1.07 0.68
-5.93 -1.04 0.69
-5.96 -1.03 0.68
-6.15 -1.03 0.65
-6.10 -1.00 0.66
-5.94 -0.96 0.69
-5.86 -0.94 0.70
-5.32 -0.85 0.81
-5.09 -0.81 0.85
-5.05 -0.79 0.85
-4.99 -0.77 0.87
-4.91 -0.74 0.88
-5.06 -0.74 0.85
-5.63 -0.78 0.75
-5.42 -0.74 0.79
-5.51 -0.73 0.77
-5.09 -0.67 0.85
-5.19 -0.67 0.83
-5.48 -0.66 0.77
-7.65 -0.68 0.37
-7.71 -0.66 0.36
-7.13 -0.57 0.47
-7.41 -0.57 0.42
-7.33 -0.54 0.43
-7.24 -0.51 0.45
-6.92 -0.48 0.51
-6.75 -0.45 0.54
-6.62 -0.42 0.57
-6.39 -0.39 0.61
-6.50 -0.37 0.59
-6.72 -0.36 0.55
-6.60 -0.33 0.57
-6.73 -0.32 0.54
-6.55 -0.29 0.58
-6.80 -0.28 0.53
-7.66 -0.26 0.37
-6.15 -0.16 0.65
-7.84 -0.17 0.34
-6.86 0.04 0.44
-7.13 0.07 0.39
-7.05 0.11 0.40
-6.87 0.19 0.44
-8.80 0.27 0.41
-7.39 0.81 0.66
-6.74 0.89 0.78
-6.43 0.87 0.83
-6.46 0.90 0.83
-6.27 0.91 0.86
-6.28 0.93 0.86
-5.50 0.95 1.00
-5.76 1.00 0.95
-5.77 1.05 0.95
-5.42 1.01 1.01
-5.26 1.01 1.04
-5.35 1.04 1.02
-5.59 1.10 0.98
-4.85 -1.24 0.82
-5.49 -1.26 0.70
-5.56 -1.25 0.69
-5.69 -1.25 0.66
-5.51 -1.21 0.70
-5.55 -1.20 0.69
-5.78 -1.21 0.65
-5.77 -1.19 0.65
-5.90 -1.19 0.62
-6.05 -1.19 0.60
-5.85 -1.15 0.64
-5.89 -1.13 0.63
-5.35 -1.04 0.73
-5.82 -1.08 0.64
-5.77 -1.06 0.65
-6.08 -1.08 0.59
-6.16 -1.07 0.58
-5.70 -0.97 0.67
-6.27 -1.02 0.56
-6.19 -0.99 0.57
-4.61 -0.74 0.88
-4.81 -0.73 0.84
-5.27 -0.73 0.75
-5.21 -0.70 0.76
-5.30 -0.69 0.74
-5.35 -0.68 0.73
-5.61 -0.68 0.69
-5.15 -0.61 0.77
-5.54 -0.51 0.70
-7.04 -0.59 0.41
-7.13 -0.57 0.39
-7.19 -0.56 0.38
-7.24 -0.54 0.37
-5.90 -0.23 0.63
-6.17 -0.14 0.57
-6.16 -0.10 0.58
-6.17 -0.08 0.57
-7.80 0.04 0.53
-7.78 0.06 0.53
-8.40 0.08 0.41
-8.44 0.13 0.40
-7.55 0.15 0.57
-6.40 0.87 0.77
-5.50 0.90 0.94
-5.33 0.94 0.97
-5.27 0.94 0.98
-5.45 0.99 0.95
-5.34 0.98 0.97
-5.33 1.00 0.97
-5.39 1.02 0.96
-5.37 1.03 0.96
-5.33 1.04 0.97
-5.37 1.06 0.96
-5.37 1.08 0.96
-5.53 1.12 0.93
-5.68 1.17 0.90
-5.41 1.13 0.95
-5.65 1.19 0.90
-5.43 1.17 0.94
-5.29 1.16 0.97
-5.40 1.19 0.95
-5.06 1.14 1.02
-5.11 1.17 1.00
-4.91 1.14 1.04
-4.86 1.15 1.05
-4.75 1.14 1.07
-4.61 1.12 1.10
-4.80 -1.51 0.76
-4.79 -1.47 0.77
-4.88 -1.47 0.75
-4.77 -1.43 0.77
-4.88 -1.40 0.75
-5.03 -1.41 0.72
-5.09 -1.37 0.71
-5.27 -1.39 0.67
-5.00 -1.32 0.73
-5.04 -1.31 0.72
-5.17 -1.32 0.69
-5.13 -1.29 0.70
-5.09 -1.27 0.71
-5.30 -1.29 0.67
-5.20 -1.25 0.69
-5.39 -1.27 0.65
-5.34 -1.24 0.66
-5.27 -1.21 0.68
-5.43 -1.22 0.64
-5.74 -1.25 0.58
-5.27 -1.16 0.68
-5.77 -1.21 0.58
-5.82 -1.20 0.57
-5.85 -1.19 0.56
-5.90 -1.17 0.55
-5.92 -1.16 0.55
-5.96 -1.14 0.54
-5.85 -1.11 0.56
-6.31 -1.15 0.47
-6.66 -1.18 0.40
-6.20 -1.10 0.49
-6.55 -1.12 0.42
-6.51 -1.10 0.43
-6.24 -1.04 0.48
-6.42 -1.04 0.45
-5.21 -0.88 0.69
-5.93 -0.95 0.55
-4.64 -0.78 0.81
-4.99 -0.80 0.74
-4.53 -0.73 0.83
-4.42 -0.71 0.85
-4.76 -0.73 0.79
-4.54 -0.69 0.83
-4.48 -0.67 0.84
-4.76 -0.68 0.79
-4.82 -0.67 0.77
-5.28 -0.69 0.68
-5.13 -0.66 0.71
-5.12 -0.64 0.71
-5.36 -0.63 0.66
-6.75 -0.51 0.38
-8.42 -0.29 0.41
-8.51 -0.27 0.39
-8.52 -0.11 0.39
-8.33 -0.09 0.42
-8.18 -0.07 0.45
-8.30 -0.03 0.43
-5.29 0.07 0.62
-5.49 0.09 0.57
-6.00 0.11 0.47
-6.12 0.19 0.44
-7.84 0.61 0.44
-7.75 0.66 0.45
-7.74 0.68 0.45
-7.68 0.70 0.47
-7.83 0.73 0.43
-7.44 0.76 0.51
-7.63 0.80 0.47
-7.71 0.82 0.46
-7.64 0.84 0.47
-6.48 0.86 0.70
-6.18 0.84 0.76
-6.25 0.87 0.75
-6.56 0.92 0.68
-5.92 0.86 0.81
-5.91 0.88 0.81
-6.29 0.94 0.73
-6.03 0.92 0.79
-5.47 0.91 0.90
-5.35 0.92 0.92
-5.16 0.91 0.96
-5.45 0.97 0.90
-5.41 0.98 0.91
-5.32 0.98 0.93
-5.40 1.01 0.91
-5.30 1.00 0.93
-5.67 1.08 0.85
-5.67 1.10 0.85
-5.70 1.12 0.84
-5.61 1.12 0.86
-5.62 1.13 0.86
-5.47 1.12 0.89
-5.63 1.17 0.86
-5.11 -1.52 0.64
-4.95 -1.43 0.68
-5.11 -1.44 0.65
-4.87 -1.38 0.70
-5.03 -1.38 0.66
-5.06 -1.36 0.66
-4.91 -1.30 0.69
-5.06 -1.31 0.66
-5.04 -1.29 0.67
-5.12 -1.29 0.65
-5.16 -1.28 0.64
-4.97 -1.23 0.68
-5.17 -1.24 0.64
-5.36 -1.26 0.60
-5.55 -1.27 0.56
-5.02 -1.17 0.67
-5.26 -1.19 0.62
-6.07 -1.30 0.45
-6.30 -1.31 0.40
-6.52 -1.33 0.35
-6.41 -1.29 0.38
-6.46 -1.25 0.37
-5.41 -0.99 0.59
-5.64 -1.00 0.55
-5.18 -0.93 0.64
-5.11 -0.90 0.66
-4.94 -0.86 0.69
-5.53 -0.92 0.57
-5.63 -0.91 0.55
-4.83 -0.80 0.72
-4.64 -0.76 0.76
-4.46 -0.73 0.79
-4.51 -0.71 0.78
-4.26 -0.67 0.84
-4.18 -0.65 0.85
-5.01 -0.72 0.68
-5.01 -0.68 0.68
-5.13 -0.68 0.65
-4.89 -0.64 0.70
-4.96 -0.63 0.69
-4.88 -0.60 0.71
-5.46 -0.62 0.59
-5.36 -0.59 0.61
-5.52 -0.28 0.57
-5.56 -0.26 0.56
-5.08 -0.23 0.66
-5.31 -0.21 0.61
-5.26 -0.20 0.63
-5.41 -0.18 0.59
-5.30 -0.16 0.62
-5.49 -0.15 0.58
-5.12 -0.12 0.65
-5.37 -0.07 0.60
-5.15 -0.05 0.65
-6.17 -0.02 0.43
-7.14 0.49 0.50
-7.31 0.55 0.46
-7.29 0.57 0.47
-7.13 0.60 0.50
-6.90 0.78 0.54
-7.00 0.81 0.52
-6.61 0.79 0.60
-6.09 0.85 0.71
-6.03 0.86 0.72
-6.09 0.89 0.71
-5.86 0.87 0.76
-5.79 0.88 0.77
-5.77 0.89 0.77
-5.75 0.91 0.78
-5.72 0.92 0.78
-5.77 0.94 0.77
-5.81 0.96 0.76
-5.81 0.98 0.76
-5.58 0.96 0.81
-5.86 1.02 0.75
-5.77 1.02 0.77
-5.62 1.01 0.80
-5.37 0.99 0.85
-5.56 1.03 0.81
-5.47 1.04 0.83
-5.48 1.05 0.83
-5.55 1.08 0.81
-5.42 1.07 0.84
-5.61 1.12 0.80
-5.70 1.15 0.78
-5.72 1.17 0.77
-5.73 1.19 0.77
-5.71 1.20 0.77
-5.53 1.19 0.81
-5.65 1.22 0.78
-5.52 1.22 0.81
-5.40 1.21 0.83
-5.58 1.26 0.79
-5.14 1.19 0.89
-5.10 1.19 0.90
-4.90 1.17 0.94
-4.83 1.17 0.95
-4.85 1.18 0.95
-4.82 1.19 0.95
-4.76 1.19 0.97
-4.95 1.25 0.92
-4.88 -1.65 0.62
-5.01 -1.66 0.59
-4.73 -1.58 0.65
-4.89 -1.60 0.62
-4.89 -1.58 0.61
-4.81 -1.54 0.63
-4.87 -1.54 0.62
-4.77 -1.50 0.64
-4.88 -1.51 0.62
-4.95 -1.50 0.61
-4.97 -1.49 0.60
-4.91 -1.46 0.61
-4.99 -1.46 0.60
-4.90 -1.42 0.62
-5.00 -1.43 0.60
-4.95 -1.40 0.61
-5.05 -1.40 0.59
-5.11 -1.40 0.57
-5.00 -1.36 0.60
-5.07 -1.35 0.58
-5.16 -1.35 0.56
-5.17 -1.34 0.56
-5.34 -1.35 0.52
-5.15 -1.30 0.57
-4.92 -1.24 0.62
-5.10 -1.25 0.58
-4.95 -1.21 0.61
-5.72 -1.30 0.44
-5.15 -1.19 0.57
-5.45 -1.22 0.50
-5.68 -1.24 0.45
-5.74 -1.23 0.44
-5.47 -1.17 0.50
-5.66 -1.18 0.46
-5.66 -1.16 0.46
-5.63 -1.14 0.47
-5.73 -1.13 0.44
-5.41 -1.01 0.51
-5.78 -1.04 0.43
-4.99 -0.92 0.61
-5.38 -0.96 0.52
-5.23 -0.92 0.56
-5.23 -0.90 0.56
-4.92 -0.85 0.62
-5.84 -0.94 0.42
-4.76 -0.79 0.66
-4.30 -0.73 0.76
-4.21 -0.70 0.78
-4.84 -0.75 0.64
-4.51 -0.70 0.72
-4.47 -0.68 0.72
-5.21 -0.74 0.56
-5.08 -0.71 0.59
-4.64 -0.65 0.69
-5.00 -0.67 0.61
-5.05 -0.66 0.60
-5.04 -0.64 0.60
-4.95 -0.61 0.62
-5.70 -0.66 0.45
-5.57 -0.61 0.48
-5.35 -0.57 0.53
-5.66 -0.58 0.46
-5.89 -0.58 0.41
-7.56 -0.46 0.43
-7.77 -0.45 0.38
-7.52 -0.42 0.43
-7.84 -0.41 0.37
-6.54 -0.32 0.64
-6.38 -0.29 0.68
-6.40 -0.28 0.67
-6.85 0.09 0.50
-6.79 0.12 0.51
-6.87 0.14 0.50
-6.49 0.20 0.58
-7.29 0.24 0.40
-6.84 0.27 0.50
-7.02 0.42 0.45
-6.88 0.43 0.48
-7.07 0.48 0.44
-7.18 0.75 0.41
-7.02 0.78 0.44
-6.87 0.82 0.47
-7.01 0.89 0.44
-5.45 0.86 0.78
-5.58 0.91 0.75
-5.29 0.88 0.82
-5.58 0.96 0.75
-5.01 0.89 0.88
-5.66 1.00 0.73
-5.34 0.97 0.80
-5.00 0.94 0.88
-5.13 0.98 0.85
-5.48 1.06 0.77
-5.39 1.06 0.79
-5.34 1.07 0.79
-5.31 1.08 0.80
-5.39 1.12 0.78
-5.63 1.19 0.73
-5.82 1.25 0.68
-5.77 1.26 0.69
-4.80 1.17 0.90
-4.96 1.22 0.87
-4.97 -1.54 0.53
-4.90 -1.51 0.55
-4.97 -1.51 0.53
-4.91 -1.46 0.55
-5.05 -1.47 0.51
-5.00 -1.43 0.53
-5.05 -1.19 0.52
-4.99 -1.15 0.54
-5.20 -1.16 0.49
-5.14 -1.13 0.50
-5.16 -1.12 0.50
-5.36 -1.12 0.45
-5.50 -1.08 0.42
-5.57 -1.07 0.41
-5.40 -1.01 0.44
-4.11 -0.76 0.74
-4.68 -0.82 0.61
-5.04 -0.84 0.53
-5.11 -0.83 0.51
-3.92 -0.67 0.79
-5.05 -0.78 0.53
-5.19 -0.75 0.50
-3.97 -0.62 0.78
-4.46 -0.63 0.67
-4.85 -0.64 0.58
-5.03 -0.64 0.53
-4.71 -0.57 0.61
-5.51 -0.62 0.42
-5.57 -0.35 0.41
-5.47 -0.31 0.43
-5.14 -0.25 0.51
-5.24 -0.23 0.49
-5.34 -0.18 0.46
-6.90 0.07 0.42
-6.81 0.08 0.44
-6.67 0.15 0.47
-6.36 0.23 0.54
-6.73 0.28 0.45
-6.38 0.32 0.53
-6.49 0.34 0.50
-6.62 0.66 0.46
-6.60 0.68 0.47
-6.52 0.69 0.49
-6.43 0.72 0.51
-6.63 0.75 0.46
-6.79 0.83 0.42
-6.90 0.86 0.39
-6.67 0.85 0.45
-6.76 0.88 0.42
-6.56 0.87 0.47
-6.43 0.87 0.50
-6.49 0.90 0.48
-6.54 0.92 0.47
-6.48 0.93 0.48
-6.41 0.94 0.50
-5.31 0.83 0.75
-5.75 0.90 0.65
-5.37 0.86 0.74
-5.66 0.92 0.67
-5.71 0.94 0.66
-5.97 1.00 0.60
-5.60 0.96 0.68
-5.73 1.00 0.65
-5.64 1.00 0.67
-5.53 1.00 0.70
-5.65 1.03 0.67
-5.77 1.07 0.64
-5.15 0.98 0.78
-5.25 1.01 0.76
-5.25 1.03 0.76
-5.34 1.06 0.74
-5.52 1.10 0.69
-5.51 1.12 0.70
-5.61 1.15 0.67
-5.59 1.16 0.67
-5.56 1.17 0.68
-5.63 1.20 0.66
-5.59 1.21 0.67
-5.58 1.22 0.67
-4.96 -1.42 0.47
-4.89 -1.39 0.48
-4.94 -1.38 0.47
-5.18 -1.41 0.42
-5.02 -1.36 0.45
-4.90 -1.32 0.48
-4.93 -1.31 0.48
-5.09 -1.32 0.44
-4.81 -1.25 0.51
-4.78 -1.23 0.51
-4.87 -1.23 0.49
-4.80 -1.20 0.51
-4.75 -1.17 0.53
-4.91 -1.18 0.49
-5.06 -1.19 0.45
-4.94 -1.16 0.48
-4.82 -1.12 0.51
-4.96 -1.13 0.47
-5.04 -1.12 0.46
-4.99 -1.09 0.47
-5.00 -1.08 0.47
-4.67 -0.88 0.55
-4.43 -0.84 0.61
-4.46 -0.82 0.60
-4.30 -0.79 0.64
-4.24 -0.76 0.65
-4.77 -0.81 0.52
-4.21 -0.73 0.66
-3.94 -0.69 0.72
-3.89 -0.67 0.74
-4.07 -0.67 0.69
-4.50 -0.70 0.59
-4.15 -0.65 0.68
-4.21 -0.64 0.66
-4.35 -0.64 0.63
-4.93 -0.68 0.49
-4.85 -0.65 0.51
-4.26 -0.58 0.65
-4.21 -0.56 0.66
-3.94 -0.53 0.73
-4.39 -0.52 0.62
-5.32 -0.22 0.40
-1.41 -0.97 0.62
-0.89 -0.77 0.59
-1.70 -1.08 0.63
-1.23 -0.88 0.54
-0.85 -0.89 0.55
-2.05 0.95 0.51
-1.01 -0.85 0.48
-2.75 0.83 0.31
-2.45 0.82 0.23
-1.86 0.82 0.30
-2.44 0.89 0.20
-2.33 0.90 0.22
-2.13 0.81 0.25
-0.80 -0.89 0.35
-2.29 0.79 0.21
-2.27 0.85 0.21
-2.15 0.90 0.22
-2.10 0.93 0.21
-1.88 0.85 0.25
-1.76 0.92 0.25
-1.72 0.94 0.25
-1.90 0.79 0.24
-1.72 0.85 0.25
-1.89 0.79 0.21
-1.76 0.92 0.20
-1.56 0.82 0.25
-1.49 0.87 0.25
-1.46 0.88 0.25
-0.84 -1.03 0.25
-1.76 0.84 0.20
-1.72 0.85 0.21
-1.62 0.86 0.22
-0.93 -0.84 0.28
-0.85 -0.86 0.25
-1.22 -0.80 0.26
-0.84 -0.79 0.25
-0.94 -0.84 0.24
-1.27 -0.94 0.21
-1.36 -0.82 0.24
-1.56 -0.83 0.21
-0.81 -0.86 0.21
-0.85 -0.87 0.22
-1.22 -0.88 0.22
-1.15 -0.84 0.22
-1.05 -0.78 0.22
