# .PCD v0.7 - Point Cloud Data file format
VERSION 0.7
FIELDS x y z
SIZE 4 4 4
TYPE F F F
COUNT 1 1 1
WIDTH 1557
HEIGHT 1
VIEWPOINT 0 0 0 1 0 0 0
POINTS 1557
DATA ASCII
-3.87 1.34 2.20
-2.86 1.26 2.18
-8.25 -1.14 1.44
-9.20 -1.13 1.25
-8.96 -1.08 1.27
-8.80 -0.99 1.28
-8.91 -0.97 1.28
-8.70 -0.93 1.29
-8.74 -0.98 1.17
-13.84 -0.19 0.59
-8.30 -0.82 1.07
-9.58 -1.23 0.86
-14.40 0.22 0.36
-8.04 -1.34 0.96
-10.63 -1.00 0.66
-12.58 0.96 0.48
-7.71 -1.18 0.94
-7.84 -1.17 0.92
-8.57 -1.18 0.83
-6.79 -0.79 1.05
-10.14 0.89 0.71
-9.96 0.90 0.73
-10.43 0.96 0.67
-8.04 -1.29 0.82
-9.57 -1.46 0.61
-7.71 -1.20 0.86
-7.60 -1.14 0.88
-7.82 -1.14 0.85
-7.54 -1.09 0.89
-7.70 -1.08 0.87
-7.62 -1.05 0.88
-7.50 -1.01 0.89
-7.42 -0.98 0.90
-9.62 -1.18 0.61
-7.54 -0.95 0.89
-8.27 -0.94 0.79
-6.91 -0.80 0.97
-7.48 -0.80 0.90
-6.80 -0.73 0.99
-8.91 -0.84 0.70
-9.93 0.87 0.66
-9.65 0.87 0.70
-9.98 0.92 0.65
-7.76 -1.42 0.78
-7.64 -1.38 0.80
-7.86 -1.36 0.77
-8.08 -1.37 0.74
-7.93 -1.32 0.76
-8.29 -1.35 0.71
-8.12 -1.30 0.73
-8.66 -1.34 0.66
-7.37 -1.11 0.84
-9.90 -1.38 0.48
-7.52 -1.08 0.82
-8.17 -1.11 0.73
-7.73 -1.04 0.79
-8.22 -1.04 0.72
-8.03 -1.00 0.75
-8.25 -0.99 0.72
-8.93 -1.03 0.62
-8.48 -0.96 0.69
-9.09 -0.96 0.60
-9.23 -0.89 0.58
-8.15 -0.79 0.73
-7.61 -0.67 0.81
-7.71 -0.63 0.79
-10.08 0.91 0.55
-10.04 0.95 0.56
-9.97 1.00 0.56
-10.09 1.04 0.55
-10.10 1.06 0.54
-9.92 1.07 0.57
-10.01 1.11 0.56
-9.93 1.12 0.57
-6.71 -1.53 0.86
-7.45 -1.47 0.75
-7.43 -1.45 0.75
-7.78 -1.47 0.70
-7.67 -1.41 0.72
-7.82 -1.41 0.70
-7.83 -1.39 0.69
-7.80 -1.36 0.70
-8.06 -1.37 0.66
-8.04 -1.34 0.66
-7.90 -1.30 0.69
-8.02 -1.26 0.67
-7.91 -1.23 0.69
-7.46 -1.15 0.75
-7.52 -1.13 0.74
-8.43 -1.11 0.61
-9.18 -1.16 0.50
-8.16 -1.03 0.65
-8.44 -1.04 0.61
-8.13 -0.98 0.65
-8.68 -1.01 0.57
-8.63 -0.98 0.58
-8.70 -0.96 0.57
-8.59 -0.92 0.59
-8.44 -0.89 0.61
-8.49 -0.86 0.60
-8.47 -0.84 0.60
-8.46 -0.81 0.61
-8.32 -0.78 0.63
-7.99 -0.73 0.67
-7.86 -0.69 0.69
-7.66 -0.63 0.72
-7.69 -0.61 0.72
-7.66 -0.59 0.72
-7.63 -0.54 0.73
-7.70 -0.52 0.72
-9.92 0.94 0.50
-10.10 0.98 0.47
-9.62 0.97 0.54
-10.22 1.05 0.45
-10.26 1.08 0.44
-10.05 1.11 0.47
-10.39 1.17 0.42
-10.14 1.17 0.46
-6.52 -1.56 0.82
-6.62 -1.56 0.81
-6.53 -1.52 0.82
-6.61 -1.51 0.81
-6.91 -1.45 0.77
-7.21 -1.48 0.72
-7.03 -1.43 0.75
-6.76 -1.36 0.79
-7.06 -1.39 0.74
-7.61 -1.45 0.66
-7.07 -1.32 0.74
-7.12 -1.13 0.74
-7.61 -1.14 0.66
-9.78 -1.34 0.32
-8.61 -1.03 0.51
-8.97 -1.03 0.45
-8.97 -1.01 0.45
-8.69 -0.93 0.49
-8.50 -0.89 0.52
-8.28 -0.82 0.56
-8.59 -0.82 0.51
-8.13 -0.76 0.58
-7.54 -0.69 0.67
-7.81 -0.69 0.63
-7.87 -0.67 0.62
-7.66 -0.63 0.66
-7.51 -0.58 0.68
-7.61 -0.56 0.66
-7.47 -0.53 0.68
-7.42 -0.50 0.69
-9.80 0.91 0.43
-10.23 1.00 0.36
-10.50 1.05 0.31
-10.31 1.08 0.34
-10.52 1.13 0.31
-10.42 1.15 0.32
-10.43 1.18 0.32
-10.40 1.20 0.32
-6.00 1.04 1.04
-6.28 -1.64 0.79
-6.55 -1.65 0.74
-6.79 -1.68 0.70
-6.41 -1.58 0.77
-6.30 -1.54 0.79
-6.33 -1.53 0.78
-6.64 -1.56 0.73
-6.61 -1.54 0.74
-6.65 -1.52 0.73
-6.72 -1.51 0.72
-6.73 -1.49 0.72
-6.73 -1.47 0.72
-6.74 -1.45 0.72
-6.90 -1.46 0.69
-6.87 -1.43 0.70
-7.09 -1.44 0.66
-7.14 -1.43 0.65
-6.81 -1.35 0.71
-6.95 -1.35 0.68
-7.30 -1.38 0.63
-7.37 -1.37 0.62
-7.45 -1.36 0.60
-7.18 -1.30 0.65
-6.97 -1.25 0.68
-7.40 -1.28 0.61
-7.14 -1.22 0.66
-6.81 -1.16 0.71
-6.95 -1.13 0.69
-9.29 -1.31 0.30
-7.45 -1.06 0.61
-7.30 -1.02 0.63
-6.49 -0.91 0.76
-6.30 -0.87 0.79
-6.42 -0.86 0.77
-8.96 -1.09 0.36
-6.70 -0.85 0.73
-8.66 -1.01 0.41
-8.62 -0.98 0.42
-8.52 -0.94 0.43
-8.51 -0.92 0.43
-8.57 -0.90 0.42
-8.16 -0.84 0.49
-7.87 -0.79 0.54
-7.79 -0.76 0.55
-8.17 -0.77 0.49
-7.87 -0.72 0.54
-7.98 -0.70 0.52
-7.84 -0.67 0.54
-7.83 -0.65 0.54
-7.64 -0.61 0.58
-7.28 -0.54 0.64
-8.22 -0.47 0.71
-9.97 0.97 0.31
-5.83 0.98 1.02
-5.59 0.96 1.06
-5.63 0.98 1.05
-6.02 -1.65 0.76
-6.18 -1.66 0.74
-6.22 -1.65 0.73
-6.22 -1.63 0.73
-6.23 -1.61 0.73
-6.34 -1.61 0.71
-6.32 -1.59 0.72
-6.46 -1.59 0.69
-6.53 -1.58 0.68
-6.43 -1.55 0.70
-6.38 -1.52 0.71
-6.53 -1.52 0.68
-6.48 -1.49 0.69
-6.53 -1.48 0.68
-6.63 -1.47 0.66
-6.80 -1.48 0.64
-6.76 -1.45 0.64
-6.74 -1.43 0.65
-6.85 -1.42 0.63
-6.64 -1.37 0.66
-6.72 -1.36 0.65
-6.63 -1.32 0.67
-6.57 -1.30 0.68
-6.80 -1.31 0.64
-6.76 -1.28 0.64
-7.00 -1.29 0.60
-6.69 -1.23 0.66
-6.74 -1.21 0.65
-6.79 -1.20 0.64
-6.61 -1.15 0.67
-7.16 -1.20 0.58
-7.30 -1.20 0.55
-6.85 -1.12 0.63
-7.35 -1.05 0.55
-8.88 -1.19 0.28
-9.28 -1.20 0.22
-6.69 -0.91 0.66
-6.57 -0.88 0.68
-8.78 -1.07 0.30
-6.17 -0.80 0.75
-8.66 -1.01 0.32
-8.54 -0.97 0.34
-8.60 -0.95 0.33
-8.55 -0.90 0.34
-8.28 -0.85 0.39
-8.60 -0.85 0.33
-7.97 -0.77 0.44
-6.37 -0.63 0.72
-8.57 -0.77 0.34
-7.75 -0.69 0.48
-6.54 -0.56 0.69
-6.39 -0.53 0.71
-6.39 -0.49 0.71
-5.71 0.93 0.99
-5.61 0.93 1.01
-5.72 0.97 0.99
-5.80 0.99 0.97
-5.66 0.99 1.00
-5.60 0.99 1.01
-5.77 1.04 0.97
-5.94 1.08 0.94
-6.05 1.12 0.92
-6.12 1.16 0.91
-6.12 1.19 0.91
-6.17 1.22 0.90
-6.07 1.23 0.91
-5.96 1.23 0.93
-6.08 1.29 0.91
-5.88 1.27 0.95
-6.10 -1.69 0.68
-6.14 -1.68 0.67
-6.07 -1.64 0.69
-6.34 -1.67 0.64
-6.21 -1.63 0.66
-6.14 -1.60 0.68
-6.31 -1.61 0.65
-6.34 -1.59 0.64
-6.48 -1.60 0.61
-6.69 -1.61 0.58
-6.53 -1.56 0.61
-6.81 -1.59 0.56
-6.75 -1.56 0.57
-6.82 -1.55 0.56
-6.69 -1.51 0.58
-6.74 -1.49 0.57
-6.95 -1.51 0.53
-6.90 -1.48 0.54
-7.01 -1.47 0.52
-6.90 -1.43 0.54
-6.80 -1.40 0.56
-6.82 -1.38 0.56
-6.82 -1.36 0.56
-6.75 -1.32 0.57
-6.76 -1.30 0.57
-6.62 -1.26 0.60
-6.49 -1.22 0.62
-6.89 -1.26 0.55
-6.97 -1.25 0.53
-7.14 -1.25 0.50
-5.86 -1.06 0.74
-7.39 -1.23 0.46
-7.20 -1.16 0.49
-7.10 -1.13 0.51
-7.34 -1.14 0.47
-7.13 -1.09 0.51
-6.72 -1.02 0.58
-6.47 -0.97 0.63
-7.39 -1.05 0.46
-6.37 -0.92 0.64
-6.37 -0.90 0.64
-6.02 -0.84 0.71
-5.89 -0.81 0.73
-6.08 -0.81 0.70
-5.88 -0.77 0.73
-5.96 -0.76 0.72
-8.67 -0.98 0.23
-6.05 -0.73 0.70
-8.31 -0.88 0.30
-5.71 -0.64 0.76
-5.95 -0.64 0.72
-7.95 -0.77 0.36
-6.12 -0.61 0.69
-8.10 -0.74 0.33
-7.45 -0.67 0.45
-6.80 -0.60 0.57
-6.44 -0.56 0.63
-6.54 -0.54 0.62
-6.65 -0.53 0.60
-6.54 -0.50 0.62
-6.41 -0.45 0.64
-6.10 -0.32 0.69
-6.25 -0.30 0.67
-6.43 -0.27 0.63
-6.46 -0.00 0.55
-6.42 0.02 0.56
-6.90 0.21 0.47
-8.41 0.59 0.44
-8.58 0.64 0.40
-8.21 0.64 0.47
-7.97 0.79 0.52
-6.01 0.89 0.88
-5.86 0.89 0.91
-6.08 -1.66 0.61
-6.33 -1.69 0.57
-6.34 -1.67 0.56
-6.42 -1.67 0.55
-6.61 -1.66 0.51
-6.30 -1.56 0.57
-5.98 -1.48 0.64
-6.63 -1.58 0.51
-6.95 -1.62 0.45
-7.13 -1.63 0.42
-7.03 -1.59 0.44
-7.21 -1.59 0.40
-7.00 -1.54 0.45
-7.19 -1.54 0.41
-7.02 -1.50 0.44
-7.16 -1.50 0.41
-7.17 -1.47 0.41
-7.33 -1.48 0.38
-7.16 -1.43 0.42
-7.29 -1.42 0.39
-7.20 -1.39 0.41
-7.24 -1.37 0.40
-7.31 -1.36 0.39
-6.50 -1.22 0.54
-6.75 -1.24 0.50
-6.44 -1.17 0.56
-7.50 -1.29 0.35
-7.34 -1.25 0.39
-7.39 -1.23 0.38
-6.38 -1.08 0.57
-6.62 -1.07 0.52
-6.54 -1.04 0.54
-6.56 -1.00 0.54
-6.16 -0.93 0.61
-5.95 -0.89 0.65
-6.18 -0.90 0.61
-6.20 -0.88 0.60
-6.00 -0.84 0.64
-6.13 -0.83 0.62
-6.22 -0.80 0.60
-5.77 -0.70 0.69
-5.71 -0.68 0.70
-5.41 -0.63 0.75
-5.61 -0.63 0.72
-5.71 -0.62 0.70
-5.64 -0.58 0.71
-6.36 -0.61 0.57
-6.07 -0.57 0.63
-6.45 -0.58 0.56
-6.24 -0.54 0.60
-5.95 -0.51 0.65
-6.62 -0.53 0.53
-6.27 -0.48 0.59
-6.79 -0.49 0.49
-5.98 -0.41 0.65
-6.64 -0.40 0.52
-6.02 -0.35 0.64
-6.11 -0.34 0.62
-6.40 -0.31 0.57
-6.48 -0.29 0.55
-6.02 -0.26 0.64
-6.07 -0.24 0.63
-6.15 -0.22 0.61
-6.66 -0.21 0.52
-6.52 -0.17 0.54
-6.45 -0.05 0.56
-7.44 0.12 0.56
-7.74 0.16 0.50
-7.35 0.19 0.57
-7.53 0.25 0.53
-7.71 0.48 0.50
-7.95 0.60 0.45
-8.09 0.67 0.42
-8.00 0.71 0.43
-7.86 0.82 0.46
-5.99 0.91 0.82
-6.07 1.15 0.79
-6.07 1.20 0.79
-5.93 1.26 0.82
-6.14 -1.66 0.53
-6.42 -1.69 0.47
-6.51 -1.69 0.45
-6.46 -1.66 0.46
-6.39 -1.62 0.48
-6.23 -1.57 0.51
-5.98 -1.51 0.56
-6.08 -1.50 0.54
-5.99 -1.47 0.56
-5.94 -1.44 0.57
-5.99 -1.43 0.56
-7.11 -1.60 0.34
-7.22 -1.60 0.32
-6.97 -1.51 0.37
-6.89 -1.48 0.38
-6.03 -1.22 0.56
-6.47 -1.26 0.47
-6.90 -1.30 0.39
-6.95 -1.29 0.38
-6.73 -1.24 0.42
-7.10 -1.27 0.35
-6.47 -1.16 0.47
-6.40 -1.13 0.49
-6.35 -1.10 0.50
-6.63 -1.12 0.44
-6.40 -1.07 0.49
-6.53 -1.06 0.46
-5.88 -0.96 0.59
-6.13 -0.95 0.54
-6.05 -0.92 0.56
-6.12 -0.91 0.54
-6.06 -0.89 0.56
-5.98 -0.86 0.57
-5.86 -0.83 0.60
-5.64 -0.79 0.64
-5.70 -0.77 0.63
-5.78 -0.76 0.61
-5.67 -0.73 0.63
-5.61 -0.71 0.65
-5.50 -0.68 0.67
-5.42 -0.65 0.68
-5.51 -0.64 0.66
-5.73 -0.64 0.62
-5.52 -0.61 0.66
-5.47 -0.59 0.67
-5.56 -0.57 0.66
-5.56 -0.56 0.65
-5.58 -0.54 0.65
-6.28 -0.57 0.51
-5.79 -0.52 0.61
-5.97 -0.51 0.57
-5.97 -0.49 0.57
-6.36 -0.49 0.50
-6.28 -0.47 0.51
-6.49 -0.46 0.47
-5.92 -0.41 0.58
-6.42 -0.41 0.49
-5.88 -0.37 0.59
-6.25 -0.37 0.52
-6.60 -0.36 0.45
-5.37 -0.29 0.69
-5.70 -0.00 0.56
-6.60 0.04 0.38
-6.35 0.06 0.43
-6.02 0.07 0.50
-6.70 0.10 0.36
-6.53 0.14 0.39
-6.35 0.16 0.43
-6.45 0.18 0.40
-6.39 0.26 0.42
-6.21 0.27 0.45
-6.75 0.31 0.34
-6.86 0.34 0.32
-6.58 0.35 0.38
-6.51 0.37 0.39
-6.76 0.40 0.34
-7.54 0.39 0.46
-7.56 0.41 0.46
-7.24 0.42 0.53
-7.92 0.47 0.39
-7.19 0.45 0.54
-7.70 0.64 0.43
-7.82 0.67 0.40
-8.05 0.94 0.34
-5.30 0.94 0.91
-6.09 1.08 0.74
-6.14 1.16 0.72
-5.88 -1.66 0.51
-5.97 -1.66 0.49
-5.85 -1.62 0.52
-5.99 -1.63 0.49
-6.03 -1.61 0.48
-6.07 -1.60 0.47
-5.78 -1.52 0.54
-5.89 -1.53 0.51
-5.59 -1.45 0.58
-5.98 -1.50 0.50
-5.83 -1.46 0.53
-6.27 -1.52 0.44
-5.87 -1.43 0.52
-6.42 -1.50 0.41
-5.79 -1.37 0.54
-5.64 -1.33 0.57
-6.39 -1.37 0.42
-6.52 -1.27 0.39
-6.30 -1.19 0.44
-6.77 -1.20 0.34
-6.40 -1.13 0.42
-6.76 -1.15 0.34
-6.79 -1.13 0.34
-6.49 -1.08 0.40
-6.20 -1.02 0.46
-6.01 -0.98 0.50
-6.02 -0.96 0.50
-6.20 -0.96 0.46
-5.69 -0.88 0.57
-5.61 -0.84 0.58
-5.65 -0.82 0.57
-5.57 -0.78 0.59
-5.66 -0.77 0.57
-5.63 -0.75 0.58
-5.56 -0.72 0.59
-5.41 -0.69 0.63
-5.87 -0.71 0.53
-5.59 -0.67 0.59
-5.44 -0.64 0.62
-5.42 -0.62 0.62
-5.88 -0.64 0.53
-5.37 -0.58 0.63
-5.36 -0.56 0.63
-5.36 -0.54 0.63
-5.60 -0.54 0.59
-6.03 -0.55 0.50
-5.77 -0.51 0.55
-5.77 -0.49 0.55
-6.04 -0.49 0.50
-5.95 -0.47 0.51
-6.08 -0.46 0.49
-5.94 -0.43 0.52
-6.20 -0.42 0.46
-6.41 -0.41 0.42
-6.02 -0.37 0.50
-6.47 -0.35 0.41
-5.50 -0.26 0.61
-5.32 -0.24 0.64
-5.53 -0.22 0.60
-6.35 -0.23 0.43
-6.83 -0.22 0.33
-5.92 -0.18 0.52
-6.11 -0.16 0.48
-5.49 -0.13 0.61
-5.34 -0.11 0.64
-5.29 -0.09 0.65
-5.35 -0.04 0.64
-6.56 0.03 0.60
-7.06 0.05 0.49
-6.61 0.09 0.59
-6.76 0.25 0.55
-6.72 0.28 0.56
-6.90 0.31 0.52
-7.40 0.41 0.41
-7.24 0.44 0.45
-7.19 0.45 0.46
-7.28 0.48 0.44
-7.53 0.51 0.38
-7.35 0.52 0.42
-7.48 0.57 0.39
-7.22 0.57 0.45
-6.82 0.56 0.53
-7.73 0.65 0.34
-7.77 0.67 0.33
-7.64 0.68 0.35
-7.59 0.69 0.36
-6.10 0.85 0.68
-5.99 0.86 0.70
-5.77 0.91 0.74
-5.38 0.93 0.83
-5.40 0.95 0.82
-5.72 1.01 0.75
-5.53 1.00 0.79
-5.45 1.00 0.81
-5.87 1.08 0.71
-5.44 1.03 0.81
-5.76 1.10 0.74
-5.70 1.14 0.75
-5.76 1.18 0.73
-5.58 1.16 0.77
-5.51 1.17 0.79
-5.60 1.20 0.77
-5.61 1.22 0.76
-5.46 1.20 0.79
-5.53 1.23 0.78
-5.33 1.21 0.82
-5.41 1.27 0.80
-5.41 1.32 0.80
-5.12 -1.64 0.59
-5.26 -1.65 0.56
-5.49 -1.66 0.51
-5.46 -1.64 0.52
-5.42 -1.61 0.53
-5.47 -1.60 0.52
-5.81 -1.65 0.45
-5.67 -1.61 0.48
-5.73 -1.60 0.46
-5.91 -1.61 0.43
-5.95 -1.58 0.42
-5.95 -1.56 0.42
-6.06 -1.56 0.39
-6.11 -1.55 0.38
-5.95 -1.50 0.42
-5.82 -1.46 0.45
-5.74 -1.43 0.47
-5.66 -1.39 0.48
-5.90 -1.42 0.43
-5.71 -1.36 0.47
-6.01 -1.39 0.41
-5.85 -1.33 0.44
-5.65 -1.28 0.49
-6.07 -1.33 0.40
-6.05 -1.30 0.40
-6.19 -1.28 0.37
-6.11 -1.25 0.39
-6.21 -1.25 0.37
-6.13 -1.21 0.39
-6.11 -1.19 0.39
-6.33 -1.20 0.35
-6.07 -1.09 0.40
-5.78 -1.03 0.47
-5.72 -1.00 0.48
-5.49 -0.96 0.53
-5.58 -0.95 0.51
-5.86 -0.96 0.45
-6.23 -0.99 0.37
-6.30 -0.98 0.35
-5.95 -0.92 0.43
-6.33 -0.94 0.35
-5.46 -0.82 0.54
-5.44 -0.80 0.54
-5.26 -0.77 0.58
-5.28 -0.73 0.58
-5.28 -0.71 0.58
-5.32 -0.70 0.57
-5.22 -0.67 0.59
-5.29 -0.66 0.57
-5.46 -0.66 0.54
-5.37 -0.63 0.56
-5.35 -0.61 0.56
-5.32 -0.58 0.57
-5.30 -0.56 0.57
-5.35 -0.54 0.56
-5.81 -0.56 0.46
-5.61 -0.52 0.51
-5.68 -0.51 0.49
-5.80 -0.50 0.46
-5.82 -0.48 0.46
-5.84 -0.46 0.46
-6.37 -0.39 0.64
-6.12 -0.36 0.70
-6.20 -0.35 0.68
-6.30 -0.29 0.66
-6.27 -0.27 0.67
-6.26 -0.25 0.67
-6.22 -0.23 0.68
-6.46 -0.21 0.62
-6.34 -0.19 0.65
-5.37 -0.01 0.48
-5.79 0.01 0.39
-6.33 0.10 0.58
-6.44 0.12 0.56
-6.46 0.13 0.55
-6.51 0.15 0.54
-6.40 0.17 0.56
-6.65 0.23 0.51
-6.58 0.24 0.52
-6.70 0.57 0.49
-6.84 0.61 0.45
-6.88 0.65 0.44
-7.23 0.70 0.36
-6.05 0.83 0.62
-6.06 0.85 0.62
-5.78 0.86 0.68
-5.80 0.88 0.68
-5.66 0.88 0.71
-6.10 0.98 0.61
-5.40 0.91 0.76
-4.88 0.88 0.88
-5.77 1.03 0.68
-4.87 0.91 0.88
-5.66 1.05 0.70
-5.57 1.05 0.72
-5.53 1.06 0.73
-5.51 1.07 0.73
-5.53 1.09 0.73
-5.54 1.11 0.72
-5.41 1.10 0.75
-5.51 1.13 0.73
-5.59 1.16 0.71
-5.61 1.18 0.70
-5.57 1.19 0.71
-5.52 1.20 0.72
-5.36 1.18 0.76
-5.39 1.20 0.75
-5.45 1.23 0.74
-5.37 1.23 0.75
-5.39 1.28 0.74
-5.40 1.30 0.74
-5.43 1.32 0.74
-5.58 -1.68 0.42
-5.49 -1.64 0.44
-5.74 -1.68 0.38
-5.74 -1.66 0.38
-5.79 -1.65 0.37
-5.75 -1.41 0.39
-5.55 -1.35 0.43
-5.86 -1.37 0.36
-5.70 -1.32 0.40
-5.64 -1.29 0.42
-5.60 -1.27 0.43
-5.77 -1.28 0.39
-5.71 -1.25 0.40
-5.51 -0.97 0.45
-5.49 -0.95 0.46
-5.68 -0.86 0.41
-5.71 -0.83 0.41
-5.80 -0.82 0.39
-5.61 -0.78 0.43
-5.78 -0.78 0.39
-5.31 -0.72 0.50
-5.38 -0.71 0.48
-5.26 -0.68 0.51
-5.68 -0.68 0.41
-5.63 -0.65 0.43
-5.69 -0.59 0.41
-5.25 -0.53 0.51
-5.39 -0.53 0.48
-5.40 -0.47 0.48
-4.90 -0.22 0.59
-5.10 -0.18 0.55
-5.24 -0.16 0.51
-5.32 -0.15 0.50
-5.76 -0.14 0.40
-5.52 -0.06 0.45
-5.17 -0.02 0.53
-6.77 0.05 0.41
-7.09 0.07 0.34
-6.72 0.19 0.42
-6.73 0.35 0.41
-6.81 0.37 0.40
-6.85 0.49 0.38
-6.97 0.55 0.35
-6.65 0.58 0.43
-6.85 0.65 0.38
-5.91 0.80 0.59
-5.71 0.82 0.64
-5.73 0.84 0.63
-5.88 0.89 0.59
-5.71 0.88 0.63
-5.76 0.94 0.62
-5.12 0.86 0.77
-5.76 0.99 0.62
-5.82 1.01 0.60
-5.79 1.02 0.61
-5.82 1.06 0.60
-5.49 1.02 0.68
-5.80 1.09 0.60
-5.46 1.05 0.68
-5.62 1.09 0.64
-5.51 1.09 0.67
-5.55 1.11 0.66
-5.57 1.13 0.65
-5.51 1.13 0.67
-5.43 1.13 0.68
-5.56 1.17 0.65
-5.46 -1.51 0.38
-5.14 -0.42 0.47
-4.65 -0.30 0.58
-4.94 -0.29 0.51
-5.17 -0.22 0.46
-5.51 -0.17 0.38
-1.76 0.91 0.56
-2.13 0.81 0.47
-1.63 0.88 0.33
-2.15 -0.83 0.26
-2.24 0.76 0.20
-0.80 -0.89 0.32
-1.52 0.74 0.30
-1.67 0.86 0.24
-0.71 -0.88 0.29
-0.89 -0.87 0.30
-0.80 -0.90 0.28
-1.66 0.84 0.22
-1.54 0.87 0.23
-0.99 -0.96 0.26
-1.62 0.86 0.21
-1.47 0.80 0.24
-1.03 -0.97 0.24
-0.85 -0.87 0.24
-1.04 -0.88 0.25
-0.78 -0.83 0.24
-1.08 -0.84 0.25
-1.19 -0.96 0.21
-0.91 -0.91 0.21
-1.00 -0.89 0.22
-1.08 -0.85 0.23
-1.19 -0.94 0.20
-0.93 -0.85 0.21
-1.11 -0.89 0.20
-1.08 -0.86 0.20
-1.11 -0.81 0.20
-1.14 -0.35 0.27
-10.98 0.18 1.46
-10.99 0.23 1.46
-11.29 0.04 1.31
-11.08 0.06 1.33
-10.72 0.12 1.35
-11.17 0.18 1.32
-11.16 0.21 1.32
-11.00 0.23 1.33
-12.74 0.78 1.20
-12.30 0.79 1.23
-12.63 0.84 1.21
-12.58 0.90 1.21
-10.95 -0.02 1.34
-11.44 0.07 1.17
-11.45 0.24 1.17
-2.63 -0.39 1.79
-8.84 -0.86 1.28
-10.55 -0.15 1.25
-10.84 -0.13 1.22
-10.45 -0.10 1.25
-13.74 -0.09 0.98
-13.60 -0.06 0.99
-10.97 -0.02 1.21
-6.40 0.04 1.51
-6.62 0.06 1.49
-6.26 -0.54 1.40
-6.68 -0.55 1.36
-6.50 -0.51 1.37
-6.79 -0.51 1.35
-6.76 -0.49 1.35
-6.50 -0.01 1.50
-5.73 0.00 1.40
-9.48 0.59 1.15
-9.45 0.64 1.15
-6.25 -0.58 1.35
-6.24 -0.56 1.35
-6.52 -0.56 1.32
-6.75 -0.55 1.30
-6.76 -0.53 1.30
-6.63 -0.50 1.31
-6.57 -0.48 1.31
-6.77 -0.47 1.29
-6.82 -0.45 1.29
-6.78 -0.42 1.29
-6.28 -0.34 1.34
-6.47 -0.33 1.32
-6.04 -0.29 1.37
-9.65 -0.39 1.01
-6.29 -0.26 1.34
-6.09 -0.23 1.36
-6.27 -0.20 1.34
-6.17 -0.18 1.35
-6.15 -0.14 1.35
-9.57 -0.11 1.01
-9.49 -0.08 1.02
-5.65 -0.04 1.40
-5.72 -0.02 1.40
-6.30 0.02 1.43
-6.41 0.04 1.42
-6.08 0.05 1.45
-6.19 0.07 1.44
-8.74 0.48 1.16
-8.97 0.54 1.14
-9.22 0.57 1.11
-9.03 0.63 1.13
-8.97 0.70 1.13
-3.29 0.57 1.74
-6.50 -0.62 1.26
-6.88 -0.62 1.22
-6.25 -0.56 1.29
-6.24 -0.54 1.29
-6.49 -0.53 1.27
-6.36 -0.51 1.28
-6.34 -0.48 1.28
-6.35 -0.47 1.28
-6.34 -0.44 1.28
-6.60 -0.44 1.25
-6.06 -0.39 1.31
-7.06 -0.27 1.35
-6.82 -0.23 1.37
-10.19 -0.31 1.02
-10.22 -0.28 1.01
-10.17 -0.25 1.02
-6.32 -0.15 1.43
-10.36 -0.18 1.00
-6.30 -0.08 1.43
-6.53 -0.07 1.40
-6.55 -0.05 1.40
-6.31 -0.03 1.43
-6.35 -0.01 1.42
-5.95 -0.44 1.27
-6.77 -0.45 1.18
-9.91 -0.26 0.82
-9.53 -0.17 0.87
-8.84 0.46 1.02
-6.36 -0.51 1.16
-10.07 -0.15 0.88
-5.72 -0.00 1.18
-10.05 0.16 0.81
-8.98 0.51 0.94
-6.71 -0.68 1.06
-6.59 -0.65 1.08
-6.31 -0.58 1.11
-7.95 -0.65 0.91
-7.17 -0.58 1.00
-6.58 -0.52 1.08
-6.07 -0.47 1.14
-6.30 -0.46 1.11
-7.07 -0.48 1.02
-6.29 -0.42 1.12
-5.98 -0.39 1.15
-6.08 -0.37 1.14
-5.54 -0.33 1.21
-5.49 -0.31 1.22
-5.50 -0.29 1.21
-5.49 -0.27 1.22
-5.60 -0.26 1.20
-5.34 -0.23 1.23
-5.18 -0.21 1.25
-5.35 -0.20 1.23
-5.75 -0.19 1.18
-5.53 -0.17 1.21
-5.56 -0.15 1.21
-10.33 0.03 0.69
-9.82 0.05 0.76
-9.66 0.08 0.78
-9.60 0.10 0.79
-9.93 0.13 0.75
-10.02 0.16 0.73
-8.17 0.26 0.98
-9.04 0.37 0.86
-8.96 0.40 0.87
-5.96 0.29 1.28
-9.02 0.47 0.86
-8.88 0.48 0.88
-9.06 0.56 0.86
-9.23 0.60 0.83
-9.04 0.63 0.86
-9.22 0.67 0.83
-9.87 0.76 0.75
-9.64 0.79 0.78
-9.83 0.84 0.75
-6.66 -0.69 1.00
-6.67 -0.65 1.00
-6.44 -0.62 1.03
-7.18 -0.65 0.94
-6.45 -0.58 1.03
-6.67 -0.57 1.00
-6.54 -0.54 1.02
-6.77 -0.53 0.99
-6.57 -0.50 1.02
-6.59 -0.48 1.01
-6.49 -0.45 1.03
-6.47 -0.43 1.03
-6.18 -0.40 1.07
-6.25 -0.38 1.06
-5.62 -0.33 1.14
-5.56 -0.31 1.15
-5.47 -0.29 1.16
-5.56 -0.28 1.15
-5.39 -0.25 1.17
-5.53 -0.24 1.15
-5.47 -0.22 1.16
-5.24 -0.19 1.19
-5.56 -0.18 1.15
-5.31 -0.16 1.18
-5.29 -0.14 1.19
-5.09 -0.12 1.21
-5.83 -0.09 1.30
-5.77 -0.06 1.31
-5.60 -0.04 1.33
-6.01 -0.03 1.27
-10.18 -0.02 0.72
-4.66 -0.00 1.22
-4.68 0.01 1.22
-4.86 0.03 1.19
-4.79 0.05 1.20
-4.72 0.06 1.21
-4.84 0.08 1.19
-5.32 0.11 1.13
-6.71 0.17 0.93
-7.11 0.20 0.87
-7.31 0.22 0.84
-8.87 0.46 0.82
-9.14 0.50 0.78
-9.29 0.55 0.76
-8.79 0.59 0.82
-9.56 0.71 0.71
-9.54 0.81 0.71
-6.64 -0.63 0.94
-6.54 -0.58 0.96
-7.67 -0.61 0.80
-7.53 -0.55 0.82
-6.97 -0.50 0.90
-7.69 -0.52 0.80
-6.55 -0.44 0.96
-6.43 -0.41 0.97
-6.25 -0.38 1.00
-6.21 -0.36 1.00
-5.98 -0.33 1.04
-5.59 -0.30 1.09
-5.78 -0.28 1.06
-5.60 -0.26 1.09
-5.42 -0.24 1.11
-5.31 -0.21 1.13
-5.20 -0.19 1.15
-4.96 -0.17 1.18
-5.17 -0.16 1.15
-5.09 -0.14 1.16
-5.01 -0.12 1.17
-4.62 -0.10 1.23
-4.91 -0.09 1.19
-4.63 -0.07 1.22
-4.63 -0.05 1.22
-4.66 -0.03 1.22
-4.63 -0.02 1.22
-5.45 0.00 1.26
-5.62 0.02 1.23
-5.54 0.03 1.24
-5.44 0.05 1.26
-5.45 0.06 1.26
-6.75 0.09 1.06
-7.81 0.23 0.90
-7.69 0.24 0.92
-7.34 0.25 0.97
-8.26 0.30 0.83
-7.98 0.31 0.87
-7.94 0.33 0.88
-7.89 0.35 0.89
-8.70 0.41 0.77
-8.74 0.45 0.76
-8.58 0.47 0.78
-8.63 0.49 0.78
-8.38 0.50 0.81
-5.95 0.38 1.18
-8.41 0.55 0.81
-8.16 0.57 0.84
-8.59 0.62 0.78
-8.71 0.66 0.76
-8.76 0.68 0.75
-9.03 0.72 0.71
-6.07 0.52 1.15
-9.01 0.77 0.71
-6.13 0.56 1.14
-5.70 0.56 1.21
-5.82 0.60 1.19
-6.65 -0.59 0.87
-7.37 -0.55 0.77
-6.35 -0.43 0.92
-5.74 -0.38 1.01
-6.21 -0.38 0.94
-6.21 -0.36 0.94
-6.14 -0.34 0.95
-5.90 -0.31 0.98
-5.78 -0.29 1.00
-6.29 -0.23 1.13
-6.32 -0.22 1.13
-6.18 -0.20 1.15
-5.87 -0.17 1.20
-5.90 -0.16 1.19
-5.92 -0.14 1.19
-6.05 -0.13 1.17
-5.83 -0.11 1.20
-5.57 -0.09 1.24
-5.57 -0.07 1.24
-5.58 -0.06 1.24
-6.06 -0.05 1.17
-5.79 -0.03 1.21
-5.69 -0.01 1.22
-4.76 -0.00 1.10
-4.73 0.01 1.11
-4.67 0.03 1.12
-4.74 0.06 1.11
-4.91 0.10 1.08
-7.27 0.38 0.71
-7.99 0.48 0.81
-8.19 0.53 0.78
-8.63 0.69 0.70
-8.78 0.73 0.68
-8.97 0.76 0.65
-6.06 -0.41 0.90
-5.97 -0.39 0.92
-5.98 -0.35 0.92
-6.00 -0.33 0.91
-6.11 -0.32 0.90
-6.14 -0.26 0.89
-5.66 -0.19 0.97
-5.22 -0.16 1.03
-5.77 -0.15 0.95
-5.09 -0.12 1.05
-5.01 -0.10 1.07
-4.70 -0.07 1.11
-4.89 -0.04 1.08
-4.68 -0.02 1.12
-5.34 0.00 1.18
-5.33 0.01 1.18
-6.19 0.03 1.04
-8.03 0.06 0.74
-7.37 0.08 0.84
-6.07 0.10 1.06
-7.39 0.14 0.84
-5.23 0.11 1.19
-7.13 0.17 0.88
-7.24 0.19 0.86
-7.44 0.21 0.83
-7.41 0.23 0.84
-7.49 0.26 0.82
-7.39 0.27 0.84
-7.49 0.29 0.82
-7.85 0.33 0.76
-7.63 0.34 0.80
-7.68 0.36 0.79
-7.90 0.39 0.75
-7.65 0.40 0.79
-7.87 0.43 0.76
-7.46 0.43 0.82
-7.91 0.48 0.75
-7.77 0.49 0.77
-8.08 0.53 0.72
-8.14 0.55 0.71
-6.08 0.47 1.05
-8.92 0.69 0.58
-9.21 0.74 0.53
-6.73 0.63 0.94
-5.81 0.63 1.09
-5.63 0.95 1.11
-6.63 -0.53 0.74
-6.53 -0.40 0.99
-6.21 -0.33 1.04
-6.30 -0.30 1.02
-6.23 -0.27 1.04
-6.20 -0.25 1.04
-6.33 -0.24 1.02
-6.10 -0.20 1.06
-5.93 -0.17 1.08
-5.78 -0.14 1.11
-6.10 -0.13 1.06
-6.32 -0.12 1.02
-5.62 -0.09 1.13
-5.35 -0.06 1.18
-5.47 -0.04 1.16
-5.33 -0.01 1.18
-4.64 -0.00 1.01
-4.64 0.01 1.01
-4.80 0.03 0.98
-6.74 0.07 0.89
-6.90 0.09 0.86
-7.11 0.11 0.82
-7.16 0.13 0.82
-7.18 0.15 0.81
-7.15 0.17 0.82
-7.22 0.19 0.80
-7.45 0.21 0.76
-7.43 0.23 0.77
-7.40 0.25 0.77
-7.29 0.27 0.79
-7.40 0.29 0.77
-7.20 0.30 0.81
-7.31 0.33 0.79
-7.32 0.35 0.78
-7.40 0.37 0.77
-7.41 0.39 0.77
-7.95 0.43 0.67
-8.06 0.46 0.65
-6.80 0.41 0.87
-6.95 0.44 0.85
-7.33 0.48 0.78
-8.23 0.56 0.62
-5.72 0.43 1.06
-5.55 0.44 1.09
-6.21 0.53 0.97
-6.16 0.56 0.98
-6.01 0.56 1.00
-5.52 0.54 1.09
-5.46 0.58 1.10
-6.00 0.74 1.00
-5.74 0.81 1.04
-5.94 0.85 1.01
-5.82 0.85 1.03
-5.64 0.84 1.06
-5.68 0.86 1.05
-5.73 0.89 1.04
-5.73 0.90 1.04
-5.68 0.91 1.05
-5.64 0.92 1.06
-5.63 0.94 1.06
-6.05 -0.49 0.77
-6.18 -0.46 0.75
-5.99 -0.43 0.78
-5.86 -0.40 0.80
-6.24 -0.40 0.74
-6.13 -0.38 0.76
-6.20 -0.36 0.74
-6.06 -0.34 0.77
-6.27 -0.32 0.73
-5.90 -0.29 0.80
-5.79 -0.27 0.81
-5.81 -0.25 0.81
-5.96 -0.23 0.79
-6.00 -0.22 0.78
-5.52 -0.19 0.86
-5.65 -0.17 0.84
-5.73 -0.15 0.82
-6.27 -0.14 0.73
-6.32 -0.12 0.72
-5.50 -0.09 0.86
-6.02 -0.08 0.77
-5.50 -0.06 0.86
-5.39 -0.04 0.88
-5.05 -0.02 0.94
-5.23 -0.00 1.10
-5.21 0.01 1.10
-6.23 0.03 0.92
-6.09 0.05 0.94
-6.62 0.07 0.85
-6.77 0.09 0.82
-7.18 0.11 0.75
-7.41 0.14 0.71
-7.45 0.16 0.70
-7.31 0.17 0.72
-7.33 0.19 0.72
-7.21 0.21 0.74
-7.24 0.23 0.73
-7.31 0.25 0.72
-7.36 0.27 0.71
-7.26 0.29 0.73
-7.11 0.30 0.76
-7.05 0.32 0.77
-6.82 0.32 0.81
-7.44 0.37 0.70
-6.70 0.35 0.83
-6.70 0.37 0.83
-6.60 0.38 0.85
-6.70 0.41 0.83
-6.70 0.43 0.83
-6.62 0.44 0.84
-6.61 0.46 0.84
-6.64 0.48 0.84
-6.56 0.49 0.85
-6.48 0.50 0.87
-6.80 0.54 0.81
-6.61 0.54 0.84
-6.72 0.57 0.82
-6.34 0.56 0.89
-6.74 0.61 0.82
-6.13 0.58 0.93
-6.79 0.65 0.81
-6.76 0.66 0.81
-5.99 0.61 0.95
-5.82 0.61 0.98
-5.99 0.64 0.95
-6.08 0.67 0.93
-5.86 0.66 0.97
-5.75 0.67 0.99
-5.75 0.68 0.99
-5.83 0.71 0.98
-5.69 0.71 1.00
-5.80 0.74 0.98
-5.74 0.75 0.99
-5.83 0.77 0.97
-5.92 0.80 0.96
-5.78 0.80 0.98
-5.73 0.81 0.99
-5.95 0.85 0.95
-5.98 0.87 0.94
-5.88 0.88 0.96
-5.61 0.86 1.01
-5.66 0.88 1.00
-5.67 0.89 1.00
-5.70 0.91 0.99
-3.43 0.72 1.40
-5.92 -0.45 0.73
-5.78 -0.40 0.75
-5.62 -0.37 0.78
-5.69 -0.36 0.77
-5.93 -0.35 0.73
-5.89 -0.33 0.73
-5.99 -0.27 0.71
-6.07 -0.24 0.70
-5.85 -0.21 0.74
-5.82 -0.19 0.74
-5.74 -0.17 0.76
-5.70 -0.15 0.77
-5.50 -0.13 0.80
-5.60 -0.09 1.03
-5.37 -0.07 1.08
-5.80 -0.06 1.00
-5.56 -0.05 1.04
-5.63 -0.03 1.03
-5.46 -0.02 1.06
-4.95 0.03 0.84
-4.70 0.05 0.88
-4.85 0.06 0.85
-5.43 0.09 0.75
-4.55 0.09 0.91
-5.14 0.12 0.80
-4.51 0.12 0.92
-4.88 0.15 0.85
-7.17 0.22 0.68
-6.90 0.24 0.73
-7.32 0.27 0.65
-7.04 0.28 0.70
-7.29 0.30 0.66
-6.81 0.30 0.75
-6.85 0.34 0.74
-7.69 0.40 0.58
-7.37 0.40 0.64
-6.76 0.39 0.75
-7.49 0.45 0.61
-7.50 0.47 0.61
-7.21 0.47 0.67
-6.58 0.49 0.79
-6.76 0.55 0.75
-6.45 0.55 0.81
-6.60 0.58 0.78
-5.79 0.55 0.93
-6.17 0.59 0.86
-7.78 0.75 0.55
-6.24 0.65 0.84
-6.56 0.70 0.78
-5.99 0.66 0.89
-5.87 0.68 0.91
-6.12 0.72 0.86
-5.47 0.67 0.99
-5.53 0.69 0.98
-5.88 0.75 0.91
-5.33 0.70 1.01
-5.67 0.75 0.95
-5.89 0.81 0.90
-5.60 0.79 0.96
-5.65 0.81 0.95
-5.63 0.83 0.95
-5.65 0.87 0.95
-5.58 -0.41 0.72
-5.45 -0.37 0.75
-5.53 -0.30 0.73
-5.79 -0.17 0.68
-5.81 -0.14 0.68
-5.34 -0.11 0.77
-5.78 -0.10 0.68
-4.08 -0.06 1.00
-5.55 -0.06 0.72
-5.94 -0.02 0.65
-6.83 -0.00 0.68
-6.64 0.03 0.72
-7.11 0.07 0.62
-7.13 0.09 0.62
-6.90 0.22 0.66
-7.06 0.26 0.63
-6.90 0.29 0.66
-7.41 0.35 0.56
-7.05 0.37 0.63
-7.02 0.39 0.63
-6.63 0.39 0.71
-7.36 0.50 0.56
-7.53 0.55 0.53
-6.81 0.54 0.67
-6.10 0.59 0.81
-6.10 0.60 0.81
-5.95 0.61 0.84
-6.08 0.69 0.81
-5.89 0.70 0.85
-5.82 0.71 0.86
-5.64 0.70 0.90
-5.63 0.73 0.90
-5.84 0.79 0.85
-5.57 0.79 0.91
-5.76 0.83 0.87
-5.76 0.84 0.87
-5.75 -0.22 0.90
-5.67 -0.18 0.91
-6.27 -0.18 0.79
-5.72 -0.16 0.90
-5.41 -0.12 0.96
-5.16 -0.09 1.01
-5.16 -0.06 1.01
-5.31 -0.04 0.98
-5.18 -0.03 1.01
-1.39 0.05 1.45
-6.38 0.49 0.70
-6.54 0.52 0.67
-3.96 0.35 1.20
-6.38 0.58 0.70
-6.32 0.59 0.71
-6.01 0.58 0.77
-5.84 0.58 0.81
-5.75 0.59 0.83
-5.62 0.59 0.85
-5.85 0.63 0.81
-5.86 0.65 0.80
-5.80 0.66 0.81
-6.03 0.71 0.77
-5.54 0.72 0.87
-5.49 0.75 0.88
-5.14 -0.07 0.68
-5.26 -0.06 0.65
-5.23 -0.02 0.66
-5.11 -0.00 0.91
-5.35 0.01 0.86
-6.25 0.06 0.67
-6.24 0.10 0.67
-6.48 0.12 0.62
-6.36 0.13 0.64
-6.40 0.15 0.63
-6.39 0.17 0.63
-6.35 0.18 0.64
-6.40 0.20 0.63
-6.52 0.22 0.60
-6.67 0.26 0.57
-6.51 0.31 0.61
-6.64 0.33 0.58
-6.43 0.34 0.62
-5.60 0.54 0.80
-5.42 0.54 0.83
-5.69 0.58 0.77
-5.36 0.57 0.85
-5.69 0.61 0.77
-5.66 0.63 0.78
-5.18 0.60 0.88
-5.75 0.67 0.76
-5.18 0.62 0.88
-5.58 0.68 0.79
-4.81 0.61 0.96
-5.50 0.70 0.81
-4.75 0.63 0.97
-5.45 0.73 0.82
-5.40 0.74 0.83
-5.67 0.78 0.77
-4.75 0.71 0.97
-4.91 0.75 0.93
-4.99 0.77 0.92
-5.40 0.84 0.83
-5.01 0.82 0.91
-4.96 0.83 0.92
-4.87 0.83 0.94
-4.99 0.86 0.91
-3.84 0.79 1.16
-4.13 0.85 1.09
-3.80 0.82 1.17
-2.53 -0.79 1.16
-2.03 -0.57 1.28
-3.18 -0.54 1.03
-3.30 -0.43 1.00
-6.10 -0.33 0.70
-6.05 -0.31 0.71
-6.10 -0.30 0.70
-6.21 -0.22 0.68
-5.30 -0.15 0.87
-5.12 -0.13 0.91
-5.25 -0.12 0.89
-5.71 -0.11 0.79
-5.47 -0.09 0.84
-6.02 -0.08 0.72
-6.04 -0.07 0.71
-5.45 -0.05 0.84
-5.48 -0.03 0.83
-5.23 -0.02 0.89
-5.75 0.04 0.71
-6.05 0.06 0.65
-5.89 0.08 0.68
-6.16 0.19 0.62
-6.21 0.28 0.61
-6.36 0.30 0.57
-4.32 0.23 1.03
-3.92 0.22 1.12
-3.96 0.23 1.11
-4.13 0.25 1.07
-3.75 0.25 1.16
-3.95 0.27 1.11
-6.42 0.56 0.55
-5.29 0.50 0.80
-4.79 0.50 0.92
-4.71 0.51 0.94
-5.08 0.56 0.85
-4.90 0.55 0.89
-5.60 0.64 0.73
-4.91 0.58 0.89
-4.99 0.60 0.87
-5.07 0.63 0.85
-5.66 0.70 0.72
-5.07 0.65 0.85
-5.15 0.68 0.83
-4.94 0.67 0.88
-5.84 0.79 0.67
-4.62 0.68 0.95
-4.60 0.69 0.95
-4.73 0.76 0.92
-4.88 0.80 0.88
-4.53 0.77 0.96
-4.86 0.85 0.89
-4.84 0.86 0.89
-3.00 -0.56 1.02
-2.67 -0.43 1.09
-2.49 -0.31 1.13
-2.74 -0.17 1.08
-5.12 0.56 0.79
-5.14 0.58 0.78
-5.01 0.58 0.81
-5.17 0.61 0.77
-5.02 0.62 0.80
-5.63 0.70 0.66
-5.14 0.66 0.77
-4.82 0.64 0.85
-5.80 0.77 0.62
-5.56 0.78 0.67
-4.82 0.78 0.84
-4.87 0.84 0.83
-3.30 -0.67 0.90
-3.39 -0.64 0.88
-3.46 -0.59 0.86
-3.27 -0.55 0.91
-2.98 -0.45 0.97
-3.44 -0.46 0.87
