# .PCD v0.7 - Point Cloud Data file format
VERSION 0.7
FIELDS x y z
SIZE 4 4 4
TYPE F F F
COUNT 1 1 1
WIDTH 2032
HEIGHT 1
VIEWPOINT 0 0 0 1 0 0 0
POINTS 2032
DATA ASCII
-9.20 -0.86 1.49
-7.75 -0.97 1.47
-7.76 -0.87 1.47
-7.91 -1.08 1.35
-7.70 -0.96 1.37
-7.70 -0.94 1.37
-7.54 -0.90 1.38
-7.66 -0.89 1.37
-7.88 -1.01 1.30
-7.82 -0.98 1.30
-7.70 -0.94 1.31
-7.64 -0.91 1.32
-15.74 1.18 0.62
-8.05 -1.15 1.22
-7.87 -1.10 1.24
-7.79 -1.05 1.25
-8.01 -1.04 1.22
-5.42 -0.76 1.47
-5.48 -0.75 1.46
-7.71 -0.94 1.25
-7.75 -0.92 1.25
-8.18 -1.31 1.15
-8.19 -1.26 1.15
-8.06 -1.22 1.16
-7.74 -1.13 1.19
-7.84 -1.12 1.18
-7.92 -1.11 1.17
-7.78 -1.07 1.19
-7.93 -1.06 1.17
-7.67 -1.01 1.20
-7.77 -0.97 1.19
-9.27 1.00 1.11
-9.25 1.03 1.11
-9.33 1.08 1.10
-8.13 -1.38 1.08
-8.07 -1.30 1.09
-8.00 -1.27 1.10
-8.08 -1.25 1.09
-7.82 -1.19 1.12
-7.86 -1.17 1.11
-7.78 -1.14 1.12
-7.81 -1.12 1.12
-7.58 -1.05 1.14
-7.54 -0.95 1.15
-7.48 -0.92 1.15
-7.49 -0.90 1.15
-7.42 -0.87 1.16
-7.47 -0.83 1.15
-7.79 -1.28 1.05
-7.84 -1.24 1.05
-7.75 -1.18 1.06
-7.27 -0.99 1.11
-7.46 -0.96 1.09
-7.68 -0.96 1.07
-7.54 -0.93 1.08
-7.82 -0.93 1.05
-7.65 -0.87 1.07
-7.36 -0.82 1.10
-7.52 -0.81 1.09
-7.54 -0.79 1.08
-14.11 0.46 0.40
-14.03 0.53 0.41
-13.96 0.56 0.42
-13.94 0.60 0.42
-15.11 0.98 0.27
-7.59 -1.31 1.01
-7.89 -1.30 0.97
-7.82 -1.27 0.98
-7.68 -1.16 1.00
-7.46 -1.01 1.02
-7.84 -1.01 0.98
-7.62 -0.94 1.00
-7.58 -0.89 1.01
-8.02 -0.85 0.96
-7.77 -1.31 0.92
-7.57 -1.24 0.94
-7.32 -1.11 0.97
-7.37 -1.07 0.97
-7.48 -0.99 0.95
-7.89 -1.01 0.90
-7.81 -0.98 0.91
-10.06 -0.35 0.63
-11.01 -0.22 0.51
-8.21 -1.47 0.79
-8.15 -1.43 0.79
-7.58 -1.31 0.87
-7.41 -1.26 0.89
-7.74 -1.28 0.85
-7.56 -1.21 0.87
-5.43 -0.93 1.16
-5.81 -0.96 1.11
-7.22 -1.10 0.92
-6.68 -1.02 0.99
-7.50 -1.09 0.88
-7.72 -1.09 0.85
-6.73 -0.96 0.98
-8.08 -1.05 0.80
-7.71 -0.99 0.85
-7.86 -0.93 0.83
-7.43 -0.85 0.89
-6.82 -0.77 0.97
-6.95 -0.76 0.96
-6.78 -0.73 0.98
-9.80 -0.34 0.57
-7.74 -1.40 0.78
-5.69 -1.00 1.07
-7.48 -1.20 0.81
-5.86 -0.98 1.04
-7.64 -1.15 0.79
-7.49 -1.09 0.81
-7.82 -1.07 0.77
-7.86 -1.03 0.76
-6.61 -0.88 0.94
-6.13 -0.73 1.01
-9.81 -0.34 0.49
-10.17 0.03 0.56
-4.34 -1.07 1.20
-4.33 -1.05 1.20
-4.37 -1.04 1.20
-4.42 -1.03 1.19
-4.44 -1.02 1.19
-4.36 -0.99 1.20
-7.61 -1.46 0.72
-4.17 -0.93 1.23
-4.33 -0.94 1.21
-7.73 -1.40 0.70
-4.35 -0.91 1.20
-4.39 -0.90 1.20
-7.81 -1.34 0.69
-7.68 -1.28 0.71
-5.93 -1.03 0.97
-5.86 -1.00 0.98
-5.96 -1.00 0.96
-5.96 -0.98 0.96
-6.09 -0.97 0.94
-6.10 -0.95 0.94
-5.90 -0.91 0.97
-5.86 -0.89 0.98
-5.75 -0.86 1.00
-5.80 -0.84 0.99
-5.60 -0.80 1.02
-5.65 -0.79 1.01
-9.79 -0.35 0.62
-10.26 -0.31 0.55
-10.61 -0.29 0.50
-10.60 -0.27 0.50
-9.78 -0.20 0.62
-9.90 -0.17 0.61
-9.87 -0.12 0.61
-9.90 -0.10 0.60
-9.39 0.03 0.37
-9.80 0.14 0.30
-10.18 0.75 0.47
-6.88 0.94 0.98
-7.18 1.09 0.93
-4.35 -1.08 1.16
-4.23 -1.00 1.18
-4.43 -1.02 1.14
-7.97 -1.46 0.59
-7.91 -1.43 0.60
-7.95 -1.41 0.59
-4.36 -0.85 1.16
-8.33 -1.33 0.54
-8.37 -1.31 0.53
-5.82 -0.98 0.93
-6.57 -1.05 0.81
-8.51 -1.25 0.51
-6.01 -0.94 0.90
-6.50 -0.98 0.82
-5.95 -0.90 0.91
-6.25 -0.91 0.86
-6.79 -0.94 0.78
-6.05 -0.85 0.89
-6.31 -0.85 0.85
-6.16 -0.80 0.88
-6.96 -0.72 0.75
-7.14 -0.71 0.72
-7.29 -0.70 0.70
-7.70 -0.71 0.64
-7.14 -0.62 0.72
-7.44 -0.62 0.68
-7.74 -0.38 0.63
-7.66 -0.33 0.64
-7.98 -0.31 0.59
-8.12 -0.27 0.57
-10.40 -0.30 0.21
-9.35 0.00 0.53
-7.01 0.92 0.90
-7.38 1.01 0.83
-7.19 1.00 0.86
-7.33 1.04 0.84
-7.54 1.09 0.80
-7.77 1.14 0.77
-7.56 1.13 0.80
-7.63 1.16 0.79
-7.62 1.18 0.79
-7.32 1.16 0.84
-7.06 1.14 0.88
-7.00 1.15 0.89
-4.34 -1.10 1.10
-4.35 -1.07 1.10
-4.37 -1.04 1.10
-4.43 -1.02 1.09
-4.25 -0.98 1.12
-4.20 -0.95 1.13
-4.27 -0.95 1.11
-4.38 -0.95 1.10
-4.50 -0.93 1.08
-4.49 -0.90 1.08
-4.68 -0.91 1.05
-4.76 -0.90 1.03
-5.95 -1.04 0.84
-5.98 -1.02 0.83
-5.86 -0.97 0.85
-7.31 -1.09 0.62
-7.26 -1.06 0.62
-6.93 -1.01 0.68
-6.62 -0.95 0.73
-5.65 -0.83 0.89
-5.74 -0.80 0.87
-5.51 -0.74 0.91
-5.50 -0.72 0.91
-6.42 -0.78 0.76
-5.63 -0.69 0.89
-10.70 -0.49 0.31
-10.95 -0.47 0.27
-10.04 -0.41 0.42
-10.69 -0.40 0.31
-10.36 -0.37 0.37
-10.29 -0.34 0.38
-10.42 -0.32 0.36
-10.46 -0.29 0.35
-9.95 -0.25 0.44
-9.99 -0.23 0.43
-9.89 -0.20 0.45
-10.03 -0.18 0.42
-9.40 -0.12 0.52
-9.58 -0.10 0.49
-9.87 -0.07 0.45
-9.51 -0.05 0.51
-9.95 -0.02 0.43
-8.60 -0.00 0.32
-9.76 0.17 0.38
-9.56 0.19 0.41
-7.35 0.92 0.78
-7.49 0.96 0.75
-7.39 0.97 0.77
-7.22 0.97 0.80
-7.08 0.97 0.82
-7.16 1.00 0.81
-7.23 1.02 0.79
-7.01 1.01 0.83
-7.51 1.10 0.74
-7.41 1.11 0.76
-6.56 1.01 0.91
-7.76 1.20 0.70
-7.51 1.18 0.74
-7.83 1.25 0.68
-7.60 1.23 0.72
-4.45 -1.25 1.03
-4.39 -1.20 1.04
-4.41 -1.19 1.03
-4.44 -1.18 1.03
-4.48 -1.17 1.02
-4.34 -1.13 1.05
-4.40 -1.13 1.04
-4.31 -1.10 1.05
-4.31 -1.08 1.05
-4.15 -1.04 1.08
-4.31 -1.05 1.05
-4.17 -1.01 1.08
-4.11 -0.98 1.09
-4.06 -0.96 1.10
-4.17 -0.96 1.08
-4.26 -0.96 1.06
-4.31 -0.95 1.06
-4.49 -0.96 1.03
-4.46 -0.94 1.03
-4.39 -0.92 1.04
-4.45 -0.91 1.03
-4.25 -0.87 1.07
-4.22 -0.85 1.07
-4.23 -0.83 1.07
-4.26 -0.82 1.07
-4.20 -0.80 1.08
-4.46 -0.81 1.03
-6.86 -1.08 0.62
-6.82 -1.01 0.62
-6.28 -0.93 0.72
-7.08 -1.00 0.58
-6.37 -0.90 0.70
-5.66 -0.81 0.82
-5.59 -0.78 0.84
-4.98 -0.70 0.94
-5.56 -0.74 0.84
-5.31 -0.70 0.89
-6.77 -0.34 0.63
-6.80 -0.28 0.63
-6.62 -0.25 0.66
-6.80 -0.22 0.63
-6.67 -0.19 0.65
-7.01 -0.18 0.59
-6.63 -0.15 0.66
-6.87 -0.11 0.61
-6.90 -0.09 0.61
-7.45 0.84 0.70
-7.24 0.83 0.73
-7.39 0.87 0.71
-7.37 0.89 0.71
-7.52 0.92 0.68
-7.26 0.91 0.73
-7.27 0.93 0.72
-7.14 0.94 0.75
-7.31 0.98 0.72
-7.22 0.99 0.73
-6.94 0.97 0.78
-6.95 0.99 0.78
-6.99 1.01 0.77
-7.44 1.09 0.69
-6.92 1.04 0.78
-7.03 1.07 0.76
-7.38 1.14 0.70
-7.64 1.20 0.65
-7.74 1.23 0.63
-7.72 1.25 0.63
-7.64 1.26 0.65
-7.56 1.27 0.66
-6.86 1.22 0.79
-4.83 1.02 1.15
-4.58 -1.39 0.95
-4.53 -1.36 0.95
-4.51 -1.34 0.96
-4.51 -1.33 0.96
-4.41 -1.29 0.98
-4.49 -1.29 0.96
-4.48 -1.27 0.97
-4.42 -1.24 0.98
-4.39 -1.22 0.98
-4.41 -1.21 0.98
-4.49 -1.21 0.97
-4.40 -1.18 0.98
-4.50 -1.18 0.96
-4.40 -1.14 0.98
-4.53 -1.15 0.96
-4.43 -1.12 0.98
-4.53 -1.12 0.96
-4.54 -1.10 0.96
-4.52 -1.08 0.96
-4.54 -1.07 0.96
-4.57 -1.06 0.95
-4.52 -1.03 0.96
-4.40 -1.00 0.98
-4.35 -0.98 0.99
-4.44 -0.97 0.98
-4.50 -0.97 0.97
-4.63 -0.97 0.94
-4.49 -0.93 0.97
-4.35 -0.90 1.00
-4.16 -0.86 1.03
-4.09 -0.83 1.04
-4.17 -0.83 1.03
-4.16 -0.81 1.03
-4.39 -0.82 0.99
-4.78 -0.85 0.92
-4.20 -0.77 1.02
-4.67 -0.81 0.94
-4.44 -0.77 0.98
-4.60 -0.72 0.95
-4.82 -0.72 0.91
-5.20 -0.74 0.84
-5.37 -0.74 0.81
-5.37 -0.73 0.81
-6.55 -0.82 0.60
-6.72 -0.64 0.57
-6.90 -0.24 0.54
-6.41 -0.19 0.62
-8.06 -0.12 0.60
-9.56 -0.10 0.33
-8.57 -0.07 0.51
-9.96 -0.05 0.26
-7.67 0.19 0.31
-7.05 0.20 0.42
-7.91 0.24 0.26
-8.55 0.61 0.43
-8.57 0.77 0.42
-8.85 0.82 0.36
-8.51 0.81 0.43
-8.47 0.83 0.43
-7.72 0.78 0.58
-7.45 0.82 0.63
-7.41 0.83 0.63
-7.39 0.85 0.64
-7.18 0.85 0.68
-7.21 0.89 0.67
-7.27 0.91 0.66
-7.32 0.94 0.65
-7.33 0.96 0.64
-7.27 0.97 0.65
-7.28 0.99 0.65
-7.24 1.01 0.66
-7.26 1.03 0.65
-7.10 1.03 0.68
-7.46 1.09 0.61
-7.37 1.10 0.63
-7.61 1.15 0.58
-7.43 1.15 0.62
-7.55 1.18 0.59
-7.44 1.19 0.61
-7.36 1.20 0.63
-7.57 1.25 0.59
-7.66 1.28 0.57
-7.25 1.24 0.65
-6.79 1.19 0.73
-7.25 1.28 0.65
-5.09 1.06 1.06
-4.66 -1.40 0.87
-4.47 -1.35 0.91
-4.72 -1.37 0.86
-4.48 -1.30 0.91
-4.63 -1.31 0.88
-4.40 -1.25 0.92
-4.49 -1.24 0.91
-4.45 -1.22 0.91
-4.35 -1.18 0.93
-4.27 -1.13 0.95
-4.54 -1.17 0.90
-4.40 -1.13 0.93
-4.87 -1.19 0.84
-4.64 -1.13 0.88
-4.72 -1.11 0.87
-4.62 -1.08 0.89
-3.41 -0.88 1.12
-4.37 -1.01 0.93
-4.39 -0.98 0.93
-4.34 -0.94 0.94
-4.34 -0.93 0.94
-4.19 -0.89 0.97
-3.98 -0.85 1.01
-3.90 -0.82 1.02
-3.94 -0.81 1.02
-4.08 -0.81 0.99
-3.87 -0.76 1.03
-4.44 -0.81 0.92
-5.34 -0.90 0.75
-4.62 -0.80 0.89
-4.35 -0.75 0.94
-4.38 -0.74 0.93
-4.91 -0.78 0.83
-4.75 -0.73 0.87
-5.04 -0.75 0.81
-4.97 -0.72 0.82
-6.36 -0.84 0.56
-6.32 -0.82 0.57
-5.98 -0.76 0.63
-5.95 -0.74 0.64
-6.67 -0.79 0.50
-6.16 -0.70 0.60
-6.21 -0.68 0.59
-6.40 -0.68 0.55
-6.61 -0.67 0.51
-6.39 -0.33 0.55
-6.39 -0.31 0.55
-6.36 -0.29 0.56
-6.31 -0.27 0.57
-6.55 -0.23 0.52
-6.21 -0.20 0.59
-6.23 -0.18 0.58
-6.81 -0.15 0.47
-6.53 -0.13 0.53
-6.35 -0.10 0.56
-7.14 0.79 0.61
-6.95 0.82 0.65
-6.99 0.84 0.64
-7.14 0.88 0.61
-7.12 0.92 0.61
-7.27 0.95 0.58
-7.30 0.98 0.57
-7.35 1.00 0.57
-7.27 1.01 0.58
-7.35 1.06 0.56
-6.89 1.04 0.65
-7.41 1.15 0.55
-6.89 1.11 0.65
-6.70 1.12 0.69
-6.78 1.17 0.67
-6.63 1.18 0.70
-6.68 1.23 0.69
-4.97 1.17 1.02
-4.60 -1.45 0.82
-4.62 -1.42 0.81
-4.35 -1.33 0.87
-4.51 -1.33 0.84
-4.00 -1.21 0.94
-4.31 -1.22 0.88
-4.30 -1.19 0.88
-3.98 -1.10 0.95
-3.66 -1.02 1.01
-3.50 -0.96 1.04
-3.43 -0.92 1.06
-3.61 -0.92 1.02
-3.60 -0.91 1.02
-3.57 -0.89 1.03
-3.79 -0.89 0.99
-4.18 -0.92 0.91
-3.91 -0.85 0.96
-3.81 -0.81 0.98
-4.13 -0.82 0.92
-5.04 -0.91 0.74
-4.20 -0.77 0.91
-4.83 -0.81 0.78
-6.11 -0.92 0.53
-6.23 -0.89 0.51
-5.84 -0.81 0.58
-5.35 -0.72 0.68
-6.27 -0.73 0.50
-5.90 -0.66 0.57
-6.14 -0.66 0.53
-6.27 -0.61 0.50
-6.58 -0.55 0.44
-7.17 -0.26 0.63
-7.09 -0.20 0.64
-7.02 -0.18 0.66
-7.43 -0.17 0.58
-7.16 -0.15 0.63
-5.89 0.11 0.51
-5.66 0.20 0.55
-5.65 0.22 0.55
-5.88 0.36 0.50
-8.49 0.78 0.28
-7.32 0.80 0.51
-6.98 0.79 0.58
-7.00 0.81 0.58
-6.88 0.81 0.60
-6.77 0.82 0.63
-7.37 0.90 0.50
-7.58 0.95 0.46
-7.64 0.97 0.44
-7.33 0.96 0.51
-7.50 1.00 0.47
-7.46 1.03 0.48
-7.51 1.06 0.47
-7.43 1.07 0.48
-7.53 1.10 0.46
-7.37 1.10 0.49
-7.42 1.13 0.48
-7.27 1.12 0.51
-7.31 1.15 0.50
-7.30 1.17 0.50
-7.31 1.19 0.50
-7.39 1.22 0.48
-7.24 1.24 0.51
-6.66 1.16 0.63
-6.60 1.17 0.65
-6.80 1.22 0.60
-6.69 1.22 0.63
-6.59 1.22 0.65
-4.62 -1.40 0.76
-4.64 -1.38 0.76
-3.94 -1.17 0.90
-4.13 -1.19 0.87
-3.97 -1.14 0.90
-3.96 -1.13 0.90
-3.77 -1.08 0.94
-4.06 -1.11 0.88
-3.76 -1.05 0.95
-3.39 -0.97 1.02
-3.26 -0.93 1.05
-3.55 -0.97 0.99
-3.68 -0.97 0.96
-3.69 -0.96 0.96
-3.53 -0.92 1.00
-3.87 -0.96 0.92
-3.54 -0.90 0.99
-4.41 -1.02 0.81
-3.75 -0.90 0.95
-3.68 -0.87 0.97
-3.70 -0.86 0.96
-3.67 -0.84 0.97
-4.00 -0.88 0.90
-3.99 -0.86 0.90
-3.83 -0.82 0.93
-3.86 -0.81 0.93
-3.87 -0.80 0.93
-5.47 -0.99 0.60
-5.52 -0.98 0.58
-5.62 -0.97 0.57
-3.90 -0.75 0.92
-3.71 -0.71 0.96
-5.96 -0.88 0.49
-6.37 -0.90 0.41
-6.91 -0.87 0.30
-6.70 -0.83 0.34
-6.85 -0.82 0.31
-5.75 -0.70 0.54
-6.51 -0.73 0.38
-6.36 -0.70 0.41
-6.08 -0.65 0.47
-5.78 -0.61 0.53
-5.86 -0.54 0.52
-6.50 -0.40 0.39
-6.14 -0.36 0.46
-6.61 -0.36 0.36
-6.46 -0.33 0.39
-6.74 -0.32 0.33
-6.21 -0.26 0.45
-6.09 -0.24 0.47
-6.38 -0.23 0.41
-6.49 -0.21 0.39
-6.53 -0.19 0.38
-6.37 -0.17 0.41
-6.55 -0.15 0.37
-5.48 -0.09 0.59
-5.79 -0.06 0.53
-7.48 0.58 0.41
-7.06 0.63 0.49
-7.42 0.68 0.42
-7.35 0.69 0.43
-7.09 0.69 0.49
-7.20 0.71 0.46
-7.09 0.72 0.48
-6.92 0.76 0.52
-6.82 0.79 0.54
-6.91 0.82 0.52
-6.06 0.81 0.70
-6.24 0.85 0.66
-6.28 0.87 0.65
-6.29 0.89 0.65
-7.29 1.03 0.43
-6.47 0.94 0.61
-6.34 0.94 0.64
-7.23 1.08 0.44
-6.30 0.97 0.64
-6.48 1.02 0.60
-6.98 1.11 0.49
-6.41 1.04 0.62
-6.50 1.07 0.60
-6.64 1.11 0.57
-6.85 1.16 0.52
-6.73 1.16 0.54
-6.91 1.21 0.50
-4.87 0.90 0.95
-5.14 0.96 0.89
-4.92 0.93 0.94
-4.96 0.96 0.93
-4.96 0.97 0.93
-4.98 0.99 0.92
-4.97 1.00 0.92
-4.99 1.02 0.92
-4.88 1.01 0.94
-4.94 1.04 0.93
-4.96 1.05 0.92
-4.95 1.07 0.92
-5.05 1.10 0.90
-5.02 1.11 0.91
-5.06 1.13 0.90
-5.02 1.14 0.90
-4.98 1.14 0.91
-5.01 1.16 0.91
-4.96 1.17 0.92
-5.07 1.20 0.89
-4.98 1.20 0.91
-4.98 1.22 0.91
-4.91 1.23 0.92
-3.30 -1.35 0.97
-3.19 -1.30 1.00
-3.34 -1.29 0.97
-3.63 -1.34 0.90
-4.20 -1.44 0.78
-3.42 -1.25 0.95
-4.42 -1.46 0.73
-4.63 -1.49 0.69
-4.52 -1.45 0.71
-4.50 -1.43 0.72
-4.47 -1.40 0.72
-4.43 -1.38 0.73
-4.08 -1.29 0.81
-4.10 -1.28 0.80
-3.81 -1.21 0.87
-3.69 -1.17 0.89
-3.91 -1.20 0.85
-3.97 -1.19 0.84
-3.97 -1.18 0.83
-3.98 -1.17 0.83
-3.97 -1.15 0.84
-3.91 -1.12 0.85
-3.75 -1.08 0.88
-3.84 -1.08 0.86
-3.77 -1.05 0.88
-3.75 -1.03 0.88
-3.70 -1.01 0.90
-3.64 -0.99 0.91
-3.79 -1.00 0.88
-3.79 -0.98 0.88
-3.83 -0.98 0.87
-3.89 -0.97 0.86
-4.80 -1.10 0.66
-4.76 -1.07 0.67
-4.99 -1.09 0.62
-3.96 -0.92 0.84
-5.23 -1.09 0.57
-5.22 -1.07 0.57
-4.18 -0.91 0.79
-4.11 -0.88 0.81
-5.37 -1.04 0.54
-4.10 -0.85 0.81
-5.14 -0.97 0.59
-4.99 -0.94 0.62
-4.99 -0.92 0.62
-3.78 -0.75 0.88
-3.56 -0.71 0.93
-5.56 -0.69 0.50
-5.61 -0.68 0.49
-5.76 -0.67 0.46
-5.64 -0.57 0.48
-6.66 -0.40 0.60
-6.59 -0.38 0.61
-6.51 -0.36 0.63
-6.38 -0.34 0.66
-6.26 -0.32 0.68
-6.35 -0.30 0.67
-6.47 -0.29 0.64
-6.78 -0.29 0.57
-6.49 -0.26 0.63
-6.84 -0.25 0.56
-6.76 -0.23 0.58
-6.68 -0.21 0.59
-6.84 -0.20 0.56
-7.24 -0.19 0.47
-7.71 -0.18 0.37
-7.12 -0.13 0.50
-6.64 -0.11 0.60
-6.97 -0.09 0.53
-6.93 -0.07 0.54
-4.77 -0.00 0.60
-4.64 0.01 0.63
-4.70 0.03 0.62
-7.32 0.42 0.37
-7.34 0.44 0.36
-7.33 0.46 0.37
-7.43 0.48 0.34
-7.11 0.48 0.41
-7.16 0.50 0.40
-6.90 0.50 0.46
-6.90 0.52 0.46
-6.61 0.52 0.52
-6.65 0.54 0.51
-7.48 0.66 0.33
-7.48 0.70 0.32
-6.63 0.73 0.51
-6.84 0.79 0.46
-6.02 0.80 0.65
-5.96 0.81 0.66
-5.99 0.83 0.65
-5.89 0.83 0.67
-6.38 0.91 0.56
-6.23 0.91 0.60
-6.21 0.93 0.60
-6.55 0.99 0.52
-6.16 0.95 0.61
-6.16 0.97 0.61
-6.14 0.98 0.61
-6.27 1.02 0.58
-6.35 1.05 0.56
-6.38 1.07 0.55
-6.71 1.14 0.48
-6.77 1.16 0.46
-6.90 1.20 0.43
-6.99 1.24 0.41
-6.94 1.25 0.42
-6.85 1.25 0.44
-5.10 0.99 0.84
-4.96 0.98 0.87
-4.90 0.98 0.89
-4.92 1.00 0.88
-5.06 1.04 0.85
-5.06 1.06 0.85
-5.03 1.06 0.85
-5.13 1.10 0.83
-5.12 1.11 0.83
-5.09 1.12 0.84
-5.17 1.15 0.82
-5.02 1.18 0.85
-3.69 -1.28 0.83
-3.79 -1.29 0.81
-3.49 -1.21 0.88
-3.70 -1.24 0.83
-3.51 -1.19 0.88
-3.51 -1.17 0.88
-3.64 -1.18 0.85
-3.52 -1.15 0.88
-3.68 -1.16 0.84
-3.74 -1.16 0.83
-3.78 -1.15 0.82
-3.77 -1.14 0.82
-3.71 -1.11 0.84
-3.61 -1.08 0.86
-3.66 -1.07 0.85
-3.59 -1.05 0.86
-3.70 -1.05 0.84
-3.69 -1.04 0.84
-3.59 -1.00 0.86
-3.82 -1.03 0.81
-3.94 -1.04 0.78
-3.38 -0.93 0.91
-3.60 -0.95 0.86
-3.49 -0.92 0.89
-3.35 -0.88 0.92
-3.17 -0.84 0.96
-3.34 -0.85 0.92
-3.16 -0.81 0.96
-3.08 -0.79 0.98
-3.69 -0.87 0.84
-3.59 -0.84 0.87
-3.87 -0.86 0.80
-3.43 -0.79 0.91
-3.35 -0.76 0.92
-3.22 -0.73 0.95
-3.33 -0.73 0.93
-3.42 -0.73 0.91
-3.42 -0.72 0.91
-3.44 -0.71 0.90
-4.85 -0.71 0.59
-5.06 -0.72 0.54
-5.08 -0.70 0.53
-4.97 -0.67 0.56
-5.09 -0.67 0.53
-5.44 -0.68 0.45
-5.88 -0.33 0.35
-5.85 -0.27 0.36
-4.79 -0.02 0.60
-6.17 0.03 0.57
-6.66 0.05 0.45
-5.99 0.08 0.61
-6.22 0.10 0.56
-6.03 0.11 0.60
-6.11 0.19 0.58
-6.33 0.35 0.53
-6.56 0.38 0.47
-6.74 0.40 0.43
-6.50 0.43 0.48
-6.79 0.46 0.41
-7.09 0.52 0.34
-7.10 0.57 0.34
-7.00 0.58 0.36
-6.42 0.63 0.50
-6.42 0.71 0.49
-5.87 0.78 0.62
-5.90 0.80 0.61
-5.92 0.82 0.60
-5.84 0.83 0.62
-5.88 0.85 0.61
-5.90 0.87 0.61
-5.98 0.89 0.59
-6.00 0.91 0.58
-6.14 0.95 0.55
-6.02 0.95 0.57
-6.10 0.99 0.55
-6.24 1.03 0.52
-6.27 1.05 0.51
-6.30 1.07 0.50
-6.50 1.12 0.46
-6.67 1.17 0.41
-6.68 1.19 0.41
-6.86 1.23 0.37
-6.74 1.25 0.39
-6.59 1.24 0.43
-5.34 1.05 0.73
-5.35 1.06 0.72
-5.09 1.03 0.79
-5.15 1.06 0.77
-5.30 1.10 0.73
-5.26 1.11 0.74
-5.29 1.13 0.73
-3.68 -1.21 0.78
-3.68 -1.18 0.78
-3.78 -1.19 0.76
-3.75 -1.16 0.77
-3.82 -1.16 0.75
-3.88 -1.15 0.74
-3.77 -1.11 0.76
-3.68 -1.06 0.79
-3.66 -1.05 0.79
-3.89 -1.07 0.74
-4.09 -1.08 0.69
-4.04 -1.05 0.70
-4.29 -1.08 0.64
-3.79 -0.97 0.76
-3.91 -0.97 0.73
-3.42 -0.88 0.85
-3.69 -0.91 0.79
-4.21 -0.96 0.66
-4.05 -0.92 0.70
-3.71 -0.84 0.78
-3.73 -0.83 0.78
-3.72 -0.81 0.78
-3.74 -0.80 0.78
-3.60 -0.75 0.81
-3.54 -0.73 0.83
-3.75 -0.73 0.78
-3.61 -0.70 0.81
-3.61 -0.69 0.81
-3.58 -0.67 0.82
-4.96 -0.78 0.49
-5.20 -0.77 0.44
-4.91 -0.72 0.51
-4.83 -0.69 0.52
-4.93 -0.69 0.50
-5.31 -0.69 0.41
-4.59 -0.61 0.58
-4.98 -0.59 0.49
-5.18 -0.27 0.44
-5.20 -0.25 0.44
-5.46 -0.24 0.38
-5.40 -0.20 0.39
-5.18 -0.18 0.44
-4.69 -0.15 0.55
-4.46 -0.13 0.61
-2.11 0.94 0.58
-2.64 0.55 0.53
-2.61 0.61 0.53
-2.56 0.66 0.53
-1.86 -0.75 0.52
-2.96 0.67 0.52
-2.54 0.72 0.51
-1.30 -0.66 0.49
-2.86 0.55 0.46
-2.40 0.59 0.46
-3.17 0.66 0.44
-2.96 0.67 0.41
-0.75 -0.91 0.48
-1.86 -0.97 0.45
-2.92 0.83 0.22
-2.26 0.77 0.28
-2.54 0.72 0.22
-1.68 0.87 0.29
-0.66 -0.89 0.31
-2.00 0.83 0.22
-1.61 0.93 0.25
-0.67 -0.88 0.30
-1.55 0.90 0.25
-1.74 0.81 0.23
-1.72 0.93 0.21
-1.63 0.86 0.23
-1.54 0.87 0.23
-1.52 0.94 0.20
-1.38 0.76 0.26
-0.67 -0.87 0.24
-0.81 -0.87 0.26
-0.90 -0.84 0.27
-0.84 -0.88 0.24
-1.22 -0.82 0.26
-0.77 -0.86 0.23
-0.85 -0.86 0.23
-0.93 -0.85 0.24
-1.02 -0.78 0.26
-0.83 -0.81 0.23
-0.94 -0.82 0.23
-1.02 -0.79 0.24
-1.12 -0.77 0.25
-0.90 -0.82 0.21
-1.37 -0.74 0.22
-7.69 -1.15 1.89
-6.45 0.41 1.86
-7.79 0.75 1.77
-7.96 1.61 1.75
-3.49 0.15 1.96
-15.49 0.78 1.32
-3.25 0.01 1.94
-7.75 0.07 1.66
-15.81 1.03 1.16
-4.86 0.55 1.83
-7.81 0.88 1.65
-6.39 -0.10 1.61
-12.65 0.14 1.22
-12.34 0.16 1.24
-12.37 0.19 1.24
-12.53 0.23 1.23
-12.63 0.26 1.22
-15.39 0.81 1.02
-9.94 -0.89 1.31
-10.41 -0.65 1.28
-4.67 0.46 1.76
-4.75 1.00 1.75
-3.42 -0.33 1.75
-12.06 -0.02 1.08
-12.36 0.01 1.10
-12.24 0.10 1.11
-12.23 0.13 1.11
-11.93 0.16 1.14
-11.66 0.18 1.16
-12.58 0.23 1.08
-15.23 0.77 0.86
-7.60 -0.86 1.38
-7.53 -0.83 1.38
-7.69 -0.82 1.37
-7.52 -0.78 1.38
-7.54 -0.76 1.38
-7.44 -0.73 1.39
-7.46 -0.71 1.39
-7.56 -0.67 1.38
-10.57 -0.58 1.25
-10.45 -0.55 1.26
-10.59 -0.53 1.25
-10.84 -0.49 1.23
-10.65 -0.45 1.25
-10.57 -0.42 1.25
-10.65 -0.37 1.25
-10.71 -0.34 1.24
-12.69 -0.06 1.08
-7.62 -0.89 1.32
-7.50 -0.85 1.33
-7.81 -0.85 1.30
-7.44 -0.80 1.34
-7.39 -0.77 1.34
-7.36 -0.75 1.34
-7.43 -0.73 1.34
-7.40 -0.71 1.34
-7.35 -0.68 1.34
-7.28 -0.65 1.35
-7.23 -0.62 1.35
-7.19 -0.60 1.36
-4.75 -0.23 1.57
-12.42 0.01 0.95
-12.11 0.07 0.98
-11.93 0.10 0.99
-11.83 0.18 1.00
-11.82 0.21 1.00
-11.85 0.24 1.00
-11.51 0.30 1.03
-15.28 0.84 0.67
-9.36 0.80 1.23
-7.34 -0.86 1.29
-7.35 -0.84 1.29
-7.41 -0.82 1.28
-7.42 -0.80 1.28
-7.19 -0.76 1.30
-7.32 -0.75 1.29
-7.45 -0.73 1.28
-7.29 -0.70 1.29
-7.26 -0.67 1.29
-7.39 -0.66 1.28
-7.39 -0.64 1.28
-7.45 -0.62 1.28
-7.22 -0.58 1.30
-7.33 -0.56 1.29
-7.49 -0.55 1.27
-10.43 -0.69 1.00
-12.06 -0.17 0.98
-12.27 -0.02 0.96
-11.60 0.04 0.80
-5.82 0.14 1.38
-6.23 0.16 1.33
-6.08 0.20 1.35
-15.12 0.83 0.59
-9.24 0.64 1.18
-9.07 0.65 1.20
-9.32 0.74 1.17
-9.55 0.83 1.15
-9.21 0.83 1.18
-8.91 0.83 1.21
-9.04 0.86 1.20
-9.57 1.01 1.14
-5.60 -0.78 1.40
-5.45 -0.73 1.42
-5.45 -0.71 1.42
-5.70 -0.71 1.39
-5.25 -0.66 1.44
-5.30 -0.64 1.43
-7.39 -0.80 1.23
-7.42 -0.78 1.22
-7.45 -0.75 1.22
-7.32 -0.72 1.23
-7.15 -0.69 1.25
-7.09 -0.66 1.25
-7.14 -0.64 1.25
-7.25 -0.63 1.24
-7.25 -0.60 1.24
-7.45 -0.59 1.22
-7.29 -0.56 1.24
-6.86 -0.51 1.28
-6.96 -0.48 1.27
-7.32 -0.47 1.23
-7.09 -0.44 1.25
-7.26 -0.42 1.24
-10.92 -0.43 0.87
-10.61 -0.39 0.90
-10.77 -0.33 0.88
-10.66 -0.30 0.90
-10.87 -0.27 0.88
-11.23 -0.12 0.84
-11.23 -0.06 0.84
-11.85 0.01 0.85
-12.92 0.07 0.73
-11.73 0.09 0.86
-11.36 0.15 0.90
-11.79 0.18 0.85
-11.50 0.21 0.88
-11.52 0.24 0.88
-11.72 0.27 0.86
-11.52 0.30 0.88
-11.51 0.32 0.88
-11.11 0.34 0.92
-11.39 0.38 0.89
-6.71 0.25 1.39
-7.08 0.28 1.35
-6.83 0.29 1.38
-6.95 0.31 1.36
-5.95 0.35 1.47
-5.75 0.36 1.49
-5.61 0.36 1.51
-5.68 0.38 1.50
-9.34 0.65 1.11
-9.34 0.72 1.10
-9.37 0.82 1.10
-9.12 0.87 1.12
-9.18 0.90 1.12
-9.21 0.93 1.11
-9.30 0.96 1.10
-9.22 0.97 1.11
-5.43 -0.80 1.37
-5.23 -0.76 1.39
-5.45 -0.77 1.37
-7.33 -0.79 1.17
-7.18 -0.76 1.18
-7.09 -0.73 1.19
-7.02 -0.70 1.20
-7.06 -0.68 1.20
-6.93 -0.63 1.21
-7.20 -0.62 1.18
-7.11 -0.60 1.19
-7.04 -0.55 1.20
-7.08 -0.53 1.19
-7.15 -0.51 1.19
-6.75 -0.42 1.23
-6.70 -0.40 1.23
-7.03 -0.39 1.20
-6.95 -0.37 1.21
-11.28 -0.39 0.91
-12.37 -0.15 0.79
-13.31 -0.09 0.69
-13.14 -0.06 0.71
-4.01 0.25 1.65
-9.45 0.73 1.03
-9.28 0.74 1.05
-9.20 0.88 1.05
-7.29 -0.74 1.11
-7.31 -0.72 1.11
-6.83 -0.66 1.16
-7.19 -0.67 1.12
-7.00 -0.33 1.14
-6.69 -0.29 1.18
-7.01 -0.28 1.14
-12.35 0.04 0.62
-12.25 0.07 0.63
-11.90 0.09 0.67
-11.62 0.12 0.70
-11.52 0.18 0.71
-11.19 0.23 0.75
-11.26 0.26 0.74
-11.67 0.33 0.70
-5.85 0.42 1.39
-9.55 0.69 0.94
-5.81 0.45 1.39
-9.34 0.72 0.97
-9.43 0.75 0.96
-5.91 0.51 1.38
-7.22 -0.72 1.05
-7.23 -0.70 1.05
-6.96 -0.65 1.08
-7.35 -0.66 1.04
-7.00 -0.61 1.08
-6.87 -0.58 1.09
-6.90 -0.56 1.09
-6.89 -0.54 1.09
-7.23 -0.54 1.05
-11.40 -0.45 0.74
-11.13 -0.25 0.77
-11.79 -0.17 0.69
-11.65 -0.11 0.70
-6.39 0.00 1.09
-5.75 0.02 1.17
-11.47 0.12 0.64
-5.59 0.32 1.38
-6.70 0.39 1.24
-5.84 0.36 1.35
-6.55 0.42 1.26
-5.88 0.39 1.34
-6.72 0.46 1.24
-5.95 0.43 1.33
-6.12 0.46 1.31
-5.98 0.46 1.33
-6.00 0.48 1.33
-6.05 0.50 1.32
-6.00 0.51 1.33
-5.97 0.53 1.33
-6.13 0.56 1.31
-6.13 0.57 1.31
-6.03 0.58 1.32
-5.80 0.58 1.35
-5.73 0.58 1.36
-5.71 0.60 1.36
-5.72 0.62 1.36
-5.84 0.64 1.34
-5.68 0.64 1.36
-5.69 0.66 1.36
-5.81 0.69 1.35
-5.70 0.69 1.36
-5.76 0.73 1.35
-1.32 -0.96 1.73
-5.20 -0.85 1.24
-6.92 -0.63 1.03
-6.81 -0.60 1.04
-6.81 -0.58 1.04
-6.80 -0.56 1.04
-6.80 -0.53 1.04
-6.80 -0.51 1.04
-6.92 -0.50 1.03
-7.34 -0.48 0.97
-7.02 -0.44 1.01
-7.02 -0.42 1.01
-6.75 -0.38 1.05
-6.71 -0.36 1.05
-6.57 -0.33 1.07
-6.92 -0.32 1.03
-7.62 -0.21 0.94
-6.27 -0.02 1.10
-10.63 0.00 0.67
-10.45 0.03 0.69
-10.74 0.06 0.65
-7.54 0.08 1.08
-7.96 0.11 1.02
-7.32 0.12 1.11
-7.34 0.14 1.10
-7.70 0.16 1.06
-7.09 0.17 1.14
-6.82 0.18 1.17
-6.85 0.20 1.17
-7.07 0.22 1.14
-7.01 0.24 1.15
-6.75 0.29 1.18
-6.34 0.29 1.24
-6.17 0.30 1.26
-6.49 0.33 1.21
-5.95 0.32 1.29
-6.05 0.34 1.27
-6.43 0.37 1.22
-6.03 0.37 1.28
-6.50 0.41 1.21
-5.91 0.40 1.29
-5.98 0.42 1.28
-6.03 0.43 1.27
-6.03 0.45 1.27
-6.02 0.47 1.28
-5.99 0.48 1.28
-6.02 0.50 1.27
-6.03 0.52 1.27
-6.04 0.53 1.27
-6.02 0.55 1.27
-6.26 0.58 1.24
-6.12 0.59 1.26
-5.86 0.58 1.29
-5.90 0.60 1.29
-5.72 0.60 1.31
-5.76 0.62 1.31
-5.72 0.63 1.31
-5.71 0.65 1.31
-5.74 0.66 1.31
-5.62 0.67 1.32
-5.65 0.69 1.32
-5.73 0.71 1.31
-5.68 0.72 1.31
-5.75 0.74 1.30
-5.86 0.77 1.29
-5.85 0.79 1.29
-5.72 0.79 1.31
-5.45 -0.80 1.16
-5.55 -0.76 1.14
-5.12 -0.70 1.20
-4.81 -0.64 1.24
-6.63 -0.69 1.00
-6.75 -0.68 0.98
-6.71 -0.64 0.99
-6.50 -0.60 1.02
-6.62 -0.59 1.00
-6.59 -0.56 1.00
-6.51 -0.54 1.01
-6.66 -0.53 0.99
-3.89 -0.35 1.36
-4.05 -0.34 1.34
-4.15 -0.33 1.33
-6.71 -0.45 0.99
-6.78 -0.43 0.98
-6.62 -0.40 1.00
-6.78 -0.38 0.98
-6.58 -0.35 1.00
-7.16 -0.36 0.93
-7.78 -0.35 0.84
-8.31 -0.35 0.77
-8.80 -0.23 0.71
-9.55 -0.14 0.81
-10.17 -0.13 0.73
-6.70 0.02 0.92
-6.45 0.06 0.96
-6.23 0.08 0.99
-6.45 0.10 0.96
-6.28 0.12 0.98
-6.45 0.15 0.96
-6.26 0.18 0.98
-6.26 0.22 0.98
-7.04 0.22 1.09
-7.28 0.25 1.05
-7.26 0.27 1.06
-6.79 0.27 1.12
-10.31 0.42 0.62
-10.38 0.45 0.61
-6.51 0.31 1.16
-6.16 0.31 1.21
-6.48 0.34 1.17
-6.84 0.38 1.11
-6.51 0.38 1.16
-6.40 0.39 1.18
-6.22 0.40 1.20
-6.15 0.41 1.21
-6.21 0.45 1.20
-6.25 0.46 1.20
-6.26 0.48 1.19
-6.38 0.51 1.18
-6.40 0.53 1.17
-6.41 0.54 1.17
-6.12 0.54 1.21
-6.15 0.57 1.21
-6.17 0.59 1.20
-6.21 0.61 1.20
-6.33 0.64 1.18
-6.38 0.66 1.17
-6.24 0.66 1.19
-5.87 0.66 1.24
-5.85 0.67 1.25
-6.27 0.73 1.19
-6.37 0.76 1.17
-5.98 0.73 1.23
-6.14 0.77 1.20
-6.00 0.77 1.22
-6.12 0.80 1.21
-6.18 0.84 1.20
-5.91 0.82 1.23
-5.32 -0.79 1.12
-5.19 -0.72 1.14
-4.43 -0.57 1.25
-4.81 -0.59 1.19
-4.76 -0.56 1.20
-4.83 -0.55 1.19
-6.72 -0.66 0.92
-4.80 -0.48 1.19
-6.39 -0.57 0.97
-6.51 -0.56 0.95
-6.51 -0.54 0.95
-6.73 -0.53 0.92
-3.99 -0.34 1.31
-4.02 -0.31 1.30
-6.58 -0.42 0.94
-4.02 -0.28 1.30
-6.63 -0.38 0.93
-6.68 -0.36 0.93
-7.76 -0.35 0.77
-7.23 -0.29 0.85
-3.99 -0.15 1.31
-4.14 -0.14 1.28
-6.36 -0.10 0.97
-6.23 -0.06 0.99
-6.30 -0.04 0.98
-9.95 0.00 0.60
-6.83 0.04 1.06
-6.96 0.06 1.04
-7.10 0.08 1.02
-7.01 0.09 1.03
-6.98 0.11 1.04
-6.79 0.13 1.07
-6.96 0.15 1.04
-6.90 0.16 1.05
-6.85 0.18 1.06
-6.94 0.20 1.04
-6.87 0.22 1.05
-6.82 0.23 1.06
-7.00 0.26 1.03
-6.79 0.27 1.06
-6.87 0.29 1.05
-6.80 0.30 1.06
-6.70 0.32 1.08
-6.67 0.33 1.08
-6.46 0.34 1.11
-6.45 0.36 1.11
-6.36 0.37 1.13
-6.33 0.39 1.13
-6.66 0.42 1.08
-6.77 0.45 1.06
-6.62 0.45 1.08
-6.64 0.47 1.08
-6.48 0.48 1.11
-6.63 0.51 1.08
-6.45 0.51 1.11
-6.75 0.55 1.06
-6.34 0.54 1.12
-6.33 0.55 1.13
-6.53 0.59 1.10
-6.38 0.59 1.12
-6.51 0.62 1.10
-6.43 0.63 1.11
-6.52 0.66 1.10
-6.38 0.66 1.12
-6.29 0.67 1.13
-6.59 0.72 1.08
-6.65 0.74 1.07
-6.73 0.76 1.06
-6.54 0.76 1.09
-6.65 0.79 1.07
-6.84 0.83 1.04
-6.63 0.83 1.07
-6.82 0.87 1.05
-6.75 0.87 1.06
-6.75 0.89 1.06
-6.17 0.84 1.14
-6.01 0.85 1.16
-5.44 -0.75 1.04
-5.31 -0.72 1.06
-5.35 -0.70 1.06
-5.03 -0.66 1.10
-5.14 -0.65 1.09
-5.02 -0.62 1.11
-4.76 -0.58 1.14
-4.40 -0.54 1.20
-4.95 -0.56 1.11
-4.89 -0.54 1.12
-4.80 -0.52 1.14
-4.59 -0.49 1.17
-4.32 -0.45 1.21
-4.51 -0.45 1.18
-4.14 -0.41 1.23
-3.95 -0.38 1.26
-4.35 -0.39 1.20
-3.98 -0.36 1.26
-4.06 -0.34 1.25
-4.24 -0.34 1.22
-4.17 -0.32 1.23
-4.02 -0.30 1.25
-3.98 -0.28 1.26
-3.98 -0.27 1.26
-4.02 -0.25 1.25
-4.09 -0.24 1.24
-7.40 -0.34 0.75
-8.84 -0.29 0.76
-8.98 -0.20 0.74
-9.53 -0.14 0.66
-9.61 -0.07 0.65
-9.74 -0.05 0.63
-9.64 -0.02 0.64
-5.48 0.00 0.98
-6.42 0.04 0.83
-6.48 0.06 0.82
-6.26 0.16 0.85
-6.27 0.20 0.85
-6.41 0.23 0.83
-5.96 0.25 0.90
-6.11 0.28 0.88
-6.16 0.30 0.87
-5.92 0.31 0.91
-5.94 0.33 0.90
-6.16 0.36 0.87
-6.38 0.34 1.07
-6.44 0.36 1.07
-6.55 0.38 1.05
-6.29 0.38 1.09
-6.63 0.42 1.03
-5.91 0.42 1.15
-6.83 0.50 1.00
-9.75 0.75 0.54
-6.36 0.52 1.07
-7.00 0.59 0.97
-6.32 0.55 1.08
-6.75 0.60 1.01
-6.69 0.62 1.02
-7.12 0.67 0.95
-6.84 0.66 1.00
-6.83 0.68 1.00
-7.09 0.72 0.96
-6.70 0.72 1.02
-6.90 0.78 0.98
-6.46 0.75 1.05
-6.98 0.82 0.97
-7.18 0.87 0.94
-7.04 0.87 0.96
-7.10 0.89 0.95
-7.04 0.91 0.96
-6.75 0.89 1.00
-6.72 0.90 1.01
-5.01 -0.65 1.06
-5.25 -0.64 1.02
-6.95 -0.54 0.75
-6.91 -0.52 0.76
-6.79 -0.49 0.78
-6.85 -0.47 0.77
-4.08 -0.32 1.20
-6.67 -0.42 0.80
-7.00 -0.42 0.75
-7.01 -0.39 0.74
-7.00 -0.37 0.75
-7.27 -0.34 0.70
-7.27 -0.27 0.70
-6.78 -0.19 0.78
-7.16 -0.18 0.72
-5.94 -0.02 0.91
-6.80 0.02 0.95
-6.92 0.04 0.93
-6.89 0.05 0.94
-6.93 0.07 0.93
-6.93 0.09 0.93
-7.06 0.11 0.91
-7.20 0.13 0.88
-6.97 0.15 0.92
-7.11 0.17 0.90
-7.31 0.19 0.86
-6.72 0.19 0.96
-6.86 0.22 0.94
-6.83 0.23 0.94
-6.65 0.25 0.97
-6.56 0.26 0.99
-6.42 0.27 1.01
-6.46 0.29 1.00
-6.50 0.31 1.00
-6.41 0.32 1.01
-6.26 0.33 1.03
-6.34 0.35 1.02
-6.45 0.38 1.00
-6.37 0.39 1.01
-6.39 0.41 1.01
-6.46 0.43 1.00
-6.55 0.45 0.98
-6.69 0.48 0.96
-6.53 0.48 0.99
-6.68 0.51 0.96
-6.75 0.53 0.95
-6.81 0.56 0.94
-6.99 0.59 0.91
-6.85 0.60 0.93
-6.61 0.59 0.97
-6.77 0.62 0.94
-6.82 0.65 0.93
-6.91 0.67 0.92
-6.94 0.69 0.91
-6.85 0.70 0.93
-6.73 0.71 0.95
-6.87 0.74 0.92
-6.83 0.76 0.93
-7.47 0.84 0.82
-6.80 0.79 0.93
-7.06 0.84 0.89
-6.66 0.81 0.96
-7.00 0.87 0.90
-6.76 0.86 0.94
-6.93 0.90 0.91
-6.62 0.90 0.96
-4.73 -0.60 1.04
-4.53 -0.55 1.07
-4.32 -0.50 1.11
-4.61 -0.51 1.06
-4.31 -0.47 1.11
-4.15 -0.44 1.13
-4.13 -0.43 1.14
-4.62 -0.43 1.06
-4.10 -0.36 1.14
-3.94 -0.34 1.17
-6.85 -0.39 0.94
-7.04 -0.38 0.91
-7.13 -0.37 0.90
-6.16 0.02 0.74
-5.72 0.04 0.81
-6.70 0.05 0.91
-6.66 0.07 0.92
-7.01 0.09 0.86
-6.36 0.10 0.97
-6.50 0.15 0.94
-6.19 0.16 0.99
-6.20 0.18 0.99
-6.44 0.20 0.95
-6.46 0.22 0.95
-6.60 0.24 0.92
-6.43 0.25 0.95
-6.62 0.28 0.92
-6.44 0.29 0.95
-6.29 0.30 0.98
-6.32 0.32 0.97
-6.28 0.33 0.98
-6.48 0.36 0.94
-6.45 0.37 0.95
-6.40 0.39 0.95
-6.53 0.41 0.93
-6.42 0.42 0.95
-6.66 0.46 0.91
-6.71 0.48 0.90
-6.85 0.50 0.87
-6.78 0.52 0.89
-6.96 0.55 0.85
-6.83 0.56 0.88
-6.89 0.58 0.87
-6.95 0.60 0.86
-6.88 0.61 0.87
-6.77 0.62 0.89
-6.69 0.63 0.90
-6.84 0.67 0.87
-6.67 0.67 0.90
-6.87 0.70 0.87
-7.10 0.74 0.83
-6.87 0.74 0.87
-6.86 0.76 0.87
-6.84 0.77 0.87
-6.53 0.76 0.92
-6.75 0.80 0.88
-6.90 0.84 0.86
-6.95 0.86 0.85
-4.10 -0.72 1.09
-4.95 -0.65 0.95
-4.77 -0.62 0.98
-4.78 -0.60 0.98
-5.09 -0.61 0.92
-4.96 -0.58 0.95
-4.76 -0.55 0.98
-4.67 -0.53 1.00
-4.69 -0.51 0.99
-4.23 -0.46 1.07
-4.38 -0.46 1.05
-4.45 -0.45 1.03
-4.35 -0.42 1.05
-3.99 -0.39 1.11
-4.36 -0.39 1.05
-3.82 -0.35 1.14
-3.51 -0.32 1.20
-3.79 -0.32 1.15
-3.75 -0.30 1.15
-3.76 -0.29 1.15
-3.65 -0.27 1.17
-3.80 -0.26 1.14
-3.66 -0.24 1.17
-3.70 -0.21 1.16
-4.26 -0.22 1.07
-3.52 -0.15 1.19
-3.89 -0.09 1.13
-6.48 -0.04 0.68
-5.10 -0.02 0.92
-6.46 -0.00 0.89
-6.49 0.02 0.89
-6.46 0.03 0.89
-5.94 0.05 0.98
-6.26 0.07 0.93
-6.29 0.08 0.92
-6.50 0.10 0.88
-6.42 0.12 0.90
-6.50 0.14 0.88
-5.71 0.14 1.02
-6.24 0.16 0.93
-6.59 0.19 0.87
-6.44 0.20 0.89
-6.23 0.21 0.93
-6.23 0.23 0.93
-6.47 0.26 0.89
-6.40 0.27 0.90
-6.40 0.29 0.90
-6.37 0.30 0.90
-6.15 0.31 0.94
-6.34 0.33 0.91
-6.48 0.36 0.88
-6.54 0.38 0.87
-6.51 0.39 0.88
-7.34 0.46 0.73
-6.90 0.45 0.80
-6.80 0.46 0.82
-6.69 0.47 0.84
-6.75 0.50 0.83
-6.90 0.52 0.80
-7.05 0.55 0.77
-6.72 0.55 0.83
-6.77 0.57 0.83
-7.05 0.61 0.77
-6.94 0.62 0.79
-6.92 0.64 0.80
-6.74 0.64 0.83
-6.93 0.67 0.79
-7.02 0.70 0.78
-7.00 0.72 0.78
-6.95 0.73 0.79
-7.25 0.78 0.73
-7.08 0.78 0.76
-3.25 0.68 1.45
-4.29 -0.73 1.01
-4.12 -0.70 1.04
-4.31 -0.70 1.00
-4.61 -0.62 0.95
-4.60 -0.60 0.95
-4.89 -0.61 0.90
-4.77 -0.58 0.92
-4.89 -0.58 0.90
-5.28 -0.59 0.83
-5.06 -0.56 0.87
-3.17 -0.40 1.21
-4.95 -0.50 0.89
-3.33 -0.37 1.18
-3.55 -0.37 1.14
-3.37 -0.35 1.17
-3.48 -0.34 1.15
-3.75 -0.34 1.10
-3.55 -0.32 1.14
-3.63 -0.31 1.13
-3.55 -0.29 1.14
-3.55 -0.28 1.14
-3.54 -0.26 1.14
-3.38 -0.24 1.17
-3.91 -0.25 1.08
-3.81 -0.23 1.09
-4.03 -0.23 1.05
-3.86 -0.20 1.08
-3.97 -0.19 1.06
-3.91 -0.18 1.07
-3.94 -0.15 1.07
-3.95 -0.12 1.07
-4.89 -0.12 0.90
-7.87 -0.10 0.64
-6.98 -0.02 0.80
-5.11 -0.00 0.79
-5.23 0.02 0.77
-5.25 0.03 0.77
-5.73 0.07 0.67
-4.10 0.09 0.98
-6.43 0.20 0.83
-6.22 0.21 0.87
-6.58 0.24 0.81
-6.69 0.26 0.78
-6.27 0.26 0.86
-6.41 0.29 0.84
-6.35 0.30 0.85
-6.29 0.31 0.86
-6.20 0.33 0.87
-6.52 0.36 0.81
-7.21 0.41 0.68
-6.93 0.42 0.74
-6.71 0.42 0.78
-7.07 0.46 0.71
-6.35 0.43 0.84
-7.03 0.50 0.71
-6.69 0.51 0.78
-6.79 0.53 0.76
-6.83 0.55 0.75
-6.96 0.58 0.73
-6.57 0.57 0.80
-8.01 0.70 0.52
-7.17 0.75 0.68
-7.30 0.78 0.65
-6.83 0.83 0.74
-3.20 -0.82 1.16
-3.04 -0.39 1.19
-2.96 -0.37 1.20
-3.21 -0.36 1.16
-3.03 -0.34 1.19
-3.21 -0.34 1.16
-3.08 -0.32 1.18
-4.12 -0.36 0.98
-3.56 -0.32 1.09
-3.78 -0.32 1.05
-3.56 -0.29 1.09
-3.46 -0.26 1.11
-3.58 -0.25 1.08
-3.60 -0.24 1.08
-5.73 -0.15 0.68
-5.82 -0.04 0.66
-5.05 -0.02 0.80
-6.28 0.05 0.80
-6.21 0.06 0.81
-5.56 0.07 0.94
-5.63 0.09 0.93
-5.80 0.11 0.89
-5.84 0.12 0.89
-5.60 0.13 0.93
-5.66 0.15 0.92
-6.59 0.19 0.74
-6.68 0.21 0.72
-6.25 0.21 0.80
-6.36 0.23 0.78
-6.24 0.25 0.80
-6.17 0.26 0.82
-6.08 0.27 0.84
-6.12 0.29 0.83
-6.07 0.31 0.84
-6.21 0.33 0.81
-6.09 0.34 0.83
-6.15 0.36 0.82
-6.24 0.38 0.80
-6.33 0.40 0.78
-6.53 0.43 0.74
-6.61 0.45 0.73
-6.60 0.47 0.73
-7.03 0.51 0.64
-6.62 0.51 0.72
-6.06 0.48 0.83
-6.16 0.51 0.82
-7.13 0.60 0.62
-6.66 0.58 0.71
-7.11 0.63 0.62
-6.61 0.61 0.72
-6.98 0.66 0.65
-6.38 0.62 0.77
-6.65 0.67 0.71
-6.72 0.69 0.70
-6.91 0.74 0.66
-6.87 0.78 0.67
-4.67 -0.63 0.82
-2.99 -0.40 1.15
-3.24 -0.37 1.10
-3.06 -0.30 1.14
-3.59 -0.31 1.03
-3.45 -0.27 1.06
-3.55 -0.25 1.04
-3.60 -0.24 1.03
-3.70 -0.23 1.01
-6.76 -0.23 0.71
-6.82 -0.21 0.70
-5.75 -0.06 0.91
-5.58 -0.05 0.94
-5.78 -0.02 0.90
-4.84 -0.00 0.72
-4.91 0.01 0.71
-4.85 0.03 0.72
-4.97 0.05 0.70
-5.02 0.07 0.69
-5.23 0.09 0.64
-5.15 0.12 0.66
-5.26 0.16 0.64
-5.23 0.17 0.64
-5.23 0.23 0.64
-5.37 0.25 0.61
-5.00 0.26 0.69
-5.01 0.27 0.68
-4.76 0.28 0.73
-5.19 0.32 0.65
-6.33 0.33 0.73
-6.60 0.36 0.67
-5.91 0.34 0.82
-6.19 0.41 0.76
-6.20 0.42 0.75
-6.30 0.45 0.73
-6.43 0.47 0.71
-6.60 0.50 0.67
-6.41 0.51 0.71
-5.86 0.48 0.82
-6.77 0.57 0.63
-6.60 0.57 0.67
-6.99 0.62 0.59
-6.92 0.63 0.60
-6.98 0.67 0.59
-5.65 0.57 0.86
-6.91 0.71 0.60
-7.15 0.75 0.55
-6.74 0.73 0.64
-3.29 0.50 1.35
-3.11 0.59 1.38
-3.49 -0.67 1.01
-3.52 -0.66 1.00
-3.42 -0.63 1.02
-3.70 -0.65 0.96
-3.24 -0.56 1.06
-3.10 -0.53 1.09
-3.39 -0.55 1.03
-3.06 -0.46 1.09
-2.61 -0.36 1.19
-2.75 -0.36 1.16
-2.92 -0.36 1.12
-2.61 -0.31 1.19
-2.74 -0.31 1.16
-2.81 -0.30 1.15
-3.26 -0.32 1.05
-3.58 -0.32 0.99
-3.37 -0.30 1.03
-3.07 -0.27 1.09
-2.61 -0.23 1.19
-2.26 -0.15 1.26
-1.94 -0.04 1.32
-4.85 -0.04 0.72
-1.88 -0.01 1.33
-5.65 0.01 0.81
-5.48 0.03 0.85
-5.45 0.04 0.86
-5.82 0.06 0.77
-5.63 0.07 0.81
-5.54 0.09 0.83
-5.87 0.11 0.76
-6.47 0.13 0.63
-6.05 0.16 0.72
-6.50 0.19 0.63
-6.38 0.20 0.65
-6.28 0.21 0.67
-6.47 0.24 0.63
-6.06 0.24 0.72
-5.51 0.24 0.84
-5.73 0.26 0.79
-6.00 0.29 0.73
-6.27 0.31 0.67
-6.57 0.34 0.61
-6.64 0.37 0.59
-6.37 0.37 0.65
-6.84 0.41 0.55
-6.37 0.40 0.65
-6.58 0.43 0.60
-6.79 0.46 0.56
-6.58 0.47 0.60
-6.70 0.49 0.57
-6.64 0.51 0.59
-6.63 0.54 0.59
-5.93 0.50 0.74
-6.73 0.58 0.57
-6.80 0.72 0.55
-6.38 0.73 0.64
-6.11 0.75 0.69
-5.96 0.75 0.72
-5.73 0.74 0.78
-6.03 0.79 0.71
-3.35 -0.67 0.98
-3.36 -0.66 0.97
-3.43 -0.65 0.96
-3.21 -0.61 1.01
-3.30 -0.61 0.99
-3.35 -0.60 0.98
-3.21 -0.57 1.01
-3.57 -0.60 0.93
-3.32 -0.56 0.98
-3.39 -0.55 0.97
-3.24 -0.53 1.00
-3.49 -0.54 0.95
-3.21 -0.44 1.01
-3.31 -0.44 0.99
-2.97 -0.40 1.06
-3.15 -0.38 1.02
-2.99 -0.35 1.05
-2.86 -0.33 1.08
-2.82 -0.32 1.09
-2.89 -0.31 1.08
-2.86 -0.29 1.08
-6.23 -0.03 0.69
-5.58 0.04 0.77
-5.78 0.06 0.72
-5.50 0.07 0.79
-5.36 0.08 0.82
-5.41 0.10 0.81
-5.39 0.11 0.81
-5.38 0.13 0.81
-5.43 0.14 0.80
-5.61 0.16 0.76
-5.36 0.17 0.81
-5.31 0.18 0.82
-5.38 0.20 0.81
-5.34 0.21 0.82
-5.36 0.23 0.81
-5.54 0.25 0.77
-5.46 0.26 0.79
-5.98 0.30 0.67
-6.12 0.32 0.64
-6.35 0.55 0.58
-6.51 0.63 0.54
-6.26 0.63 0.60
-6.35 0.65 0.58
-6.34 0.67 0.58
-6.34 0.69 0.58
-6.52 0.74 0.54
-5.73 0.69 0.72
-5.84 0.72 0.69
-5.74 0.72 0.71
-5.79 0.74 0.70
-5.87 0.77 0.68
-3.21 -0.66 0.95
-3.25 -0.66 0.95
-3.24 -0.64 0.95
-3.32 -0.64 0.93
-3.25 -0.62 0.95
-3.23 -0.60 0.95
-3.17 -0.58 0.96
-3.09 -0.56 0.98
-3.64 -0.60 0.86
-2.99 -0.41 1.01
-3.00 -0.40 1.00
-2.92 -0.38 1.02
-2.82 -0.36 1.04
-2.87 -0.35 1.03
-2.84 -0.34 1.04
-2.62 -0.31 1.09
-2.79 -0.31 1.05
-2.61 -0.29 1.09
-2.53 -0.27 1.11
-2.64 -0.27 1.08
-2.45 -0.25 1.13
-2.68 -0.25 1.08
-2.59 -0.23 1.09
-2.58 -0.21 1.10
-2.65 -0.19 1.08
-2.34 -0.17 1.15
-2.69 -0.16 1.07
-2.88 -0.15 1.03
-2.35 -0.12 1.15
-2.50 -0.12 1.12
-4.13 -0.14 0.75
-2.21 -0.09 1.18
-5.96 0.06 0.62
-5.27 0.18 0.78
-5.38 0.20 0.75
-5.55 0.22 0.71
-5.53 0.23 0.72
-5.56 0.25 0.71
-5.50 0.26 0.72
-5.47 0.28 0.73
-5.72 0.30 0.67
-6.21 0.39 0.55
-6.06 0.61 0.58
-6.03 0.62 0.59
-5.98 0.64 0.60
-6.09 0.66 0.57
-5.94 0.68 0.60
-5.82 0.68 0.63
-5.67 0.68 0.67
-5.66 0.70 0.67
-5.54 0.70 0.70
-5.61 0.72 0.68
-5.72 0.75 0.65
-3.00 0.53 1.29
-3.40 -0.62 0.86
-2.95 -0.36 0.97
-2.85 -0.33 0.99
-2.56 -0.30 1.06
