# .PCD v0.7 - Point Cloud Data file format
VERSION 0.7
FIELDS x y z
SIZE 4 4 4
TYPE F F F
COUNT 1 1 1
WIDTH 1748
HEIGHT 1
VIEWPOINT 0 0 0 1 0 0 0
POINTS 1748
DATA ASCII
-11.40 -0.46 1.82
-11.56 -0.43 1.69
-11.52 -0.43 1.64
-11.58 -0.37 1.64
-11.76 -0.34 1.63
-11.60 -0.37 1.53
-11.62 -0.34 1.53
-15.01 0.52 1.35
-14.61 0.62 1.37
-12.04 -0.69 1.51
-11.82 -0.65 1.53
-12.06 -0.60 1.51
-12.08 -0.58 1.51
-11.84 -0.53 1.52
-11.97 -0.51 1.52
-11.64 -0.47 1.53
-12.06 -0.42 1.51
-11.82 -0.39 1.52
-12.25 -0.37 1.50
-11.00 0.28 1.46
-15.18 0.68 1.20
-14.77 0.92 1.22
-14.52 0.98 1.24
-15.73 1.41 1.16
-8.20 -0.48 1.55
-14.16 -0.07 1.27
-10.76 0.30 1.41
-11.99 -0.65 1.25
-8.09 -0.45 1.51
-8.01 -0.40 1.51
-8.02 -0.37 1.51
-7.88 -0.34 1.52
-11.64 0.03 1.30
-11.47 0.06 1.31
-11.02 0.17 1.34
-10.99 0.19 1.34
-10.93 0.22 1.34
-11.15 0.25 1.33
-11.23 0.28 1.32
-7.98 -0.45 1.46
-8.03 -0.42 1.46
-7.95 -0.37 1.46
-11.68 -0.44 1.30
-11.35 -0.37 1.32
-11.38 -0.12 1.32
-11.57 -0.03 1.30
-8.00 -0.49 1.41
-7.83 -0.39 1.42
-7.95 -0.30 1.41
-7.71 -0.20 1.43
-15.69 -0.00 0.83
-11.24 0.05 1.19
-11.30 0.11 1.19
-11.30 0.14 1.19
-11.18 0.17 1.20
-11.19 0.20 1.20
-11.11 0.22 1.20
-11.16 0.28 1.20
-8.53 -0.88 1.31
-9.25 -0.89 1.25
-9.17 -0.85 1.25
-8.73 -0.74 1.29
-8.43 -0.69 1.31
-8.12 -0.65 1.34
-8.68 -0.49 1.41
-8.50 -0.46 1.42
-8.48 -0.44 1.43
-11.84 -0.57 1.15
-11.38 -0.43 1.19
-11.23 -0.14 1.20
-8.82 -0.88 1.22
-8.68 -0.79 1.23
-8.27 -0.73 1.27
-8.34 -0.71 1.26
-8.70 -0.71 1.23
-8.33 -0.66 1.27
-7.96 -0.62 1.30
-7.75 -0.58 1.32
-7.86 -0.54 1.31
-7.73 -0.44 1.32
-7.77 -0.39 1.31
-7.74 -0.25 1.31
-7.76 -0.20 1.31
-7.67 -0.15 1.32
-11.27 0.08 1.06
-11.49 0.11 1.03
-10.63 0.40 1.11
-5.14 0.46 1.63
-8.99 -1.05 1.14
-8.88 -1.02 1.15
-8.90 -0.99 1.15
-9.04 -0.95 1.14
-8.99 -0.92 1.14
-9.13 -0.90 1.13
-8.49 -0.83 1.19
-8.32 -0.79 1.20
-9.10 -0.82 1.13
-8.29 -0.74 1.21
-8.23 -0.66 1.21
-8.53 -0.65 1.18
-7.78 -0.58 1.25
-7.69 -0.53 1.26
-7.82 -0.51 1.25
-7.86 -0.47 1.25
-7.88 -0.44 1.24
-7.86 -0.42 1.24
-7.64 -0.24 1.26
-11.49 -0.09 1.04
-7.96 0.84 1.30
-8.98 -1.37 1.07
-8.89 -1.31 1.08
-8.95 -1.10 1.08
-8.92 -1.07 1.08
-8.83 -1.04 1.09
-8.76 -1.00 1.10
-8.79 -0.98 1.09
-8.72 -0.92 1.10
-8.62 -0.89 1.11
-8.65 -0.87 1.11
-8.25 -0.76 1.15
-8.39 -0.74 1.13
-8.73 -0.71 1.10
-7.80 -0.63 1.19
-7.74 -0.60 1.20
-7.85 -0.59 1.19
-7.77 -0.56 1.19
-7.66 -0.53 1.20
-7.88 -0.51 1.18
-7.83 -0.46 1.19
-7.80 -0.44 1.19
-7.83 -0.42 1.19
-7.56 -0.38 1.21
-7.69 -0.36 1.20
-7.69 -0.34 1.20
-7.80 -0.32 1.19
-2.83 -0.14 1.68
-7.89 -0.25 1.18
-7.86 -0.23 1.18
-7.91 -0.20 1.18
-7.76 -0.13 1.19
-11.55 -0.00 0.88
-11.11 0.14 0.92
-11.16 0.17 0.92
-10.87 0.19 0.95
-10.64 0.27 0.97
-10.53 0.29 0.98
-8.32 0.30 1.22
-10.50 0.93 0.98
-7.54 0.78 1.29
-3.30 -0.67 1.60
-8.83 -1.28 1.02
-9.07 -1.25 0.99
-3.42 -0.61 1.59
-8.72 -1.16 1.03
-3.42 -0.59 1.59
-8.77 -1.11 1.02
-8.63 -1.07 1.04
-8.56 -1.01 1.05
-8.33 -0.97 1.07
-8.42 -0.95 1.06
-8.09 -0.90 1.09
-8.64 -0.92 1.04
-3.29 -0.45 1.60
-8.35 -0.84 1.07
-8.44 -0.77 1.06
-8.17 -0.73 1.09
-7.49 -0.66 1.16
-3.00 -0.34 1.63
-2.92 -0.33 1.64
-7.85 -0.61 1.12
-7.58 -0.57 1.15
-7.69 -0.55 1.14
-7.68 -0.53 1.14
-7.85 -0.51 1.12
-7.80 -0.49 1.12
-7.70 -0.46 1.13
-7.72 -0.44 1.13
-7.86 -0.40 1.12
-7.76 -0.37 1.13
-8.16 -0.32 1.24
-8.08 -0.29 1.25
-8.01 -0.27 1.26
-8.13 -0.25 1.24
-8.08 -0.23 1.25
-8.09 -0.21 1.25
-10.55 -0.08 0.98
-11.69 -0.03 0.86
-10.65 0.91 0.89
-2.80 0.89 1.76
-8.62 -1.15 0.97
-8.87 -1.12 0.94
-8.35 -1.04 1.00
-7.44 -0.54 1.10
-7.68 -0.53 1.07
-7.56 -0.45 1.09
-7.56 -0.43 1.09
-7.69 -0.41 1.07
-7.73 -0.39 1.07
-8.73 -0.40 0.95
-7.69 -0.34 1.07
-7.49 -0.31 1.09
-7.68 -0.29 1.07
-7.76 -0.27 1.06
-7.98 -0.21 1.04
-11.09 0.16 0.77
-14.01 0.34 0.41
-10.44 0.82 0.83
-10.54 0.85 0.82
-10.74 0.89 0.80
-10.40 0.89 0.84
-10.58 0.94 0.81
-7.59 0.81 1.17
-8.91 -1.64 0.86
-8.89 -1.61 0.86
-8.90 -1.58 0.86
-9.01 -1.52 0.84
-8.84 -1.44 0.86
-8.95 -1.43 0.85
-8.97 -1.35 0.85
-8.92 -1.32 0.86
-8.81 -1.15 0.87
-8.55 -1.09 0.90
-8.56 -1.04 0.90
-8.81 -0.99 0.87
-8.70 -0.95 0.88
-8.46 -0.90 0.91
-8.52 -0.88 0.90
-8.46 -0.85 0.91
-8.66 -0.84 0.89
-8.54 -0.81 0.90
-11.05 -0.96 0.60
-8.18 -0.71 0.94
-8.27 -0.69 0.93
-8.03 -0.60 0.96
-8.27 -0.49 1.11
-8.54 -0.49 1.08
-10.15 -0.47 0.88
-10.36 -0.42 0.86
-8.50 -0.33 1.08
-10.00 -0.36 0.90
-8.34 -0.28 1.10
-8.65 -0.25 1.06
-10.90 -0.20 0.79
-10.87 0.16 0.71
-10.11 0.69 0.80
-10.78 0.87 0.71
-7.39 0.71 1.15
-7.54 0.74 1.13
-8.68 -1.52 0.81
-3.37 -0.70 1.48
-8.71 -1.29 0.81
-3.38 -0.65 1.48
-8.65 -1.23 0.81
-8.60 -1.20 0.82
-8.62 -1.18 0.82
-8.76 -1.17 0.80
-8.89 -1.15 0.78
-3.23 -0.55 1.50
-3.26 -0.54 1.49
-3.19 -0.52 1.50
-3.22 -0.51 1.50
-8.37 -0.97 0.85
-8.22 -0.93 0.87
-8.03 -0.89 0.89
-3.00 -0.44 1.53
-3.01 -0.43 1.52
-3.17 -0.43 1.50
-2.94 -0.40 1.53
-3.16 -0.40 1.51
-3.15 -0.39 1.51
-3.10 -0.37 1.51
-2.84 -0.34 1.55
-2.98 -0.34 1.53
-3.07 -0.33 1.52
-3.01 -0.32 1.52
-2.96 -0.30 1.53
-3.08 -0.30 1.52
-2.93 -0.28 1.53
-2.81 -0.26 1.55
-2.89 -0.25 1.54
-2.86 -0.24 1.54
-7.57 -0.43 0.95
-7.57 -0.41 0.95
-7.57 -0.38 0.95
-7.59 -0.36 0.95
-0.87 -0.10 1.79
-10.43 -0.32 0.59
-5.76 -0.03 1.18
-10.71 0.13 0.65
-8.27 0.34 0.98
-8.43 0.39 0.95
-6.57 0.34 1.20
-9.53 0.55 0.80
-9.73 0.59 0.78
-9.93 0.63 0.75
-9.85 0.65 0.76
-9.94 0.68 0.75
-10.03 0.71 0.73
-10.21 0.75 0.71
-7.73 0.60 1.04
-10.35 0.81 0.69
-10.42 0.84 0.68
-7.73 0.66 1.04
-10.50 0.90 0.67
-10.39 0.94 0.68
-7.74 0.78 1.04
-7.41 0.79 1.08
-7.52 0.82 1.07
-7.49 0.88 1.07
-8.73 -1.61 0.72
-8.76 -1.59 0.72
-8.78 -1.54 0.72
-8.74 -1.48 0.72
-3.46 -0.74 1.43
-3.38 -0.72 1.44
-8.83 -1.36 0.71
-8.68 -1.32 0.73
-3.49 -0.68 1.42
-3.63 -0.68 1.40
-8.68 -1.24 0.73
-3.63 -0.64 1.40
-3.62 -0.62 1.41
-3.41 -0.59 1.43
-9.14 -1.15 0.67
-6.19 -0.83 1.06
-6.15 -0.81 1.07
-3.22 -0.49 1.46
-8.33 -0.92 0.78
-2.99 -0.44 1.49
-2.97 -0.43 1.49
-3.15 -0.43 1.47
-2.98 -0.40 1.49
-3.19 -0.41 1.46
-3.49 -0.42 1.42
-3.09 -0.38 1.47
-3.29 -0.38 1.45
-3.08 -0.35 1.48
-3.23 -0.35 1.46
-7.79 -0.61 0.85
-2.67 -0.29 1.53
-2.88 -0.29 1.50
-7.54 -0.52 0.88
-2.82 -0.26 1.51
-3.11 -0.26 1.47
-2.97 -0.24 1.49
-3.01 -0.23 1.48
-7.22 -0.39 0.93
-2.85 -0.20 1.51
-7.25 -0.35 0.92
-7.19 -0.33 0.93
-7.17 -0.30 0.93
-7.05 -0.28 0.95
-7.42 -0.26 0.90
-10.75 -0.23 0.45
-8.60 -0.14 0.94
-8.69 -0.12 0.93
-5.88 0.01 1.04
-5.97 0.03 1.03
-5.92 0.05 1.04
-6.05 0.07 1.02
-5.99 0.09 1.03
-8.67 0.14 0.65
-6.21 0.13 0.99
-8.16 0.29 0.93
-8.26 0.33 0.91
-7.41 0.40 1.03
-8.01 0.45 0.95
-9.68 0.56 0.71
-9.76 0.59 0.70
-9.42 0.60 0.75
-7.07 0.48 1.08
-10.12 0.71 0.64
-9.55 0.70 0.73
-10.37 0.84 0.61
-7.79 0.74 0.97
-7.56 0.74 1.00
-7.73 0.78 0.98
-10.72 1.08 0.55
-10.84 1.18 0.53
-10.82 1.20 0.54
-10.80 1.23 0.54
-8.79 -1.67 0.63
-8.83 -1.65 0.63
-8.60 -1.59 0.66
-3.35 -0.74 1.40
-3.20 -0.65 1.42
-6.14 -0.91 1.01
-8.99 -1.16 0.61
-2.77 -0.41 1.48
-7.97 -0.79 0.75
-2.78 -0.38 1.48
-3.05 -0.38 1.44
-2.94 -0.36 1.46
-2.85 -0.35 1.47
-2.94 -0.34 1.46
-2.89 -0.32 1.47
-2.92 -0.31 1.46
-3.11 -0.31 1.44
-3.12 -0.30 1.43
-7.43 -0.52 0.83
-7.21 -0.48 0.86
-7.50 -0.48 0.82
-2.83 -0.24 1.47
-2.94 -0.23 1.46
-7.19 -0.39 0.86
-7.17 -0.37 0.86
-7.16 -0.35 0.87
-7.26 -0.33 0.85
-7.56 -0.32 0.81
-7.19 -0.28 0.86
-7.25 -0.26 0.85
-7.41 -0.22 0.83
-7.81 -0.18 0.77
-6.26 -0.09 0.99
-6.03 -0.07 1.02
-5.80 -0.05 1.05
-5.90 -0.03 1.04
-5.93 -0.01 1.04
-10.90 0.05 0.45
-6.57 0.12 1.10
-8.90 0.18 0.75
-8.68 0.22 0.78
-8.73 0.26 0.77
-8.84 0.31 0.76
-8.87 0.34 0.75
-10.26 0.41 0.54
-9.27 0.42 0.69
-9.66 0.49 0.63
-7.51 0.42 0.95
-7.64 0.45 0.93
-9.49 0.58 0.66
-7.42 0.50 0.96
-9.93 0.80 0.59
-7.87 0.69 0.89
-7.76 0.72 0.91
-7.86 0.77 0.89
-7.84 0.79 0.89
-7.89 0.81 0.89
-10.61 1.18 0.48
-10.68 1.27 0.46
-10.52 1.28 0.49
-8.77 -1.64 0.55
-3.29 -0.80 1.36
-3.40 -0.80 1.35
-3.40 -0.79 1.35
-3.51 -0.78 1.33
-3.61 -0.73 1.32
-3.45 -0.66 1.34
-3.81 -0.67 1.29
-3.76 -0.64 1.30
-3.53 -0.60 1.33
-3.41 -0.57 1.35
-3.09 -0.52 1.39
-3.17 -0.50 1.38
-2.98 -0.46 1.41
-2.90 -0.44 1.42
-2.86 -0.42 1.43
-2.97 -0.40 1.41
-2.90 -0.37 1.42
-2.80 -0.34 1.44
-2.95 -0.34 1.42
-2.97 -0.33 1.41
-2.91 -0.30 1.42
-3.24 -0.29 1.37
-3.12 -0.26 1.39
-7.04 -0.43 0.81
-7.17 -0.42 0.79
-7.17 -0.37 0.79
-6.95 -0.32 0.82
-8.37 -0.26 0.83
-8.03 -0.21 0.88
-10.57 -0.25 0.51
-10.82 -0.23 0.47
-10.84 -0.17 0.47
-8.14 -0.09 0.87
-8.12 -0.05 0.87
-8.13 -0.03 0.87
-6.39 0.01 0.84
-8.33 0.09 0.54
-6.60 0.11 0.81
-6.69 0.14 0.79
-6.63 0.16 0.80
-7.48 0.40 0.67
-8.93 0.43 0.67
-9.63 0.58 0.56
-7.78 0.62 0.85
-9.72 0.81 0.54
-7.98 0.70 0.82
-7.99 0.72 0.81
-8.07 0.75 0.80
-7.94 0.76 0.82
-7.87 0.77 0.83
-8.11 0.81 0.79
-8.03 0.83 0.81
-10.42 1.13 0.43
-10.58 1.17 0.40
-10.75 1.22 0.37
-10.90 1.26 0.35
-10.91 1.32 0.35
-10.99 1.39 0.33
-11.02 1.45 0.33
-8.91 -1.66 0.45
-8.90 -1.64 0.45
-8.85 -1.60 0.46
-8.77 -1.54 0.47
-8.48 -1.47 0.52
-8.92 -1.48 0.45
-5.27 -0.90 1.02
-9.18 -1.35 0.41
-8.39 -1.08 0.54
-8.81 -1.07 0.47
-8.06 -0.85 0.59
-2.67 -0.37 1.42
-9.09 -0.82 0.43
-2.87 -0.36 1.39
-8.35 -0.72 0.54
-8.24 -0.69 0.56
-8.72 -0.69 0.48
-7.99 -0.62 0.60
-7.54 -0.57 0.67
-7.45 -0.54 0.68
-7.18 -0.51 0.72
-7.06 -0.48 0.74
-7.49 -0.48 0.68
-7.68 -0.46 0.65
-7.12 -0.41 0.73
-7.67 -0.41 0.65
-7.29 -0.38 0.71
-7.32 -0.35 0.70
-2.62 -0.17 1.43
-2.52 -0.15 1.45
-7.10 -0.28 0.74
-7.45 -0.27 0.68
-7.41 -0.24 0.69
-7.21 -0.22 0.72
-7.72 -0.20 0.64
-5.57 -0.10 0.97
-6.61 -0.10 0.81
-5.79 -0.07 0.94
-6.11 -0.01 0.89
-6.80 -0.01 0.95
-10.23 0.02 0.39
-6.65 0.03 0.97
-6.34 0.05 1.02
-9.46 0.09 0.51
-6.50 0.08 1.00
-7.10 0.11 0.90
-6.70 0.12 0.96
-7.11 0.14 0.90
-7.59 0.17 0.82
-6.97 0.18 0.92
-7.25 0.20 0.87
-6.94 0.21 0.92
-10.54 0.34 0.33
-9.54 0.33 0.50
-7.14 0.27 0.89
-10.37 0.41 0.36
-9.06 0.39 0.57
-7.56 0.35 0.82
-8.78 0.42 0.62
-9.07 0.46 0.57
-8.99 0.48 0.58
-9.00 0.50 0.58
-9.11 0.53 0.56
-9.27 0.56 0.53
-8.94 0.57 0.59
-7.82 0.52 0.77
-8.02 0.55 0.74
-8.93 0.64 0.59
-8.23 0.61 0.70
-7.94 0.61 0.75
-7.85 0.63 0.77
-7.87 0.65 0.76
-7.80 0.66 0.77
-7.82 0.68 0.77
-7.87 0.71 0.76
-8.01 0.74 0.74
-7.98 0.76 0.74
-8.36 0.84 0.68
-8.21 0.84 0.70
-8.08 0.85 0.72
-7.37 0.92 0.84
-7.28 0.93 0.85
-7.22 0.94 0.86
-7.35 0.98 0.84
-7.28 0.99 0.85
-7.48 1.03 0.81
-7.32 1.03 0.84
-7.26 1.04 0.85
-7.22 1.06 0.86
-7.33 1.09 0.84
-7.36 1.12 0.83
-7.32 1.13 0.84
-7.42 1.16 0.82
-7.38 1.18 0.82
-7.60 1.25 0.79
-6.24 -1.31 0.79
-8.89 -1.69 0.36
-8.74 -1.64 0.38
-8.77 -1.62 0.38
-8.74 -1.59 0.38
-8.79 -1.57 0.38
-8.71 -1.53 0.39
-4.97 -0.99 1.00
-5.23 -1.01 0.96
-5.41 -1.02 0.93
-5.03 -0.95 0.99
-5.01 -0.93 1.00
-4.75 -0.88 1.04
-5.11 -0.91 0.98
-5.11 -0.89 0.98
-5.13 -0.87 0.98
-5.03 -0.84 0.99
-5.12 -0.84 0.98
-5.42 -0.85 0.93
-5.07 -0.80 0.99
-5.04 -0.77 0.99
-5.24 -0.78 0.96
-5.30 -0.77 0.95
-5.65 -0.78 0.89
-5.46 -0.75 0.92
-2.94 -0.49 1.34
-8.20 -0.96 0.48
-8.12 -0.93 0.49
-2.79 -0.44 1.36
-3.07 -0.45 1.32
-3.01 -0.43 1.33
-2.74 -0.40 1.37
-2.86 -0.40 1.35
-3.02 -0.40 1.32
-2.88 -0.37 1.35
-2.85 -0.36 1.35
-2.85 -0.35 1.35
-2.82 -0.33 1.36
-2.86 -0.32 1.35
-2.70 -0.30 1.38
-2.79 -0.30 1.36
-2.77 -0.28 1.36
-7.86 -0.47 0.78
-10.36 -0.59 0.37
-7.57 -0.42 0.83
-7.85 -0.41 0.78
-7.61 -0.38 0.82
-7.46 -0.35 0.84
-7.75 -0.35 0.80
-7.79 -0.33 0.79
-7.57 -0.30 0.83
-7.63 -0.28 0.82
-8.05 -0.28 0.75
-8.11 -0.26 0.74
-8.85 -0.23 0.62
-8.24 -0.20 0.71
-8.75 -0.19 0.63
-9.06 -0.17 0.58
-9.06 -0.15 0.58
-9.12 -0.12 0.57
-10.40 -0.11 0.36
-6.30 -0.05 1.03
-6.27 -0.04 1.04
-10.53 -0.03 0.34
-5.98 0.01 0.77
-6.27 0.03 0.72
-6.15 0.05 0.74
-6.68 0.05 0.91
-6.43 0.06 0.95
-6.15 0.08 1.00
-8.74 0.13 0.56
-8.42 0.14 0.61
-8.68 0.17 0.56
-8.59 0.19 0.58
-8.76 0.22 0.55
-7.29 0.22 0.80
-6.51 0.22 0.94
-6.44 0.23 0.95
-6.51 0.25 0.94
-7.56 0.31 0.76
-8.51 0.36 0.59
-8.52 0.39 0.59
-8.48 0.41 0.59
-7.79 0.40 0.71
-8.25 0.44 0.63
-8.53 0.48 0.59
-9.00 0.52 0.50
-8.77 0.53 0.54
-8.30 0.53 0.62
-8.10 0.54 0.66
-8.14 0.56 0.65
-8.35 0.60 0.61
-8.14 0.60 0.65
-7.76 0.60 0.71
-7.97 0.63 0.68
-7.96 0.65 0.68
-8.11 0.68 0.65
-7.92 0.69 0.68
-7.92 0.71 0.68
-7.99 0.74 0.67
-8.79 0.83 0.53
-9.05 0.87 0.49
-8.65 0.86 0.55
-8.71 0.89 0.54
-8.80 0.92 0.53
-8.52 0.92 0.58
-8.59 0.95 0.56
-8.51 0.96 0.58
-8.33 0.96 0.61
-8.27 0.98 0.62
-8.06 0.98 0.65
-8.16 1.01 0.63
-7.84 0.99 0.69
-7.58 0.98 0.73
-7.53 1.00 0.74
-7.42 1.00 0.76
-7.45 1.03 0.76
-7.42 1.04 0.76
-3.71 0.58 1.41
-7.41 1.08 0.76
-7.38 1.10 0.76
-7.44 1.12 0.75
-7.38 1.14 0.76
-7.39 1.16 0.76
-7.41 1.18 0.76
-7.44 1.20 0.75
-7.50 1.23 0.74
-7.58 1.26 0.72
-7.52 1.28 0.73
-3.29 -0.87 1.24
-3.29 -0.85 1.24
-3.31 -0.84 1.23
-3.30 -0.83 1.23
-3.71 -0.87 1.16
-3.27 -0.80 1.24
-3.28 -0.79 1.24
-3.39 -0.79 1.22
-5.11 -1.01 0.92
-5.32 -1.02 0.89
-5.37 -1.01 0.88
-5.27 -0.98 0.90
-5.14 -0.94 0.92
-5.24 -0.94 0.90
-4.98 -0.89 0.95
-4.95 -0.87 0.95
-5.16 -0.87 0.92
-5.15 -0.86 0.92
-3.69 -0.67 1.17
-3.66 -0.66 1.17
-4.95 -0.78 0.95
-3.61 -0.62 1.18
-3.42 -0.59 1.21
-3.37 -0.57 1.22
-3.17 -0.54 1.26
-3.16 -0.52 1.26
-3.20 -0.51 1.25
-3.27 -0.51 1.24
-3.15 -0.48 1.26
-2.99 -0.46 1.29
-3.51 -0.49 1.20
-3.29 -0.46 1.24
-3.37 -0.45 1.22
-3.00 -0.41 1.29
-2.91 -0.39 1.30
-2.97 -0.38 1.29
-2.97 -0.37 1.29
-2.84 -0.35 1.31
-2.75 -0.33 1.33
-2.78 -0.32 1.32
-2.75 -0.30 1.33
-2.79 -0.29 1.32
-2.78 -0.28 1.32
-2.83 -0.27 1.32
-2.74 -0.26 1.33
-2.87 -0.25 1.31
-2.77 -0.23 1.33
-2.81 -0.22 1.32
-2.70 -0.21 1.34
-2.81 -0.20 1.32
-2.74 -0.19 1.33
-2.79 -0.18 1.32
-2.70 -0.16 1.34
-2.70 -0.15 1.34
-2.45 -0.13 1.38
-2.84 -0.13 1.31
-2.53 -0.11 1.36
-2.47 -0.10 1.37
-6.67 -0.16 0.66
-7.06 -0.15 0.59
-6.69 -0.12 0.65
-6.73 -0.10 0.64
-3.15 -0.05 1.26
-6.54 -0.06 0.68
-6.36 -0.03 0.71
-6.33 -0.01 0.71
-8.54 -0.01 0.52
-8.94 0.01 0.44
-9.26 0.04 0.39
-6.27 0.04 0.93
-9.26 0.09 0.39
-6.18 0.08 0.94
-8.15 0.12 0.59
-8.47 0.14 0.53
-8.65 0.17 0.49
-8.56 0.19 0.51
-6.39 0.16 0.90
-8.44 0.23 0.53
-8.45 0.25 0.53
-8.39 0.27 0.54
-8.43 0.30 0.53
-8.43 0.32 0.53
-6.58 0.27 0.86
-6.70 0.29 0.84
-7.40 0.34 0.72
-8.50 0.41 0.52
-9.07 0.46 0.41
-7.71 0.41 0.66
-8.89 0.49 0.45
-8.50 0.50 0.51
-5.10 0.33 1.13
-8.69 0.55 0.48
-8.85 0.58 0.45
-7.95 0.55 0.61
-9.05 0.64 0.41
-7.78 0.58 0.64
-8.24 0.63 0.56
-7.85 0.62 0.63
-9.47 0.77 0.33
-9.44 0.79 0.34
-9.33 0.80 0.36
-9.47 0.84 0.33
-8.85 0.81 0.44
-8.87 0.84 0.44
-8.75 0.85 0.46
-8.16 0.82 0.57
-8.16 0.84 0.57
-8.13 0.86 0.57
-8.09 0.87 0.58
-8.14 0.90 0.57
-8.02 0.91 0.59
-8.15 0.94 0.57
-8.19 0.97 0.56
-8.40 1.01 0.52
-8.30 1.02 0.54
-8.35 1.05 0.53
-8.19 1.06 0.55
-8.03 1.06 0.58
-7.73 1.04 0.64
-7.78 1.07 0.63
-7.85 1.10 0.61
-7.81 1.11 0.62
-7.67 1.12 0.64
-7.70 1.14 0.64
-7.59 1.15 0.66
-7.45 1.15 0.68
-7.59 1.19 0.66
-7.44 1.18 0.68
-7.43 1.20 0.68
-7.48 1.23 0.67
-7.39 1.24 0.69
-7.51 1.27 0.67
-7.45 1.28 0.68
-7.44 1.30 0.68
-7.54 1.34 0.66
-7.42 1.34 0.68
-7.51 1.38 0.66
-7.56 1.40 0.65
-3.23 -0.87 1.20
-3.39 -0.88 1.17
-3.26 -0.85 1.19
-5.35 -1.15 0.82
-5.03 -1.09 0.88
-5.07 -1.08 0.87
-5.04 -1.05 0.87
-5.20 -1.06 0.85
-5.34 -1.06 0.82
-5.17 -1.02 0.85
-5.35 -1.03 0.82
-4.94 -0.95 0.89
-4.96 -0.94 0.89
-4.81 -0.90 0.92
-5.17 -0.93 0.85
-4.82 -0.87 0.92
-4.62 -0.83 0.95
-4.61 -0.81 0.95
-4.51 -0.78 0.97
-4.14 -0.72 1.04
-4.37 -0.74 1.00
-4.37 -0.72 1.00
-4.32 -0.70 1.01
-4.55 -0.71 0.96
-4.32 -0.67 1.01
-3.84 -0.60 1.09
-3.85 -0.59 1.09
-4.11 -0.60 1.04
-3.86 -0.56 1.09
-3.74 -0.54 1.11
-3.44 -0.50 1.16
-3.45 -0.48 1.16
-3.31 -0.46 1.19
-3.17 -0.43 1.21
-3.11 -0.42 1.22
-3.41 -0.43 1.17
-3.49 -0.42 1.16
-3.73 -0.42 1.11
-3.26 -0.38 1.20
-3.06 -0.35 1.23
-3.17 -0.34 1.21
-3.94 -0.38 1.07
-2.95 -0.31 1.25
-2.92 -0.29 1.26
-2.82 -0.27 1.27
-2.86 -0.26 1.27
-2.86 -0.25 1.27
-2.82 -0.24 1.27
-2.89 -0.23 1.26
-2.90 -0.22 1.26
-2.86 -0.20 1.27
-2.80 -0.19 1.28
-2.84 -0.18 1.27
-2.77 -0.16 1.28
-2.52 -0.14 1.33
-2.63 -0.14 1.31
-2.54 -0.12 1.32
-2.56 -0.11 1.32
-6.82 -0.19 0.56
-2.89 -0.09 1.26
-2.96 -0.08 1.25
-7.08 -0.12 0.78
-7.41 -0.10 0.72
-7.40 -0.08 0.72
-8.97 -0.08 0.44
-7.66 -0.05 0.68
-9.07 -0.03 0.42
-6.83 0.01 0.47
-3.36 0.02 1.13
-3.41 0.03 1.12
-3.62 0.05 1.08
-3.71 0.06 1.06
-3.97 0.12 1.01
-3.95 0.14 1.01
-4.00 0.15 1.01
-8.20 0.22 0.50
-8.36 0.25 0.47
-8.58 0.28 0.42
-8.61 0.30 0.42
-8.50 0.32 0.44
-8.44 0.34 0.45
-8.58 0.37 0.42
-7.68 0.35 0.59
-7.84 0.38 0.56
-7.58 0.39 0.61
-8.19 0.43 0.50
-7.61 0.43 0.60
-8.31 0.48 0.47
-7.96 0.49 0.54
-7.93 0.50 0.54
-7.84 0.54 0.56
-7.57 0.54 0.61
-8.48 0.67 0.43
-8.02 0.66 0.52
-8.48 0.73 0.43
-8.49 0.76 0.43
-7.46 0.69 0.63
-7.45 0.75 0.63
-7.92 0.81 0.54
-7.80 0.82 0.56
-7.78 0.84 0.56
-7.71 0.85 0.57
-7.88 0.89 0.54
-7.93 0.92 0.53
-8.26 0.97 0.47
-8.13 0.98 0.49
-8.20 1.01 0.48
-7.78 0.98 0.56
-7.92 1.02 0.53
-7.78 1.03 0.55
-7.55 1.02 0.60
-7.39 1.02 0.63
-7.92 1.11 0.53
-7.73 1.10 0.56
-7.96 1.15 0.52
-7.74 1.14 0.56
-7.77 1.17 0.55
-7.57 1.16 0.59
-7.76 1.21 0.55
-7.51 1.19 0.60
-7.54 1.22 0.59
-7.49 1.23 0.60
-7.54 1.26 0.59
-7.45 1.26 0.61
-7.49 1.29 0.60
-7.58 1.32 0.58
-7.41 1.32 0.61
-5.72 -1.38 0.68
-3.20 -0.93 1.16
-5.59 -1.32 0.70
-5.50 -1.29 0.72
-5.80 -1.32 0.67
-5.80 -1.30 0.67
-2.54 -0.76 1.28
-5.76 -1.25 0.67
-2.94 -0.80 1.21
-5.71 -1.21 0.68
-5.71 -1.19 0.68
-5.51 -1.14 0.72
-5.49 -1.12 0.73
-5.68 -1.13 0.69
-5.63 -1.10 0.70
-5.32 -1.04 0.76
-3.58 -0.79 1.09
-3.25 -0.73 1.15
-4.59 -0.89 0.90
-4.61 -0.88 0.89
-4.52 -0.85 0.91
-4.82 -0.87 0.85
-4.59 -0.82 0.90
-4.44 -0.79 0.93
-4.32 -0.76 0.95
-4.32 -0.74 0.95
-4.38 -0.74 0.94
-4.42 -0.72 0.93
-4.56 -0.72 0.91
-4.27 -0.68 0.96
-4.32 -0.67 0.95
-4.28 -0.65 0.96
-3.82 -0.59 1.05
-4.29 -0.62 0.96
-4.08 -0.58 1.00
-3.54 -0.52 1.10
-3.16 -0.47 1.17
-3.06 -0.45 1.19
-3.11 -0.44 1.18
-2.99 -0.42 1.20
-3.05 -0.41 1.19
-2.85 -0.38 1.23
-2.99 -0.38 1.20
-3.06 -0.37 1.19
-2.92 -0.35 1.21
-2.86 -0.34 1.22
-2.86 -0.32 1.22
-2.74 -0.30 1.25
-2.74 -0.29 1.25
-2.66 -0.28 1.26
-2.78 -0.27 1.24
-2.73 -0.26 1.25
-2.73 -0.24 1.25
-2.71 -0.23 1.25
-2.65 -0.22 1.26
-2.65 -0.21 1.26
-2.69 -0.20 1.26
-2.66 -0.18 1.26
-2.61 -0.17 1.27
-2.61 -0.16 1.27
-2.56 -0.15 1.28
-2.54 -0.13 1.28
-2.63 -0.12 1.27
-2.71 -0.11 1.25
-2.98 -0.11 1.20
-2.71 -0.09 1.25
-3.06 -0.08 1.18
-2.98 -0.07 1.20
-3.38 -0.06 1.12
-6.68 -0.08 0.50
-3.46 -0.04 1.11
-3.77 -0.02 1.05
-3.49 -0.01 1.10
-7.44 -0.01 0.57
-7.51 0.01 0.56
-7.78 0.03 0.50
-7.70 0.05 0.52
-7.59 0.07 0.54
-7.72 0.09 0.51
-7.49 0.11 0.56
-7.70 0.13 0.52
-7.64 0.15 0.53
-7.89 0.18 0.48
-7.40 0.18 0.58
-7.53 0.21 0.55
-7.58 0.23 0.54
-4.82 0.17 1.09
-7.26 0.26 0.60
-8.24 0.31 0.41
-6.55 0.27 0.74
-8.12 0.35 0.43
-7.14 0.33 0.63
-7.50 0.38 0.55
-7.45 0.40 0.56
-7.42 0.42 0.57
-7.54 0.44 0.54
-7.68 0.47 0.52
-7.64 0.49 0.52
-7.64 0.51 0.52
-7.39 0.51 0.57
-7.57 0.54 0.54
-7.58 0.56 0.53
-8.48 0.65 0.35
-7.57 0.60 0.53
-6.72 0.56 0.70
-7.43 0.63 0.56
-7.18 0.63 0.61
-7.47 0.67 0.55
-7.32 0.68 0.58
-7.24 0.69 0.60
-7.29 0.72 0.58
-7.11 0.72 0.62
-7.24 0.75 0.59
-7.13 0.76 0.62
-7.14 0.78 0.61
-7.10 0.79 0.62
-7.41 0.84 0.56
-7.54 0.88 0.53
-7.51 0.90 0.54
-7.70 0.94 0.50
-7.59 0.94 0.52
-7.62 0.97 0.51
-7.54 0.98 0.53
-7.84 1.03 0.47
-7.66 1.03 0.50
-7.77 1.07 0.48
-7.79 1.09 0.47
-7.75 1.10 0.48
-7.67 1.12 0.50
-7.63 1.13 0.50
-7.37 1.12 0.55
-7.54 1.16 0.52
-7.67 1.20 0.49
-7.65 1.21 0.50
-7.39 1.20 0.55
-7.67 1.26 0.49
-7.58 1.27 0.51
-7.63 1.29 0.50
-7.53 1.30 0.52
-7.85 1.37 0.45
-5.34 1.03 0.95
-5.29 1.03 0.96
-5.45 1.08 0.93
-5.34 1.07 0.95
-5.39 1.10 0.94
-5.22 1.08 0.97
-5.30 1.11 0.96
-5.31 1.13 0.95
-3.76 -1.12 0.99
-3.66 -1.08 1.01
-5.54 -1.39 0.64
-5.68 -1.40 0.61
-5.58 -1.36 0.63
-5.72 -1.37 0.61
-5.66 -1.34 0.62
-5.76 -1.33 0.60
-5.75 -1.31 0.60
-3.42 -0.92 1.06
-5.44 -1.23 0.66
-4.90 -1.12 0.77
-5.31 -1.17 0.69
-4.88 -1.08 0.77
-4.74 -1.05 0.80
-4.73 -1.03 0.81
-4.65 -1.00 0.82
-4.83 -1.01 0.79
-4.40 -0.93 0.87
-4.46 -0.92 0.86
-4.42 -0.90 0.87
-4.48 -0.89 0.86
-4.52 -0.88 0.85
-4.51 -0.87 0.85
-4.58 -0.86 0.84
-4.52 -0.83 0.85
-4.51 -0.82 0.85
-4.42 -0.79 0.87
-4.35 -0.77 0.88
-4.48 -0.76 0.86
-4.13 -0.71 0.93
-4.32 -0.71 0.89
-4.20 -0.69 0.91
-4.18 -0.67 0.92
-4.13 -0.65 0.93
-4.16 -0.64 0.92
-3.98 -0.60 0.96
-3.90 -0.58 0.97
-3.78 -0.56 1.00
-3.75 -0.54 1.00
-3.90 -0.54 0.97
-3.81 -0.51 0.99
-3.58 -0.48 1.04
-3.70 -0.48 1.01
-3.18 -0.42 1.12
-3.24 -0.41 1.10
-3.49 -0.42 1.05
-3.45 -0.40 1.06
-3.53 -0.40 1.04
-3.47 -0.38 1.06
-3.10 -0.34 1.13
-2.92 -0.32 1.17
-2.89 -0.30 1.17
-3.00 -0.30 1.15
-2.81 -0.27 1.19
-2.90 -0.27 1.17
-3.60 -0.29 1.03
-2.76 -0.23 1.20
-2.79 -0.22 1.19
-2.78 -0.21 1.19
-2.73 -0.20 1.20
-2.65 -0.18 1.22
-7.73 -0.31 0.52
-7.64 -0.28 0.53
-7.69 -0.27 0.53
-7.59 -0.24 0.54
-4.19 -0.13 1.22
-4.40 -0.13 1.18
-7.24 -0.18 0.61
-7.18 -0.16 0.62
-7.08 -0.14 0.64
-7.16 -0.12 0.63
-7.24 -0.10 0.61
-7.21 -0.08 0.62
-7.22 -0.06 0.61
-7.18 -0.04 0.62
-7.33 -0.03 0.59
-6.60 0.01 0.37
-3.87 0.02 0.93
-6.22 0.05 0.45
-3.99 0.08 0.90
-3.87 0.11 0.93
-4.04 0.17 0.89
-4.01 0.18 0.90
-4.17 0.20 0.86
-4.02 0.21 0.89
-4.57 0.25 0.78
-4.69 0.32 0.75
-6.50 0.33 0.70
-6.65 0.36 0.66
-7.46 0.42 0.49
-7.66 0.45 0.45
-7.98 0.49 0.39
-7.45 0.48 0.50
-7.20 0.48 0.55
-7.44 0.51 0.50
-7.19 0.52 0.55
-7.64 0.57 0.45
-6.82 0.55 0.62
-6.98 0.59 0.59
-7.51 0.66 0.48
-7.38 0.66 0.51
-7.09 0.68 0.56
-6.97 0.72 0.59
-7.04 0.75 0.57
-7.04 0.77 0.57
-7.02 0.78 0.58
-7.04 0.80 0.57
-7.07 0.83 0.56
-7.42 0.88 0.49
-7.27 0.89 0.52
-7.58 0.94 0.45
-7.70 0.97 0.43
-7.82 1.01 0.40
-7.67 1.01 0.43
-7.78 1.04 0.41
-7.63 1.05 0.44
-7.77 1.08 0.41
-7.44 1.06 0.48
-7.51 1.09 0.46
-7.53 1.11 0.46
-7.58 1.14 0.45
-7.38 1.13 0.49
-7.40 1.16 0.48
-7.44 1.18 0.47
-7.47 1.20 0.47
-7.55 1.24 0.45
-7.67 1.28 0.42
-7.39 1.25 0.48
-7.69 1.34 0.42
-7.82 1.38 0.39
-5.74 -1.42 0.54
-5.61 -1.38 0.56
-5.71 -1.38 0.54
-5.80 -1.38 0.53
-5.84 -1.36 0.52
-2.42 -0.77 1.23
-2.51 -0.78 1.21
-2.48 -0.76 1.21
-5.65 -1.26 0.56
-5.16 -1.16 0.66
-4.70 -1.07 0.76
-4.85 -1.08 0.73
-4.70 -1.04 0.76
-4.71 -1.02 0.75
-4.56 -0.98 0.79
-4.67 -0.98 0.76
-4.62 -0.96 0.77
-4.84 -0.97 0.73
-4.79 -0.95 0.74
-4.80 -0.93 0.74
-4.57 -0.89 0.79
-4.49 -0.86 0.80
-4.71 -0.87 0.76
-4.30 -0.81 0.84
-4.06 -0.76 0.89
-4.08 -0.75 0.89
-4.38 -0.77 0.83
-4.30 -0.74 0.84
-3.98 -0.69 0.91
-4.08 -0.69 0.89
-4.27 -0.69 0.85
-4.39 -0.69 0.82
-4.35 -0.67 0.83
-4.22 -0.64 0.86
-4.00 -0.60 0.90
-3.87 -0.58 0.93
-3.71 -0.55 0.97
-3.82 -0.54 0.94
-3.78 -0.53 0.95
-3.85 -0.52 0.94
-3.71 -0.49 0.96
-3.26 -0.44 1.06
-3.91 -0.48 0.92
-3.14 -0.41 1.08
-3.23 -0.40 1.06
-3.84 -0.43 0.94
-3.65 -0.40 0.98
-2.82 -0.33 1.15
-3.37 -0.36 1.03
-3.76 -0.37 0.95
-3.12 -0.31 1.09
-2.92 -0.29 1.13
-3.02 -0.28 1.11
-2.96 -0.27 1.12
-3.25 -0.27 1.06
-2.92 -0.24 1.13
-2.95 -0.23 1.12
-3.49 -0.24 1.01
-3.20 -0.22 1.07
-2.78 -0.19 1.15
-2.67 -0.17 1.18
-2.68 -0.16 1.17
-2.49 -0.14 1.21
-3.18 -0.15 1.07
-2.96 -0.13 1.12
-2.75 -0.12 1.16
-5.06 -0.13 0.69
-4.87 -0.11 0.72
-4.39 -0.04 0.82
-4.43 -0.03 0.81
-4.17 -0.01 0.87
-6.40 -0.01 0.65
-7.27 0.01 0.46
-6.95 0.03 0.53
-7.01 0.05 0.52
-7.07 0.07 0.50
-7.27 0.09 0.46
-7.18 0.10 0.48
-7.22 0.12 0.47
-7.39 0.14 0.43
-7.29 0.16 0.46
-7.39 0.18 0.43
-7.16 0.20 0.48
-7.36 0.22 0.44
-7.57 0.25 0.39
-7.34 0.26 0.44
-7.21 0.27 0.47
-6.67 0.31 0.58
-7.72 0.43 0.36
-4.48 0.28 1.06
-4.70 0.32 1.01
-7.38 0.49 0.43
-6.44 0.50 0.63
-6.85 0.55 0.54
-6.30 0.54 0.66
-6.09 0.54 0.70
-6.26 0.57 0.67
-6.29 0.61 0.66
-6.24 0.62 0.67
-6.29 0.64 0.66
-6.42 0.69 0.63
-6.66 0.73 0.58
-6.66 0.75 0.58
-6.54 0.77 0.60
-6.91 0.83 0.52
-6.80 0.84 0.54
-7.08 0.90 0.48
-6.93 0.91 0.51
-7.13 0.95 0.47
-7.28 1.01 0.43
-7.26 1.02 0.44
-7.16 1.03 0.46
-7.34 1.09 0.42
-7.36 1.11 0.41
-7.48 1.15 0.38
-7.26 1.16 0.43
-3.75 0.66 1.20
-7.44 1.22 0.39
-7.25 1.23 0.43
-5.47 0.97 0.82
-7.42 1.30 0.39
-3.54 0.70 1.24
-3.42 0.71 1.26
-5.29 1.05 0.85
-5.36 1.08 0.84
-5.39 1.10 0.83
-5.28 1.11 0.85
-5.15 1.29 0.87
-4.11 -1.31 0.81
-4.04 -1.28 0.82
-4.13 -1.28 0.80
-3.92 -1.21 0.85
-4.17 -1.24 0.79
-4.42 -1.27 0.74
-5.90 -1.52 0.42
-5.83 -1.48 0.44
-5.81 -1.46 0.44
-5.68 -1.40 0.47
-5.52 -1.35 0.50
-5.23 -1.28 0.57
-5.23 -1.25 0.57
-4.81 -1.16 0.66
-5.00 -1.17 0.62
-4.85 -1.12 0.65
-4.63 -1.06 0.70
-4.73 -1.06 0.68
-4.66 -1.02 0.69
-4.52 -0.98 0.73
-4.48 -0.96 0.73
-4.43 -0.92 0.74
-4.35 -0.89 0.76
-4.22 -0.86 0.79
-4.21 -0.83 0.79
-4.00 -0.79 0.84
-4.03 -0.77 0.83
-3.86 -0.73 0.87
-3.72 -0.69 0.90
-3.84 -0.69 0.87
-3.95 -0.68 0.85
-4.00 -0.67 0.84
-4.02 -0.65 0.84
-3.67 -0.59 0.91
-4.02 -0.61 0.84
-3.79 -0.57 0.89
-3.90 -0.55 0.86
-3.42 -0.50 0.97
-3.25 -0.47 1.00
-3.23 -0.44 1.01
-3.27 -0.43 1.00
-3.32 -0.42 0.99
-3.47 -0.41 0.95
-3.34 -0.38 0.98
-3.37 -0.37 0.98
-3.22 -0.34 1.01
-3.41 -0.33 0.97
-3.29 -0.31 0.99
-7.97 -0.44 0.32
-3.88 -0.22 1.20
-3.62 -0.20 1.25
-3.66 -0.19 1.24
-3.19 -0.16 1.34
-7.43 -0.32 0.43
-7.25 -0.29 0.47
-7.10 -0.27 0.50
-3.70 -0.14 1.23
-7.15 -0.23 0.49
-7.21 -0.22 0.48
-7.21 -0.20 0.48
-7.08 -0.17 0.51
-7.23 -0.16 0.47
-7.53 -0.15 0.41
-7.64 -0.13 0.38
-7.44 -0.11 0.43
-7.36 -0.09 0.44
-7.47 -0.07 0.42
-7.39 -0.05 0.44
-7.48 -0.03 0.42
-4.85 0.00 0.59
-4.85 0.02 0.59
-3.99 0.03 0.78
-6.48 0.04 0.56
-6.30 0.06 0.61
-6.59 0.08 0.54
-6.72 0.10 0.51
-5.11 0.09 0.87
-5.14 0.10 0.86
-5.12 0.12 0.87
-4.91 0.13 0.92
-5.32 0.15 0.82
-6.29 0.19 0.60
-5.38 0.18 0.81
-4.90 0.18 0.92
-5.04 0.20 0.89
-5.36 0.22 0.81
-4.90 0.26 0.91
-4.56 0.27 0.99
-5.03 0.31 0.88
-4.79 0.31 0.94
-4.88 0.33 0.92
-4.89 0.34 0.92
-5.35 0.38 0.81
-5.42 0.40 0.79
-5.72 0.44 0.73
-5.58 0.44 0.76
-5.67 0.46 0.74
-5.93 0.50 0.68
-5.90 0.51 0.68
-5.89 0.53 0.68
-6.33 0.58 0.58
-6.39 0.60 0.57
-6.12 0.59 0.63
-6.19 0.62 0.61
-6.01 0.62 0.66
-6.22 0.65 0.61
-6.13 0.66 0.63
-6.33 0.70 0.58
-6.33 0.71 0.58
-6.43 0.74 0.56
-6.39 0.75 0.56
-6.53 0.79 0.53
-6.76 0.83 0.48
-6.77 0.85 0.48
-6.69 0.86 0.49
-6.82 0.89 0.46
-7.05 0.94 0.41
-7.13 0.96 0.39
-7.16 1.01 0.38
-7.08 1.01 0.40
-7.13 1.04 0.39
-7.09 1.07 0.40
-6.95 1.18 0.42
-5.39 1.05 0.77
-3.65 0.76 1.17
-5.15 1.05 0.82
-5.27 1.09 0.80
-4.19 -1.31 0.73
-4.12 -1.28 0.74
-4.18 -1.26 0.73
-4.32 -1.27 0.70
-4.30 -1.25 0.70
-4.20 -1.21 0.73
-5.70 -1.46 0.39
-5.69 -1.44 0.39
-5.49 -1.38 0.44
-4.88 -1.26 0.58
-4.87 -1.24 0.58
-4.71 -1.19 0.61
-4.89 -1.21 0.57
-4.93 -1.19 0.57
-4.93 -1.18 0.57
-4.68 -1.12 0.62
-4.48 -1.07 0.67
-4.43 -1.05 0.68
-4.36 -1.02 0.70
-4.35 -1.00 0.70
-4.21 -0.97 0.73
-4.37 -0.97 0.69
-4.26 -0.94 0.72
-4.25 -0.93 0.72
-4.23 -0.91 0.73
-4.23 -0.89 0.73
-4.14 -0.86 0.75
-4.11 -0.84 0.75
-4.05 -0.82 0.77
-4.04 -0.80 0.77
-3.78 -0.76 0.83
-3.74 -0.74 0.84
-3.72 -0.72 0.84
-3.72 -0.71 0.84
-3.29 -0.64 0.94
-4.11 -0.72 0.76
-4.21 -0.72 0.73
-3.83 -0.66 0.82
-4.04 -0.67 0.77
-2.97 -0.54 1.01
-2.97 -0.53 1.01
-2.96 -0.52 1.02
-3.00 -0.51 1.01
-3.03 -0.50 1.00
-2.97 -0.48 1.01
-3.12 -0.48 0.98
-2.92 -0.45 1.03
-3.05 -0.45 0.99
-3.03 -0.44 1.00
-3.05 -0.43 0.99
-3.07 -0.41 0.99
-3.04 -0.40 1.00
-3.00 -0.38 1.01
-2.92 -0.37 1.02
-3.14 -0.37 0.97
-2.95 -0.34 1.02
-2.96 -0.33 1.02
-2.68 -0.30 1.08
-2.59 -0.29 1.10
-2.70 -0.28 1.07
-2.65 -0.27 1.08
-2.62 -0.25 1.09
-2.77 -0.25 1.06
-2.93 -0.24 1.02
-2.87 -0.23 1.04
-2.97 -0.22 1.01
-3.62 -0.23 0.87
-3.78 -0.23 0.83
-4.18 -0.23 0.74
-4.57 -0.22 0.65
-4.94 -0.22 0.57
-2.82 -0.14 1.05
-5.84 -0.19 0.37
-4.25 -0.09 0.72
-4.60 -0.06 0.65
-6.59 0.03 0.47
-6.49 0.04 0.49
-6.56 0.06 0.48
-6.29 0.07 0.54
-6.77 0.10 0.43
-6.67 0.18 0.45
-6.89 0.22 0.40
-5.46 0.20 0.73
-5.26 0.21 0.78
-5.27 0.22 0.78
-5.32 0.34 0.76
-5.81 0.38 0.64
-5.70 0.40 0.67
-5.66 0.42 0.68
-5.58 0.43 0.70
-5.45 0.43 0.73
-5.67 0.46 0.68
-5.66 0.49 0.68
-6.71 0.59 0.43
-5.96 0.55 0.60
-6.51 0.61 0.47
-6.34 0.61 0.51
-5.92 0.59 0.61
-6.03 0.62 0.59
-6.24 0.65 0.54
-6.38 0.68 0.50
-6.39 0.70 0.50
-6.28 0.71 0.52
-6.34 0.73 0.51
-6.11 0.72 0.56
-6.30 0.76 0.52
-6.39 0.79 0.50
-6.52 0.82 0.46
-6.76 0.86 0.41
-6.54 0.86 0.46
-6.87 0.91 0.38
-6.70 0.91 0.42
-6.63 0.92 0.43
-6.59 1.15 0.43
-5.90 1.07 0.59
-6.39 1.17 0.48
-5.68 1.07 0.64
-5.33 1.03 0.73
-5.58 1.08 0.67
-5.64 1.11 0.65
-5.45 1.09 0.70
-5.44 1.10 0.70
-5.43 1.12 0.70
-5.37 1.12 0.71
-4.45 -1.29 0.61
-4.56 -1.28 0.58
-4.28 -1.21 0.65
-5.13 -1.30 0.45
-4.98 -1.26 0.48
-5.06 -1.25 0.46
-4.94 -1.22 0.49
-4.83 -1.18 0.52
-4.75 -1.15 0.54
-4.63 -1.11 0.57
-4.55 -1.08 0.59
-4.33 -1.03 0.64
-4.47 -1.04 0.61
-4.57 -1.04 0.58
-4.53 -1.01 0.59
-4.60 -1.01 0.58
-4.44 -0.97 0.61
-4.40 -0.95 0.62
-4.19 -0.90 0.67
-4.29 -0.90 0.65
-4.07 -0.85 0.70
-4.02 -0.83 0.71
-3.92 -0.81 0.74
-3.97 -0.80 0.73
-3.81 -0.76 0.76
-3.53 -0.71 0.83
-3.78 -0.73 0.77
-3.63 -0.70 0.81
-3.33 -0.65 0.88
-4.40 -0.76 0.63
-4.34 -0.73 0.64
-4.05 -0.69 0.71
-4.83 -0.76 0.53
-3.65 -0.61 0.80
-3.27 -0.56 0.89
-3.01 -0.52 0.95
-3.61 -0.57 0.81
-3.67 -0.56 0.80
-3.55 -0.52 0.83
-3.34 -0.49 0.88
-3.29 -0.47 0.89
-3.23 -0.45 0.90
-3.27 -0.44 0.89
-3.23 -0.43 0.90
-3.28 -0.42 0.89
-3.21 -0.40 0.91
-3.39 -0.40 0.86
-3.24 -0.38 0.90
-3.16 -0.36 0.92
-3.18 -0.35 0.91
-3.01 -0.32 0.95
-3.13 -0.32 0.93
-3.25 -0.31 0.90
-3.11 -0.29 0.93
-3.17 -0.28 0.92
-3.19 -0.27 0.91
-3.27 -0.26 0.89
-3.55 -0.26 0.83
-3.79 -0.26 0.77
-4.85 -0.28 0.52
-6.62 -0.13 0.47
-6.88 -0.12 0.40
-1.18 -0.57 0.56
-0.95 -0.99 0.62
-2.86 0.80 0.65
-3.54 0.77 0.68
-2.47 -0.49 0.57
-1.28 -0.75 0.50
-0.94 -0.84 0.50
-1.13 -0.68 0.49
-0.78 -0.95 0.44
-3.06 0.80 0.26
-2.15 -0.58 0.35
-2.15 0.83 0.30
-2.72 0.82 0.22
-2.12 0.56 0.31
-2.58 0.82 0.21
-2.20 0.73 0.23
-2.08 0.77 0.21
-0.76 -0.88 0.31
-0.85 -0.86 0.31
-1.81 0.83 0.23
-0.87 -0.95 0.27
-1.67 0.86 0.22
-0.67 -0.87 0.26
-0.81 -0.87 0.27
-0.75 -0.89 0.25
-1.22 -0.80 0.26
-0.88 -0.88 0.23
-1.08 -0.86 0.24
-1.27 -0.95 0.21
-1.38 0.76 0.22
-0.80 -0.89 0.21
-0.91 -0.92 0.21
-1.04 -0.88 0.22
-1.06 -0.72 0.24
-1.02 -0.77 0.22
-1.08 -0.78 0.20
-1.39 -0.69 0.21
-1.17 -0.54 0.21
