# .PCD v0.7 - Point Cloud Data file format
VERSION 0.7
FIELDS x y z
SIZE 4 4 4
TYPE F F F
COUNT 1 1 1
WIDTH 1467
HEIGHT 1
VIEWPOINT 0 0 0 1 0 0 0
POINTS 1467
DATA ASCII
-11.36 -0.15 1.87
-5.22 1.59 2.03
-12.33 -0.16 1.77
-12.32 -0.02 1.77
-14.56 -0.30 1.59
-12.04 0.74 1.64
-7.69 0.39 1.79
-4.94 0.93 1.92
-5.46 1.08 1.89
-5.22 1.09 1.91
-5.15 1.21 1.91
-5.58 1.35 1.88
-4.83 1.19 1.92
-5.35 1.35 1.90
-5.39 1.57 1.89
-5.25 1.57 1.90
-5.06 1.62 1.90
-5.17 1.68 1.90
-12.05 -0.13 1.58
-4.91 1.47 1.86
-14.95 -1.13 1.17
-12.13 -0.71 1.33
-7.00 -0.21 1.63
-3.90 0.25 1.92
-4.37 1.48 1.87
-7.61 0.05 1.65
-7.83 0.12 1.64
-6.76 -0.49 1.56
-6.49 -0.46 1.58
-6.46 -0.43 1.58
-6.58 -0.42 1.57
-6.63 -0.40 1.57
-7.35 -0.03 1.67
-7.28 -0.01 1.68
-6.10 -0.11 1.56
-6.53 -0.05 1.53
-7.74 0.01 1.56
-7.59 0.03 1.57
-7.52 0.05 1.57
-7.61 0.08 1.57
-7.71 0.10 1.56
-11.78 0.18 1.24
-7.86 0.14 1.55
-7.83 0.18 1.55
-7.93 0.52 1.54
-7.98 0.68 1.53
-7.92 0.71 1.54
-7.97 0.75 1.53
-7.81 0.78 1.54
-4.60 1.36 1.78
-3.38 1.53 1.86
-4.91 -0.76 1.60
-9.82 -1.12 1.21
-8.47 -0.76 1.32
-6.62 -0.59 1.47
-15.56 -1.05 0.76
-9.20 -0.50 1.45
-12.18 -0.46 1.21
-12.22 -0.43 1.21
-12.20 -0.40 1.21
-7.43 -0.15 1.58
-7.28 -0.13 1.59
-11.55 -0.18 1.26
-7.46 -0.10 1.58
-7.43 -0.06 1.58
-7.50 -0.05 1.58
-7.55 -0.03 1.57
-7.24 -0.01 1.60
-7.65 0.07 1.53
-7.56 0.08 1.53
-7.61 0.12 1.53
-7.81 0.28 1.51
-7.69 0.41 1.52
-7.98 0.69 1.49
-7.93 0.77 1.49
-10.55 -1.19 1.09
-4.02 -0.51 1.64
-10.50 -0.57 1.10
-6.63 -0.38 1.42
-6.37 -0.33 1.44
-6.34 -0.28 1.45
-11.09 -0.37 1.05
-5.87 -0.13 1.49
-10.85 -0.14 1.07
-5.75 -0.07 1.50
-6.02 -0.03 1.47
-7.56 0.01 1.48
-7.16 0.04 1.52
-7.13 0.08 1.52
-7.10 0.10 1.52
-7.27 0.12 1.51
-7.31 0.13 1.50
-5.11 0.15 1.70
-7.83 0.24 1.46
-7.46 0.34 1.49
-7.47 0.38 1.49
-7.76 0.50 1.46
-11.37 0.84 1.13
-7.92 0.61 1.44
-8.41 0.77 1.40
-9.10 1.36 1.33
-5.20 1.24 1.67
-5.62 1.53 1.63
-5.80 1.61 1.61
-5.79 1.64 1.61
-5.17 1.50 1.67
-4.67 -1.36 1.54
-3.97 -0.82 1.60
-10.74 -0.67 0.99
-10.75 -0.58 0.99
-6.25 -0.36 1.40
-6.37 -0.35 1.39
-6.22 -0.32 1.40
-5.87 -0.29 1.43
-6.09 -0.28 1.41
-6.01 -0.25 1.42
-6.33 -0.24 1.39
-6.21 -0.22 1.40
-5.76 -0.19 1.44
-10.58 -0.26 1.01
-10.71 -0.23 1.00
-6.07 -0.13 1.41
-7.43 -0.08 1.50
-11.38 -0.07 1.14
-7.25 -0.03 1.51
-7.54 -0.01 1.48
-5.44 0.01 1.43
-10.12 0.13 0.98
-10.64 0.20 0.93
-7.91 0.57 1.40
-7.82 0.58 1.41
-7.99 0.99 1.39
-4.80 1.19 1.68
-3.11 1.24 1.83
-11.88 -0.97 0.81
-12.00 -0.94 0.80
-6.21 -0.44 1.36
-11.04 -0.62 0.89
-5.91 -0.35 1.38
-6.06 -0.33 1.37
-6.25 -0.32 1.35
-6.04 -0.29 1.37
-6.02 -0.27 1.37
-10.39 -0.38 0.95
-6.00 -0.23 1.37
-6.15 -0.22 1.36
-10.37 -0.29 0.96
-10.36 -0.26 0.96
-5.78 -0.15 1.40
-10.34 -0.20 0.96
-10.55 -0.17 0.94
-10.26 -0.14 0.97
-10.52 -0.11 0.94
-5.51 -0.05 1.42
-5.66 -0.01 1.41
-7.04 0.03 1.44
-7.31 0.04 1.41
-7.53 0.07 1.39
-6.67 0.07 1.48
-6.65 0.12 1.48
-6.81 0.14 1.46
-6.79 0.18 1.47
-12.26 0.43 0.91
-7.51 0.29 1.39
-7.29 0.29 1.41
-7.13 0.34 1.43
-7.28 0.37 1.41
-8.38 0.65 1.30
-8.09 0.67 1.33
-8.02 0.68 1.33
-8.01 0.70 1.34
-7.66 0.69 1.37
-7.83 0.72 1.35
-8.00 0.94 1.33
-8.11 0.99 1.32
-8.54 1.06 1.28
-5.03 1.19 1.62
-5.19 1.26 1.60
-5.28 1.34 1.59
-5.17 1.56 1.60
-4.59 1.49 1.66
-4.79 1.65 1.63
-4.76 1.68 1.63
-4.51 1.67 1.66
-4.63 -0.72 1.46
-9.34 -1.02 0.98
-7.92 -0.87 1.12
-7.61 -0.78 1.15
-7.93 -0.78 1.12
-8.10 -0.74 1.10
-7.93 -0.68 1.12
-6.10 -0.50 1.31
-5.92 -0.47 1.33
-6.17 -0.46 1.30
-5.86 -0.43 1.33
-5.73 -0.40 1.35
-9.96 -0.57 0.91
-6.22 -0.38 1.30
-6.19 -0.36 1.30
-6.08 -0.34 1.31
-5.90 -0.31 1.33
-11.51 -0.41 0.99
-11.91 -0.39 0.95
-11.33 -0.35 1.01
-11.26 -0.32 1.01
-11.44 -0.29 1.00
-11.40 -0.26 1.00
-11.26 -0.23 1.01
-11.22 -0.21 1.02
-6.62 -0.10 1.49
-6.85 -0.09 1.46
-7.06 -0.08 1.44
-7.02 -0.06 1.45
-6.86 -0.04 1.46
-7.06 -0.03 1.44
-7.18 -0.01 1.43
-11.73 0.22 0.64
-9.92 0.57 0.83
-12.99 0.73 0.75
-5.12 1.19 1.58
-10.60 -0.45 0.76
-10.76 -0.42 0.75
-10.49 -0.08 0.78
-10.20 -0.04 0.81
-6.97 0.01 1.35
-7.02 0.03 1.35
-7.05 0.06 1.34
-7.35 0.08 1.31
-11.39 0.21 0.84
-10.35 0.49 0.96
-12.48 0.62 0.71
-12.10 0.63 0.76
-11.95 0.65 0.77
-11.58 0.66 0.82
-12.05 0.71 0.76
-11.70 0.72 0.80
-8.71 0.56 1.15
-8.60 0.58 1.16
-8.17 0.57 1.21
-11.61 0.83 0.81
-8.10 0.61 1.22
-8.21 0.63 1.20
-8.24 0.66 1.20
-8.40 0.69 1.18
-8.15 0.69 1.21
-12.94 1.46 0.65
-8.00 1.02 1.22
-8.14 1.12 1.20
-8.44 1.30 1.16
-8.31 1.30 1.18
-8.26 1.32 1.18
-4.18 1.69 1.62
-4.30 -0.67 1.40
-8.29 -1.03 0.94
-7.88 -0.97 0.99
-8.22 -0.98 0.95
-8.06 -0.94 0.97
-7.34 -0.85 1.05
-8.06 -0.89 0.97
-8.25 -0.88 0.95
-8.05 -0.84 0.97
-8.41 -0.84 0.93
-8.36 -0.81 0.93
-8.26 -0.78 0.94
-5.26 -0.54 1.29
-8.65 -0.75 0.90
-6.98 -0.39 1.35
-7.28 -0.37 1.32
-7.24 -0.35 1.32
-12.01 -0.54 0.77
-6.68 -0.29 1.39
-11.66 -0.47 0.81
-6.91 -0.26 1.36
-12.08 -0.43 0.77
-7.21 -0.24 1.33
-6.32 -0.18 1.43
-6.38 -0.16 1.42
-6.70 -0.16 1.39
-6.52 -0.13 1.41
-6.66 -0.12 1.39
-6.35 -0.10 1.42
-6.64 -0.09 1.39
-6.58 -0.07 1.40
-6.54 -0.06 1.40
-6.84 -0.04 1.37
-6.86 -0.02 1.37
-7.08 -0.01 1.34
-5.68 0.01 1.19
-5.74 0.03 1.18
-5.41 0.04 1.22
-10.87 0.12 0.83
-10.80 0.14 0.84
-9.01 0.36 1.05
-8.86 0.44 1.07
-11.32 0.59 0.77
-11.02 0.60 0.81
-8.85 0.53 1.07
-8.76 0.54 1.08
-8.66 0.56 1.09
-8.99 0.60 1.05
-8.66 0.60 1.09
-8.53 0.61 1.11
-8.33 0.62 1.13
-8.37 0.66 1.13
-8.21 0.67 1.15
-8.50 0.72 1.11
-13.92 1.19 0.45
-14.12 1.24 0.42
-7.71 0.83 1.20
-8.00 1.01 1.17
-8.23 1.06 1.14
-8.20 1.25 1.13
-3.88 1.65 1.63
-7.89 -1.17 0.92
-7.80 -1.13 0.93
-8.13 -1.14 0.89
-4.35 -0.69 1.35
-4.30 -0.66 1.36
-4.29 -0.65 1.36
-2.16 -0.43 1.62
-8.11 -0.94 0.89
-8.03 -0.91 0.90
-4.40 -0.58 1.35
-8.27 -0.88 0.87
-7.96 -0.83 0.91
-8.33 -0.83 0.87
-11.87 -1.04 0.43
-8.41 -0.76 0.86
-8.34 -0.73 0.86
-5.24 -0.48 1.25
-8.35 -0.65 0.86
-8.50 -0.64 0.85
-4.90 -0.38 1.29
-11.43 -0.67 0.49
-5.70 -0.38 1.19
-5.66 -0.36 1.19
-5.68 -0.32 1.19
-6.07 -0.31 1.14
-5.76 -0.28 1.18
-6.04 -0.27 1.15
-10.43 -0.38 0.61
-5.98 -0.23 1.15
-5.89 -0.19 1.17
-10.26 -0.26 0.63
-10.22 -0.23 0.64
-10.20 -0.20 0.64
-10.26 -0.17 0.63
-10.04 -0.13 0.66
-5.37 -0.07 1.23
-5.74 -0.05 1.18
-10.20 -0.05 0.64
-5.12 -0.01 1.26
-6.69 0.01 1.29
-6.75 0.02 1.28
-6.86 0.04 1.27
-7.15 0.06 1.23
-10.62 0.11 0.78
-10.94 0.20 0.74
-10.28 0.21 0.83
-9.58 0.22 0.92
-9.12 0.23 0.97
-9.39 0.26 0.94
-9.79 0.29 0.89
-9.97 0.32 0.86
-10.23 0.36 0.83
-6.73 0.25 1.28
-11.97 0.47 0.60
-9.97 0.42 0.86
-9.80 0.44 0.88
-11.75 0.55 0.63
-9.34 0.46 0.94
-8.95 0.47 0.99
-11.77 0.64 0.63
-8.58 0.49 1.04
-8.41 0.50 1.06
-8.14 0.51 1.10
-8.41 0.54 1.06
-8.35 0.56 1.07
-8.25 0.58 1.08
-7.96 0.58 1.12
-8.20 0.61 1.09
-8.54 0.66 1.04
-8.41 0.67 1.06
-8.38 0.69 1.06
-8.25 0.70 1.08
-8.28 0.72 1.07
-8.49 0.76 1.05
-8.21 0.75 1.08
-8.08 0.96 1.10
-7.96 0.97 1.11
-8.20 1.02 1.08
-8.11 1.23 1.08
-7.97 1.23 1.10
-4.89 1.63 1.47
-4.55 1.60 1.52
-4.01 -0.91 1.35
-4.52 -0.84 1.28
-4.60 -0.80 1.27
-4.44 -0.73 1.29
-4.47 -0.70 1.29
-4.50 -0.69 1.28
-4.31 -0.65 1.31
-4.49 -0.65 1.29
-4.37 -0.62 1.30
-4.29 -0.60 1.31
-8.09 -0.91 0.82
-4.22 -0.56 1.32
-7.50 -0.82 0.89
-5.44 -0.63 1.16
-5.76 -0.63 1.12
-8.02 -0.78 0.83
-7.60 -0.73 0.88
-5.24 -0.52 1.19
-5.01 -0.49 1.22
-5.37 -0.49 1.17
-5.48 -0.48 1.16
-4.65 -0.41 1.26
-5.44 -0.44 1.16
-5.23 -0.41 1.19
-5.57 -0.41 1.15
-5.67 -0.40 1.13
-5.60 -0.37 1.14
-5.60 -0.36 1.14
-5.71 -0.34 1.13
-5.35 -0.31 1.17
-5.04 -0.28 1.22
-5.19 -0.26 1.20
-5.67 -0.26 1.13
-5.69 -0.24 1.13
-5.64 -0.22 1.14
-6.00 -0.21 1.09
-6.12 -0.19 1.07
-6.23 -0.18 1.06
-5.42 -0.14 1.17
-5.30 -0.12 1.18
-6.68 -0.09 1.29
-6.70 -0.07 1.29
-6.88 -0.06 1.27
-6.88 -0.04 1.27
-6.73 -0.02 1.29
-6.68 -0.01 1.29
-5.25 0.01 1.13
-5.12 0.03 1.15
-5.20 0.04 1.14
-5.20 0.06 1.14
-5.40 0.08 1.11
-5.06 0.10 1.16
-5.05 0.11 1.16
-4.96 0.13 1.17
-5.29 0.15 1.13
-5.26 0.17 1.13
-5.10 0.18 1.15
-5.17 0.20 1.14
-8.83 0.27 0.95
-11.58 0.37 0.57
-8.88 0.31 0.94
-9.95 0.37 0.79
-8.54 0.34 0.99
-6.88 0.29 1.21
-11.18 0.50 0.62
-7.21 0.34 1.17
-10.12 0.50 0.77
-9.10 0.47 0.91
-8.78 0.48 0.95
-8.64 0.49 0.97
-12.37 0.73 0.46
-8.81 0.55 0.95
-7.79 0.50 1.09
-7.92 0.53 1.07
-8.30 0.58 1.01
-8.37 0.60 1.00
-7.77 0.58 1.09
-7.80 0.60 1.08
-4.37 0.37 1.55
-9.99 0.86 0.78
-8.18 0.73 1.03
-7.63 0.72 1.10
-6.91 0.67 1.20
-8.14 0.83 1.03
-7.93 0.87 1.06
-7.85 0.88 1.07
-7.79 0.91 1.08
-8.17 1.00 1.02
-8.05 1.02 1.04
-8.03 1.04 1.04
-8.22 1.18 1.01
-8.08 1.19 1.03
-8.50 1.42 0.97
-7.84 -1.13 0.78
-7.83 -1.08 0.78
-8.07 -1.09 0.74
-4.69 -0.72 1.21
-4.19 -0.65 1.28
-4.26 -0.64 1.27
-4.38 -0.64 1.25
-4.51 -0.64 1.23
-4.52 -0.62 1.23
-4.57 -0.61 1.23
-7.95 -0.88 0.76
-8.09 -0.86 0.74
-5.85 -0.66 1.05
-5.61 -0.62 1.08
-8.40 -0.81 0.70
-4.00 -0.47 1.30
-7.99 -0.73 0.76
-5.54 -0.54 1.09
-7.79 -0.67 0.79
-7.52 -0.63 0.82
-7.08 -0.58 0.88
-6.10 -0.50 1.02
-6.97 -0.53 0.90
-4.52 -0.37 1.23
-5.22 -0.39 1.14
-4.62 -0.34 1.22
-5.39 -0.36 1.11
-5.49 -0.35 1.10
-5.23 -0.32 1.14
-5.95 -0.33 1.04
-5.83 -0.31 1.05
-6.23 -0.30 1.00
-5.51 -0.26 1.10
-6.01 -0.25 1.03
-5.95 -0.23 1.04
-5.83 -0.21 1.05
-5.87 -0.19 1.05
-5.98 -0.17 1.03
-5.55 -0.14 1.09
-5.40 -0.12 1.11
-5.67 -0.11 1.08
-5.64 -0.09 1.08
-5.42 -0.07 1.11
-5.50 -0.05 1.10
-5.10 -0.03 1.15
-5.81 -0.01 1.06
-6.71 0.01 1.18
-7.05 0.03 1.13
-6.87 0.04 1.16
-10.02 0.08 0.71
-7.04 0.08 1.14
-7.21 0.10 1.11
-9.48 0.15 0.78
-10.26 0.18 0.67
-8.94 0.18 0.86
-9.22 0.21 0.82
-7.03 0.18 1.14
-9.20 0.25 0.82
-6.94 0.21 1.15
-6.84 0.23 1.16
-11.94 0.42 0.43
-6.95 0.26 1.15
-6.63 0.27 1.19
-7.25 0.31 1.10
-8.72 0.39 0.89
-7.36 0.35 1.08
-8.45 0.42 0.93
-10.29 0.54 0.66
-10.13 0.55 0.68
-6.72 0.39 1.18
-6.73 0.41 1.17
-7.37 0.46 1.08
-6.73 0.44 1.17
-8.17 0.55 0.97
-8.07 0.56 0.98
-6.62 0.48 1.19
-6.76 0.51 1.17
-6.67 0.52 1.18
-7.79 0.62 1.02
-7.69 0.63 1.03
-6.85 0.58 1.15
-7.37 0.64 1.08
-7.26 0.65 1.09
-7.90 0.73 1.00
-7.92 0.75 1.00
-7.50 0.73 1.06
-7.78 0.78 1.02
-7.70 0.81 1.03
-7.86 0.84 1.00
-8.03 0.88 0.98
-8.00 0.90 0.98
-8.03 0.92 0.98
-7.98 0.93 0.98
-8.05 0.96 0.97
-8.18 1.02 0.95
-8.17 1.04 0.96
-12.74 1.63 0.29
-4.13 1.63 1.49
-3.55 -0.99 1.31
-7.79 -1.21 0.70
-8.02 -1.16 0.67
-4.52 -0.75 1.18
-8.22 -1.13 0.64
-4.62 -0.73 1.16
-4.56 -0.71 1.17
-4.33 -0.67 1.20
-4.42 -0.66 1.19
-4.14 -0.62 1.23
-4.44 -0.63 1.19
-4.50 -0.62 1.18
-8.34 -0.94 0.63
-5.01 -0.63 1.11
-3.69 -0.50 1.30
-8.01 -0.83 0.67
-5.46 -0.61 1.04
-4.45 -0.52 1.19
-6.08 -0.62 0.95
-5.79 -0.58 0.99
-5.61 -0.55 1.02
-5.82 -0.54 0.99
-7.82 -0.65 0.70
-6.29 -0.53 0.92
-7.24 -0.57 0.78
-6.72 -0.51 0.86
-6.24 -0.47 0.93
-6.13 -0.44 0.95
-4.32 -0.33 1.21
-4.88 -0.34 1.13
-5.20 -0.34 1.08
-5.24 -0.32 1.07
-4.80 -0.29 1.14
-6.05 -0.31 0.96
-5.67 -0.28 1.01
-6.47 -0.21 1.22
-6.33 -0.20 1.24
-6.58 -0.19 1.20
-6.76 -0.17 1.18
-6.79 -0.16 1.17
-6.77 -0.14 1.18
-6.77 -0.12 1.18
-6.54 -0.10 1.21
-6.66 -0.09 1.19
-6.60 -0.07 1.20
-6.58 -0.06 1.20
-6.84 -0.04 1.17
-6.95 -0.03 1.15
-6.55 -0.01 1.21
-9.50 0.04 0.37
-9.66 0.07 0.35
-9.90 0.10 0.31
-9.92 0.13 0.30
-9.11 0.40 0.43
-8.99 0.42 0.44
-9.68 0.57 0.68
-9.78 0.70 0.66
-10.36 0.79 0.57
-12.24 1.32 0.28
-7.96 0.93 0.93
-8.83 -0.36 0.47
-8.87 -0.28 0.47
-10.12 -0.02 0.27
-6.71 0.01 1.07
-11.33 0.04 0.34
-10.14 0.06 0.53
-6.75 0.06 1.07
-11.21 0.12 0.36
-6.79 0.09 1.06
-6.46 0.10 1.11
-10.82 0.19 0.42
-9.81 0.20 0.58
-6.71 0.16 1.07
-6.77 0.17 1.06
-10.26 0.28 0.51
-6.61 0.20 1.09
-7.17 0.24 1.00
-10.42 0.36 0.48
-6.86 0.26 1.05
-6.76 0.27 1.06
-10.03 0.45 0.54
-9.80 0.49 0.58
-9.40 0.49 0.64
-9.48 0.52 0.63
-6.81 0.39 1.05
-9.25 0.55 0.66
-9.20 0.57 0.67
-9.23 0.60 0.67
-9.49 0.63 0.62
-9.81 0.68 0.57
-9.46 0.68 0.63
-8.19 0.61 0.83
-9.81 0.75 0.57
-10.07 0.80 0.53
-8.43 0.69 0.79
-8.33 0.74 0.80
-7.96 0.73 0.86
-8.06 0.76 0.85
-7.95 0.77 0.86
-7.92 0.79 0.87
-8.04 0.82 0.85
-7.90 0.83 0.87
-11.21 1.19 0.34
-10.90 1.18 0.39
-6.27 0.73 1.13
-7.78 0.93 0.89
-3.40 -0.95 1.25
-3.65 -0.91 1.21
-3.82 -0.87 1.18
-3.72 -0.79 1.20
-4.20 -0.70 1.12
-9.01 -1.10 0.35
-9.11 -1.09 0.33
-9.23 -1.07 0.31
-9.09 -1.00 0.34
-9.03 -0.97 0.35
-9.30 -0.96 0.30
-7.82 -0.82 0.54
-9.19 -0.90 0.32
-6.56 -0.67 0.74
-7.87 -0.75 0.53
-7.45 -0.67 0.60
-7.81 -0.67 0.54
-7.77 -0.64 0.55
-6.95 -0.50 0.68
-11.59 -0.61 0.30
-6.30 -0.32 1.14
-6.41 -0.31 1.13
-6.43 -0.29 1.12
-11.63 -0.50 0.29
-6.11 -0.25 1.17
-11.39 -0.43 0.33
-6.21 -0.22 1.16
-11.59 -0.38 0.30
-6.29 -0.19 1.14
-6.12 -0.17 1.17
-6.44 -0.17 1.12
-6.42 -0.15 1.12
-6.30 -0.13 1.14
-6.40 -0.12 1.13
-6.47 -0.10 1.11
-6.63 -0.09 1.09
-6.61 -0.07 1.09
-6.31 -0.05 1.14
-6.37 -0.04 1.13
-6.43 -0.02 1.12
-6.44 -0.01 1.12
-4.84 0.01 0.96
-4.99 0.02 0.94
-4.91 0.04 0.95
-6.32 0.05 1.09
-6.47 0.07 1.06
-6.61 0.09 1.04
-6.61 0.11 1.04
-6.79 0.14 1.01
-6.75 0.16 1.01
-6.73 0.17 1.02
-6.40 0.18 1.07
-6.38 0.20 1.08
-6.71 0.22 1.02
-6.39 0.23 1.07
-6.65 0.25 1.03
-6.29 0.25 1.09
-6.30 0.27 1.09
-6.55 0.30 1.04
-6.73 0.32 1.01
-9.65 0.48 0.52
-6.37 0.34 1.07
-6.47 0.36 1.06
-6.29 0.36 1.09
-6.41 0.39 1.07
-9.70 0.60 0.51
-9.57 0.61 0.53
-8.23 0.55 0.76
-7.15 0.50 0.94
-6.70 0.49 1.02
-8.92 0.66 0.64
-7.20 0.56 0.93
-8.28 0.66 0.75
-8.02 0.66 0.79
-8.02 0.68 0.79
-8.02 0.70 0.79
-7.94 0.71 0.80
-7.96 0.73 0.80
-8.11 0.76 0.77
-8.29 0.80 0.74
-8.12 0.81 0.77
-7.87 0.80 0.81
-8.12 0.85 0.77
-8.16 0.87 0.76
-8.17 0.89 0.76
-8.30 0.93 0.74
-3.77 1.63 1.44
-3.85 -1.01 1.13
-3.71 -0.97 1.15
-3.86 -0.98 1.12
-3.71 -0.94 1.15
-3.77 -0.94 1.14
-3.54 -0.89 1.18
-3.85 -0.92 1.13
-3.67 -0.88 1.16
-3.76 -0.88 1.14
-3.87 -0.88 1.12
-3.64 -0.83 1.16
-3.60 -0.81 1.17
-3.67 -0.80 1.16
-3.87 -0.82 1.12
-3.62 -0.77 1.17
-3.91 -0.79 1.12
-4.06 -0.79 1.09
-6.66 -1.09 0.65
-6.48 -1.03 0.68
-4.59 -0.79 1.00
-4.14 -0.73 1.08
-3.73 -0.67 1.15
-4.78 -0.76 0.97
-4.79 -0.75 0.97
-4.34 -0.68 1.05
-4.36 -0.67 1.04
-4.76 -0.69 0.98
-5.06 -0.70 0.92
-4.88 -0.67 0.96
-4.44 -0.61 1.03
-7.97 -0.90 0.43
-5.83 -0.70 0.80
-4.75 -0.59 0.98
-7.57 -0.80 0.50
-4.76 -0.56 0.98
-7.69 -0.76 0.48
-7.45 -0.72 0.52
-5.42 -0.55 0.87
-4.50 -0.47 1.02
-7.53 -0.65 0.51
-4.45 -0.43 1.03
-4.92 -0.43 0.95
-4.77 -0.40 0.98
-4.37 -0.36 1.04
-5.04 -0.38 0.93
-5.41 -0.38 0.87
-4.74 -0.33 0.98
-5.19 -0.34 0.90
-5.79 -0.34 0.80
-5.46 -0.31 0.86
-5.08 -0.28 0.92
-5.01 -0.26 0.93
-5.48 -0.25 0.86
-5.76 -0.25 0.81
-5.77 -0.23 0.81
-5.75 -0.21 0.81
-5.46 -0.18 0.86
-5.49 -0.16 0.85
-5.72 -0.15 0.81
-5.95 -0.13 0.78
-5.62 -0.11 0.83
-5.54 -0.09 0.84
-5.29 -0.07 0.89
-4.98 -0.05 0.94
-5.02 -0.03 0.93
-4.92 -0.01 0.95
-9.90 0.01 0.40
-6.56 0.02 0.99
-6.90 0.04 0.93
-6.56 0.06 0.99
-6.87 0.08 0.93
-6.61 0.09 0.98
-10.19 0.16 0.35
-6.45 0.12 1.01
-10.31 0.23 0.33
-6.77 0.17 0.95
-6.42 0.18 1.01
-6.18 0.19 1.05
-6.56 0.22 0.99
-6.39 0.23 1.02
-6.78 0.26 0.95
-6.64 0.27 0.97
-6.55 0.28 0.99
-6.79 0.31 0.95
-6.45 0.31 1.01
-6.53 0.33 0.99
-6.50 0.34 1.00
-6.48 0.36 1.00
-6.25 0.36 1.04
-6.34 0.38 1.02
-6.52 0.41 0.99
-6.39 0.42 1.01
-6.43 0.44 1.00
-6.58 0.46 0.98
-6.82 0.50 0.93
-6.37 0.48 1.01
-6.62 0.51 0.97
-6.59 0.53 0.97
-7.04 0.58 0.89
-7.03 0.60 0.90
-7.14 0.62 0.88
-8.36 0.75 0.66
-8.36 0.77 0.66
-8.73 0.82 0.59
-8.25 0.80 0.68
-8.02 0.80 0.72
-7.79 0.79 0.76
-8.00 0.84 0.72
-7.59 0.81 0.79
-7.91 0.86 0.74
-7.81 0.87 0.75
-7.93 0.91 0.73
-8.15 0.97 0.69
-8.36 1.02 0.65
-6.21 0.80 1.03
-4.45 -1.12 0.96
-4.33 -1.07 0.99
-4.08 -1.02 1.03
-4.11 -1.01 1.02
-4.15 -1.00 1.02
-4.47 -1.03 0.96
-3.65 -0.89 1.11
-4.21 -0.96 1.01
-4.05 -0.92 1.04
-4.13 -0.92 1.02
-3.90 -0.87 1.06
-3.87 -0.85 1.07
-7.14 -1.27 0.49
-3.49 -0.77 1.14
-3.93 -0.81 1.06
-4.22 -0.83 1.01
-3.91 -0.78 1.06
-3.71 -0.74 1.10
-4.26 -0.79 1.00
-4.28 -0.78 1.00
-4.69 -0.81 0.93
-4.19 -0.73 1.02
-4.46 -0.75 0.97
-5.72 -0.86 0.74
-6.07 -0.88 0.68
-4.60 -0.71 0.94
-4.48 -0.68 0.96
-4.82 -0.70 0.90
-4.53 -0.65 0.96
-5.13 -0.69 0.85
-4.93 -0.66 0.89
-5.26 -0.67 0.83
-4.58 -0.59 0.95
-4.37 -0.56 0.98
-4.26 -0.54 1.00
-4.25 -0.52 1.01
-5.02 -0.56 0.87
-5.34 -0.57 0.81
-4.55 -0.49 0.95
-4.73 -0.49 0.92
-4.85 -0.48 0.90
-4.61 -0.44 0.94
-5.02 -0.45 0.87
-7.63 -0.59 0.41
-5.51 -0.45 0.78
-5.51 -0.43 0.78
-5.28 -0.40 0.82
-5.06 -0.37 0.86
-5.18 -0.36 0.84
-4.77 -0.32 0.91
-4.83 -0.30 0.90
-5.36 -0.31 0.81
-5.08 -0.28 0.86
-5.68 -0.28 0.75
-4.98 -0.24 0.88
-5.19 -0.23 0.84
-5.02 -0.21 0.87
-5.16 -0.19 0.85
-5.21 -0.17 0.84
-5.61 -0.17 0.77
-5.32 -0.14 0.82
-5.03 -0.12 0.87
-6.62 -0.09 0.98
-6.45 -0.07 1.01
-6.55 -0.06 0.99
-6.28 -0.04 1.04
-6.49 -0.02 1.00
-6.52 -0.01 1.00
-4.83 0.01 0.84
-4.98 0.02 0.81
-4.91 0.04 0.82
-4.87 0.06 0.83
-4.85 0.08 0.84
-5.09 0.10 0.79
-5.39 0.12 0.73
-5.13 0.13 0.78
-4.84 0.14 0.84
-5.20 0.17 0.77
-5.04 0.18 0.80
-7.08 0.26 0.42
-6.05 0.20 1.02
-6.59 0.23 0.92
-6.36 0.24 0.97
-6.02 0.24 1.03
-6.23 0.27 0.99
-6.21 0.28 0.99
-6.17 0.29 1.00
-6.27 0.32 0.98
-6.09 0.32 1.01
-6.24 0.34 0.99
-6.32 0.36 0.97
-6.64 0.40 0.91
-6.28 0.39 0.98
-6.44 0.42 0.95
-8.26 0.55 0.61
-6.78 0.47 0.88
-9.24 0.66 0.43
-7.62 0.57 0.73
-8.54 0.65 0.56
-6.42 0.51 0.95
-6.62 0.54 0.91
-6.99 0.59 0.84
-7.16 0.62 0.81
-7.25 0.65 0.79
-7.89 0.72 0.67
-8.81 0.83 0.50
-7.24 0.70 0.79
-8.34 0.82 0.59
-8.47 0.86 0.56
-8.32 0.86 0.59
-8.21 0.87 0.61
-7.96 0.87 0.66
-8.10 0.90 0.63
-8.40 0.96 0.57
-8.50 0.99 0.55
-8.40 1.00 0.57
-8.50 1.05 0.55
-8.81 1.11 0.49
-8.59 1.11 0.53
-8.45 1.11 0.56
-8.65 1.18 0.52
-1.46 -1.17 1.45
-3.37 -0.78 1.11
-3.65 -0.79 1.06
-3.69 -0.78 1.05
-6.73 -1.14 0.48
-6.69 -1.12 0.49
-6.76 -1.10 0.48
-4.02 -0.76 0.99
-4.02 -0.74 0.99
-3.81 -0.70 1.03
-3.54 -0.66 1.08
-4.05 -0.70 0.98
-3.74 -0.65 1.04
-3.59 -0.62 1.07
-3.40 -0.59 1.11
-4.19 -0.65 0.96
-5.17 -0.71 0.78
-4.53 -0.64 0.90
-6.39 -0.79 0.55
-6.02 -0.73 0.62
-5.65 -0.68 0.69
-5.27 -0.61 0.76
-3.64 -0.47 1.06
-4.10 -0.49 0.98
-5.03 -0.54 0.80
-3.71 -0.42 1.05
-5.10 -0.49 0.79
-7.47 -0.60 0.35
-7.17 -0.56 0.41
-4.57 -0.39 0.89
-4.56 -0.36 0.89
-5.50 -0.39 0.72
-5.37 -0.36 0.74
-5.37 -0.34 0.74
-5.70 -0.34 0.68
-5.01 -0.29 0.81
-5.28 -0.29 0.76
-5.53 -0.26 0.71
-5.44 -0.23 0.73
-5.11 -0.21 0.79
-5.13 -0.19 0.79
-4.99 -0.17 0.81
-4.66 -0.15 0.87
-5.38 -0.14 0.74
-4.50 -0.11 0.90
-5.24 -0.10 0.76
-4.34 -0.07 0.93
-5.25 -0.07 0.76
-4.74 -0.04 0.86
-4.53 -0.03 0.89
-4.91 -0.01 0.82
-6.69 0.01 0.85
-6.53 0.02 0.88
-6.85 0.04 0.82
-6.30 0.05 0.92
-6.60 0.07 0.86
-6.50 0.09 0.88
-6.93 0.11 0.80
-6.27 0.12 0.93
-6.44 0.13 0.89
-6.73 0.17 0.84
-6.36 0.20 0.91
-6.15 0.20 0.95
-6.13 0.23 0.95
-6.06 0.25 0.96
-6.05 0.26 0.97
-6.17 0.28 0.94
-6.10 0.29 0.95
-6.10 0.31 0.95
-6.10 0.32 0.95
-6.01 0.33 0.97
-8.03 0.46 0.58
-7.91 0.47 0.60
-7.86 0.49 0.61
-7.64 0.50 0.65
-7.77 0.52 0.63
-7.94 0.55 0.60
-8.07 0.58 0.57
-8.04 0.60 0.57
-7.95 0.61 0.59
-8.44 0.67 0.50
-8.70 0.71 0.45
-8.13 0.71 0.55
-8.91 0.79 0.40
-8.48 0.78 0.49
-8.57 0.81 0.47
-8.84 0.85 0.41
-8.34 0.83 0.51
-8.03 0.82 0.57
-7.14 0.75 0.74
-8.33 0.89 0.51
-8.13 0.89 0.55
-8.19 0.92 0.54
-8.24 0.94 0.53
-8.21 0.96 0.53
-8.25 0.98 0.52
-8.38 1.02 0.50
-8.54 1.06 0.46
-8.16 1.03 0.54
-8.11 1.05 0.55
-8.53 1.12 0.47
-8.51 1.14 0.47
-8.64 1.18 0.44
-8.49 1.18 0.47
-8.41 1.19 0.49
-8.90 1.30 0.39
-8.38 1.25 0.49
-8.36 1.27 0.49
-8.32 1.28 0.50
-8.36 1.35 0.49
-8.08 1.37 0.54
-3.89 -1.05 0.95
-3.87 -1.03 0.95
-3.58 -0.97 1.01
-3.83 -0.99 0.96
-4.05 -1.01 0.92
-3.95 -0.98 0.94
-3.92 -0.96 0.95
-3.79 -0.93 0.97
-3.52 -0.87 1.03
-3.89 -0.91 0.95
-3.59 -0.85 1.01
-3.71 -0.86 0.99
-3.71 -0.84 0.99
-3.70 -0.83 0.99
-3.71 -0.81 0.99
-3.79 -0.81 0.97
-3.68 -0.78 1.00
-4.12 -0.82 0.91
-3.54 -0.73 1.02
-3.91 -0.76 0.95
-4.06 -0.77 0.92
-4.05 -0.75 0.92
-3.96 -0.72 0.94
-4.04 -0.72 0.93
-3.56 -0.65 1.02
-3.82 -0.66 0.97
-3.65 -0.62 1.00
-6.30 -0.86 0.49
-6.39 -0.85 0.47
-6.60 -0.85 0.43
-6.31 -0.80 0.49
-6.20 -0.77 0.51
-4.90 -0.64 0.76
-6.65 -0.77 0.42
-6.92 -0.77 0.37
-3.70 -0.49 0.99
-6.82 -0.72 0.39
-3.48 -0.43 1.04
-3.37 -0.41 1.06
-3.79 -0.42 0.98
-6.96 -0.62 0.36
-4.12 -0.41 0.91
-6.68 -0.51 0.42
-6.50 -0.48 0.45
-5.64 -0.38 0.62
-5.08 -0.33 0.73
-4.69 -0.30 0.80
-5.92 -0.33 0.56
-5.69 -0.30 0.61
-5.64 -0.28 0.62
-6.34 -0.21 0.92
-6.23 -0.19 0.94
-6.60 -0.19 0.87
-5.75 -0.15 1.03
-6.38 -0.15 0.91
-5.98 -0.11 0.98
-6.01 -0.10 0.98
-6.33 -0.09 0.92
-6.01 -0.07 0.98
-5.87 -0.05 1.01
-5.68 -0.04 1.04
-5.92 -0.02 1.00
-6.51 -0.01 0.88
-4.69 0.12 0.74
-7.89 0.51 0.54
-5.78 0.41 0.97
-8.47 0.69 0.42
-8.70 0.77 0.37
-8.30 0.86 0.45
-8.27 0.90 0.45
-8.32 0.92 0.44
-8.47 1.00 0.41
-8.16 0.99 0.47
-8.21 1.02 0.46
-8.07 1.02 0.49
-3.47 -0.81 0.99
-3.65 -0.67 0.96
-3.53 -0.60 0.98
-3.83 -0.62 0.92
-3.27 -0.55 1.03
-6.00 0.01 0.87
-5.72 0.02 0.92
-5.72 0.04 0.92
-5.63 0.05 0.94
-6.12 0.07 0.84
-5.72 0.08 0.92
-5.85 0.09 0.89
-6.80 0.12 0.70
-5.97 0.12 0.87
-6.14 0.14 0.83
-5.99 0.15 0.86
-6.00 0.17 0.86
-6.12 0.19 0.84
-6.15 0.20 0.83
-6.06 0.22 0.85
-5.96 0.24 0.87
-5.92 0.25 0.88
-5.92 0.27 0.88
-6.04 0.29 0.85
-5.96 0.30 0.87
-6.15 0.33 0.83
-6.03 0.34 0.85
-5.84 0.34 0.89
-5.64 0.36 0.93
-7.71 0.50 0.50
-7.51 0.51 0.54
-6.54 0.46 0.74
-6.17 0.45 0.82
-6.39 0.48 0.77
-6.91 0.54 0.66
-8.26 0.66 0.37
-7.14 0.59 0.61
-8.17 0.73 0.39
-8.27 0.76 0.37
-8.11 0.81 0.40
-8.25 0.88 0.37
-4.92 0.55 1.08
-7.71 0.86 0.48
-7.87 0.90 0.45
-8.06 0.94 0.41
-7.49 0.90 0.53
-7.97 0.97 0.43
-7.99 0.99 0.42
-8.00 1.01 0.42
-8.10 1.05 0.40
-8.17 1.18 0.38
-7.93 1.17 0.43
-7.72 1.16 0.47
-7.87 1.20 0.44
-7.90 1.22 0.43
-8.08 1.27 0.39
-7.99 1.28 0.41
-7.94 1.29 0.42
-8.06 1.33 0.39
-7.99 1.34 0.41
-7.75 1.32 0.46
-8.04 1.39 0.40
-8.09 1.42 0.38
-7.83 1.39 0.44
-7.94 1.43 0.41
-7.91 1.45 0.42
-7.90 1.46 0.42
-7.91 1.49 0.42
-7.94 1.51 0.41
-7.54 1.48 0.49
-7.86 1.56 0.42
-7.77 1.56 0.44
-1.62 -0.89 1.32
-3.35 -1.03 0.95
-3.48 -1.04 0.92
-2.85 -0.92 1.06
-3.44 -0.98 0.93
-3.73 -1.01 0.87
-3.22 -0.91 0.98
-3.23 -0.90 0.98
-3.36 -0.91 0.95
-3.44 -0.91 0.93
-3.43 -0.89 0.94
-3.32 -0.86 0.96
-3.42 -0.86 0.94
-3.48 -0.85 0.92
-3.51 -0.84 0.92
-3.55 -0.84 0.91
-3.53 -0.82 0.92
-3.36 -0.78 0.95
-3.44 -0.78 0.94
-3.68 -0.80 0.88
-3.77 -0.79 0.86
-3.81 -0.78 0.86
-3.96 -0.79 0.83
-3.83 -0.75 0.85
-3.61 -0.71 0.90
-3.67 -0.71 0.89
-3.75 -0.70 0.87
-5.18 -0.84 0.57
-4.86 -0.79 0.63
-5.88 -0.88 0.42
-5.44 -0.80 0.51
-5.35 -0.73 0.53
-5.04 -0.69 0.60
-4.88 -0.65 0.63
-6.85 -0.35 0.69
-6.55 -0.28 0.75
-5.95 -0.21 0.88
-6.69 -0.22 0.72
-6.15 -0.19 0.84
-5.75 -0.16 0.92
-5.81 -0.15 0.91
-5.89 -0.14 0.89
-5.75 -0.12 0.92
-6.08 -0.11 0.85
-6.49 -0.11 0.76
-5.85 -0.08 0.90
-6.33 -0.07 0.80
-6.64 -0.06 0.73
-5.88 -0.04 0.89
-5.75 -0.01 0.92
-5.53 0.01 0.42
-4.56 0.02 0.63
-4.48 0.04 0.65
-5.63 0.06 0.89
-5.60 0.08 0.90
-5.80 0.09 0.85
-5.59 0.12 0.90
-5.87 0.14 0.84
-5.98 0.17 0.81
-5.92 0.18 0.82
-5.87 0.19 0.83
-5.84 0.21 0.84
-5.89 0.24 0.83
-5.78 0.25 0.85
-5.80 0.28 0.85
-5.76 0.29 0.86
-6.28 0.35 0.74
-6.28 0.38 0.74
-6.06 0.41 0.79
-7.89 0.57 0.38
-7.93 0.59 0.37
-6.34 0.51 0.72
-4.60 0.47 1.10
-7.91 1.18 0.35
-7.79 1.18 0.38
-7.79 1.20 0.38
-7.78 1.30 0.38
-2.36 -0.88 1.12
-3.01 -0.89 0.98
-2.84 -0.85 1.01
-3.12 -0.88 0.95
-3.23 -0.88 0.93
-2.74 -0.79 1.04
-3.20 -0.85 0.93
-3.27 -0.85 0.92
-3.26 -0.83 0.92
-3.11 -0.80 0.96
-3.14 -0.79 0.95
-3.33 -0.80 0.91
-3.41 -0.80 0.89
-3.54 -0.80 0.86
-3.41 -0.77 0.89
-3.53 -0.77 0.86
-3.54 -0.76 0.86
-3.42 -0.73 0.89
-3.37 -0.71 0.90
-3.75 -0.74 0.81
-3.88 -0.74 0.78
-3.98 -0.74 0.76
-4.03 -0.73 0.75
-5.11 -0.84 0.51
-4.64 -0.76 0.62
-3.70 -0.65 0.83
-5.02 -0.77 0.53
-5.23 -0.77 0.49
-5.23 -0.76 0.49
-3.77 -0.60 0.81
-5.02 -0.70 0.53
-4.70 -0.65 0.60
-4.59 -0.63 0.63
-5.11 -0.66 0.51
-5.17 -0.64 0.50
-5.14 -0.62 0.51
-5.17 -0.53 0.50
-3.89 -0.37 0.79
-3.75 -0.30 0.82
-3.62 -0.25 0.84
-5.49 -0.31 0.43
-5.33 -0.29 0.47
-5.55 -0.28 0.42
-5.13 -0.24 0.51
-5.26 -0.23 0.48
-3.05 -0.15 0.97
-5.44 -0.20 0.44
-4.82 -0.11 0.58
-6.53 0.07 0.62
-6.09 0.08 0.72
-5.84 0.09 0.78
-5.77 0.11 0.80
-6.09 0.14 0.72
-5.95 0.24 0.75
-6.20 0.28 0.69
-6.23 0.36 0.69
-7.46 1.08 0.38
-7.40 1.41 0.37
-3.34 -0.94 0.84
-3.18 -0.90 0.88
-3.06 -0.87 0.91
-3.36 -0.91 0.84
-3.27 -0.88 0.86
-3.55 -0.90 0.79
-3.49 -0.88 0.81
-3.65 -0.89 0.77
-3.43 -0.85 0.82
-3.68 -0.87 0.77
-3.98 -0.89 0.69
-3.69 -0.84 0.76
-4.00 -0.87 0.69
-3.85 -0.83 0.73
-3.39 -0.76 0.83
-3.56 -0.76 0.79
-3.36 -0.72 0.84
-4.07 -0.80 0.68
-3.90 -0.76 0.72
-3.91 -0.75 0.71
-5.11 -0.85 0.43
-5.10 -0.83 0.44
-4.98 -0.80 0.46
-5.20 -0.74 0.42
-4.77 -0.68 0.51
-5.09 -0.69 0.44
-4.83 -0.65 0.50
-4.95 -0.64 0.48
-4.83 -0.62 0.50
-5.04 -0.61 0.45
-5.35 -0.62 0.38
-5.23 -0.59 0.41
-3.84 -0.32 0.73
-5.25 -0.23 0.41
-5.10 -0.21 0.44
-5.13 -0.19 0.43
-5.35 -0.18 0.38
-1.33 -1.66 0.97
-1.32 -1.64 0.97
-1.46 -0.28 0.56
-2.83 0.89 0.55
-2.89 0.94 0.42
-2.78 1.05 0.26
-2.16 0.60 0.28
-0.76 -1.42 0.27
-2.22 0.75 0.25
-2.10 0.70 0.26
-2.21 0.89 0.22
-1.14 -0.82 0.33
-1.06 -0.94 0.28
-1.32 -0.84 0.26
-0.74 -0.63 0.29
-0.76 -0.80 0.25
-0.86 -0.88 0.24
-1.16 -0.85 0.25
-1.28 -0.70 0.27
-0.79 -0.77 0.22
-1.17 -0.75 0.25
-0.56 -0.17 0.22
