# .PCD v0.7 - Point Cloud Data file format
VERSION 0.7
FIELDS x y z
SIZE 4 4 4
TYPE F F F
COUNT 1 1 1
WIDTH 947
HEIGHT 1
VIEWPOINT 0 0 0 1 0 0 0
POINTS 947
DATA ASCII
-9.15 1.32 2.44
-3.22 -0.14 2.16
-6.90 0.09 2.04
-5.69 -0.40 1.99
-6.75 0.17 2.00
-6.61 0.22 2.01
-3.41 0.48 2.08
-15.15 -0.52 1.66
-8.81 0.48 1.89
-13.87 -0.91 1.64
-15.96 0.02 1.53
-15.93 0.25 1.53
-3.82 1.26 2.01
-5.61 -0.38 1.85
-15.45 -0.28 1.55
-15.85 -0.21 1.54
-3.50 0.60 2.02
-3.59 0.63 2.01
-6.38 0.23 1.86
-4.36 0.39 1.96
-4.66 1.54 1.93
-4.69 1.61 1.93
-2.82 -1.15 1.92
-2.52 -0.76 1.94
-13.69 -0.94 1.38
-14.70 -0.62 1.46
-14.78 -0.48 1.46
-14.70 -0.44 1.46
-2.84 -1.64 1.87
-4.62 -0.16 1.77
-3.23 0.51 1.96
-4.49 0.93 1.88
-6.19 0.25 1.75
-6.30 0.30 1.74
-3.59 -0.89 1.77
-5.02 -0.40 1.67
-14.29 -0.66 1.04
-14.38 -0.09 1.20
-3.83 0.48 1.89
-4.28 1.04 1.84
-3.39 1.50 1.89
-0.15 -1.62 1.97
-6.03 0.01 1.69
-12.21 0.10 1.21
-9.87 0.20 1.39
-6.20 0.21 1.68
-6.06 0.22 1.69
-6.21 0.36 1.68
-4.00 0.46 1.85
-3.92 0.50 1.85
-3.93 0.66 1.85
-4.00 0.93 1.84
-2.40 -1.16 1.79
-14.23 -1.37 0.86
-5.28 -0.60 1.57
-5.14 -0.27 1.77
-14.49 -0.68 1.03
-15.53 -0.66 0.95
-6.08 0.26 1.66
-4.12 0.54 1.82
-4.10 0.98 1.81
-14.64 -0.63 0.74
-6.19 -0.18 1.45
-13.59 -0.29 0.83
-6.33 0.20 1.60
-6.37 0.21 1.59
-6.64 0.24 1.57
-6.49 0.26 1.58
-6.39 0.29 1.59
-7.93 0.55 1.45
-7.90 0.57 1.45
-7.88 0.59 1.45
-5.96 0.48 1.63
-8.14 0.85 1.43
-8.37 1.22 1.40
-4.23 1.20 1.76
-4.33 1.56 1.74
-4.69 -0.55 1.53
-7.77 -0.72 1.25
-11.02 -0.79 0.96
-13.87 -0.91 0.70
-13.76 -0.87 0.71
-13.86 -0.68 0.70
-2.54 -0.14 1.73
-5.05 0.04 1.46
-5.04 0.08 1.46
-5.20 0.10 1.44
-5.34 0.14 1.43
-5.73 0.16 1.39
-12.82 0.38 0.71
-7.88 0.53 1.41
-6.66 0.48 1.53
-7.89 0.74 1.41
-3.85 0.59 1.79
-3.88 1.10 1.77
-3.74 1.69 1.76
-14.19 -1.01 0.58
-5.77 -0.48 1.39
-13.73 -0.68 0.63
-13.26 -0.39 0.67
-13.05 -0.06 0.69
-5.84 0.04 1.57
-6.00 0.10 1.55
-5.94 0.11 1.56
-6.38 0.15 1.51
-6.34 0.21 1.52
-6.63 0.24 1.49
-6.82 0.28 1.47
-6.85 0.31 1.46
-6.00 0.30 1.55
-6.25 0.33 1.52
-8.46 0.50 1.30
-8.23 0.51 1.32
-8.02 0.52 1.34
-7.79 0.54 1.37
-7.56 0.57 1.39
-4.33 0.64 1.71
-4.35 0.98 1.70
-4.54 1.34 1.67
-5.08 1.57 1.61
-8.47 -1.03 1.06
-8.15 -0.95 1.09
-3.69 -0.39 1.55
-5.51 -0.47 1.36
-7.60 -0.57 1.15
-14.66 -0.84 0.43
-13.73 -0.28 0.77
-13.49 -0.21 0.79
-12.92 -0.14 0.85
-13.53 -0.08 0.79
-14.09 -0.05 0.73
-13.54 0.24 0.43
-12.24 0.29 0.58
-10.55 -1.47 0.76
-8.21 -0.78 1.02
-4.12 0.02 1.68
-13.69 0.15 0.58
-13.52 0.18 0.60
-13.92 0.22 0.56
-13.60 0.24 0.59
-13.82 0.31 0.57
-6.30 0.18 1.43
-6.58 0.22 1.40
-13.72 0.48 0.58
-13.60 0.51 0.59
-13.86 0.58 0.56
-7.78 0.37 1.26
-3.83 0.20 1.72
-8.29 0.58 1.20
-7.99 0.70 1.23
-11.74 1.10 0.80
-12.39 1.19 0.72
-4.12 0.90 1.67
-3.84 0.85 1.70
-3.98 1.30 1.66
-3.93 1.66 1.65
-11.79 -1.65 0.52
-12.40 -1.68 0.45
-12.69 -1.65 0.42
-11.81 -1.52 0.52
-8.30 -0.96 0.93
-8.04 -0.92 0.96
-8.07 -0.89 0.96
-8.18 -0.88 0.95
-8.05 -0.84 0.96
-8.04 -0.76 0.96
-7.66 -0.69 1.01
-7.44 -0.63 1.03
-15.73 -0.78 0.35
-15.29 -0.72 0.40
-14.36 -0.54 0.51
-10.88 -0.38 0.91
-4.53 -0.12 1.64
-5.79 0.01 1.17
-5.73 0.03 1.18
-13.46 0.18 0.52
-6.06 0.10 1.42
-6.24 0.12 1.40
-6.32 0.13 1.39
-13.44 0.34 0.52
-6.28 0.21 1.39
-13.61 0.51 0.50
-3.82 0.76 1.68
-1.05 -1.54 1.73
-1.57 -0.99 1.68
-1.66 -0.77 1.68
-1.80 -0.71 1.66
-9.46 -1.46 0.72
-10.55 -1.50 0.58
-11.69 -1.40 0.44
-3.68 -0.43 1.43
-7.78 -0.67 0.93
-7.65 -0.54 0.94
-7.80 -0.53 0.92
-7.81 -0.50 0.92
-7.60 -0.47 0.95
-7.99 -0.46 0.90
-7.19 -0.27 1.00
-6.45 -0.12 1.09
-4.25 -0.03 1.36
-4.06 -0.01 1.38
-6.65 0.01 1.30
-6.61 0.02 1.30
-6.34 0.04 1.34
-6.77 0.06 1.28
-6.59 0.07 1.31
-6.54 0.09 1.31
-6.72 0.11 1.29
-6.63 0.12 1.30
-6.53 0.14 1.31
-6.20 0.14 1.36
-6.20 0.16 1.36
-6.53 0.18 1.31
-6.58 0.20 1.31
-6.89 0.23 1.27
-13.11 0.46 0.46
-13.32 0.50 0.44
-10.89 0.43 0.75
-6.01 0.27 1.38
-8.30 0.43 1.08
-8.24 0.45 1.09
-8.17 0.47 1.10
-8.23 0.49 1.09
-7.31 0.49 1.21
-5.94 0.42 1.39
-7.90 0.63 1.13
-8.05 0.66 1.11
-8.00 0.69 1.12
-7.77 0.70 1.15
-4.20 1.49 1.57
-11.19 -1.68 0.40
-11.54 -1.69 0.36
-8.70 -1.29 0.73
-8.76 -1.27 0.72
-11.35 -1.40 0.38
-9.54 -1.16 0.62
-8.37 -1.00 0.77
-9.03 -0.97 0.69
-8.00 -0.86 0.82
-8.29 -0.86 0.78
-8.16 -0.82 0.80
-7.87 -0.78 0.84
-7.91 -0.76 0.83
-7.84 -0.72 0.84
-7.70 -0.69 0.86
-7.38 -0.62 0.90
-6.86 -0.55 0.97
-7.41 -0.55 0.90
-7.14 -0.52 0.93
-7.47 -0.51 0.89
-7.36 -0.48 0.91
-7.78 -0.48 0.85
-7.62 -0.45 0.87
-7.71 -0.43 0.86
-7.58 -0.40 0.88
-6.46 -0.33 1.02
-7.72 -0.35 0.86
-6.71 -0.28 0.99
-6.46 -0.25 1.02
-11.81 -0.36 0.33
-6.07 -0.16 1.07
-7.94 -0.16 0.83
-6.18 0.01 1.00
-5.95 0.03 1.03
-6.77 0.05 0.92
-6.07 0.07 1.01
-6.32 0.11 0.98
-6.64 0.14 0.93
-5.79 0.14 1.05
-6.47 0.18 0.96
-2.85 0.12 1.45
-6.48 0.22 0.95
-6.87 0.21 1.22
-12.45 0.40 0.46
-6.27 0.22 1.30
-12.79 0.47 0.41
-7.73 0.33 1.10
-8.47 0.46 1.00
-8.13 0.64 1.04
-8.16 0.67 1.04
-7.89 0.67 1.07
-8.97 0.77 0.93
-5.58 0.50 1.39
-7.78 0.71 1.09
-11.69 1.35 0.55
-11.56 1.50 0.56
-3.69 0.83 1.63
-3.88 0.89 1.61
-4.38 1.22 1.53
-0.79 -1.65 1.71
-8.85 -1.33 0.63
-9.20 -1.35 0.58
-9.30 -1.30 0.57
-8.76 -1.22 0.64
-8.87 -1.15 0.63
-8.78 -1.00 0.64
-8.85 -0.98 0.63
-8.58 -0.93 0.67
-7.88 -0.85 0.76
-7.80 -0.79 0.78
-7.80 -0.77 0.78
-5.81 -0.60 1.05
-5.96 -0.59 1.03
-8.16 -0.72 0.73
-7.61 -0.66 0.80
-7.33 -0.62 0.84
-7.33 -0.60 0.84
-7.66 -0.59 0.80
-7.06 -0.53 0.88
-7.53 -0.54 0.81
-7.11 -0.49 0.87
-7.31 -0.48 0.84
-7.11 -0.45 0.87
-7.57 -0.44 0.81
-6.60 -0.38 0.94
-7.88 -0.41 0.77
-7.07 -0.35 0.88
-8.05 -0.37 0.74
-6.53 -0.29 0.95
-8.03 -0.31 0.74
-5.84 -0.21 1.04
-6.89 -0.21 0.90
-5.60 -0.17 1.08
-5.56 -0.15 1.08
-11.04 -0.21 0.33
-5.63 -0.11 1.07
-6.25 -0.10 0.99
-5.60 -0.07 1.08
-6.22 -0.05 0.99
-5.94 -0.03 1.03
-6.46 -0.01 0.96
-7.96 0.01 1.01
-7.83 0.03 1.03
-7.88 0.05 1.02
-7.90 0.07 1.02
-7.57 0.08 1.07
-8.30 0.11 0.96
-7.02 0.11 1.14
-7.11 0.13 1.13
-6.53 0.14 1.21
-6.36 0.15 1.24
-6.59 0.17 1.20
-6.61 0.19 1.20
-7.10 0.22 1.13
-7.05 0.23 1.14
-7.43 0.26 1.08
-7.69 0.29 1.04
-7.44 0.30 1.08
-7.34 0.31 1.09
-7.83 0.35 1.02
-6.57 0.33 1.21
-6.79 0.36 1.17
-8.24 0.45 0.96
-8.03 0.46 0.99
-5.75 0.36 1.32
-8.23 0.53 0.96
-8.79 0.61 0.88
-8.56 0.62 0.92
-8.15 0.61 0.97
-8.06 0.62 0.99
-8.77 0.69 0.88
-8.65 0.71 0.90
-8.52 0.72 0.92
-5.92 0.55 1.29
-5.94 0.57 1.29
-9.67 -1.43 0.42
-9.70 -1.41 0.42
-8.87 -1.23 0.54
-8.78 -1.19 0.55
-8.52 -1.01 0.59
-8.79 -1.01 0.55
-8.28 -0.91 0.63
-8.27 -0.88 0.63
-8.41 -0.87 0.61
-8.07 -0.82 0.66
-7.98 -0.79 0.67
-7.87 -0.75 0.69
-7.83 -0.73 0.69
-7.86 -0.70 0.69
-7.69 -0.67 0.71
-5.72 -0.52 1.00
-7.52 -0.61 0.74
-7.69 -0.59 0.71
-7.50 -0.54 0.74
-7.39 -0.51 0.75
-7.37 -0.48 0.76
-7.59 -0.47 0.73
-7.34 -0.43 0.76
-7.38 -0.41 0.76
-7.49 -0.39 0.74
-7.40 -0.37 0.75
-8.13 -0.37 0.65
-9.32 -0.28 0.82
-9.13 -0.23 0.84
-12.15 -0.19 0.41
-9.25 -0.12 0.83
-8.98 -0.10 0.86
-8.83 -0.05 0.89
-8.47 -0.03 0.94
-8.36 -0.01 0.95
-10.39 0.79 0.57
-9.84 0.80 0.65
-8.30 -0.86 0.54
-9.39 -0.92 0.38
-8.02 -0.71 0.59
-7.88 -0.63 0.61
-6.87 0.01 1.06
-6.79 0.02 1.07
-7.71 0.08 0.92
-6.22 0.08 1.16
-7.69 0.12 0.92
-6.66 0.14 1.09
-7.08 0.17 1.02
-6.51 0.17 1.11
-6.77 0.19 1.07
-6.89 0.21 1.05
-6.42 0.21 1.12
-7.15 0.29 1.01
-7.51 0.34 0.95
-7.74 0.42 0.91
-8.08 0.46 0.86
-7.97 0.48 0.87
-11.49 0.76 0.31
-7.93 0.55 0.88
-9.07 0.65 0.70
-9.25 0.69 0.67
-9.07 0.70 0.70
-6.17 0.50 1.16
-8.93 0.73 0.72
-9.18 0.84 0.68
-9.15 0.86 0.68
-9.23 0.89 0.67
-3.49 0.83 1.57
-3.77 0.92 1.52
-1.40 -0.96 1.55
-1.89 -0.91 1.48
-8.53 -1.51 0.41
-7.65 -1.34 0.55
-8.70 -1.11 0.39
-8.77 -1.03 0.38
-8.73 -1.00 0.38
-8.54 -0.96 0.42
-8.64 -0.94 0.40
-9.03 -0.95 0.34
-8.62 -0.89 0.40
-8.57 -0.86 0.41
-8.60 -0.83 0.41
-8.36 -0.79 0.45
-8.56 -0.78 0.41
-8.18 -0.73 0.47
-8.00 -0.69 0.50
-7.64 -0.62 0.56
-7.84 -0.60 0.53
-7.57 -0.57 0.57
-8.71 -0.46 0.76
-8.60 -0.43 0.78
-8.34 -0.40 0.82
-8.85 -0.40 0.74
-9.09 -0.39 0.70
-8.67 -0.35 0.77
-8.99 -0.32 0.72
-8.57 -0.28 0.79
-8.78 -0.27 0.75
-8.67 -0.24 0.77
-8.55 -0.22 0.79
-9.23 -0.21 0.68
-9.35 -0.20 0.66
-9.06 -0.17 0.71
-9.28 -0.15 0.67
-8.98 -0.12 0.72
-6.94 -0.01 1.05
-5.49 0.01 0.84
-5.30 0.02 0.87
-4.91 0.04 0.94
-8.43 0.09 0.74
-7.83 0.10 0.84
-6.83 0.11 1.01
-7.46 0.15 0.90
-7.08 0.16 0.96
-6.68 0.17 1.03
-7.10 0.20 0.96
-6.83 0.21 1.01
-7.40 0.26 0.91
-7.72 0.33 0.86
-5.40 0.25 1.24
-5.82 0.29 1.17
-6.52 0.41 1.05
-5.82 0.38 1.17
-10.33 0.71 0.41
-9.02 0.71 0.63
-8.57 0.70 0.71
-8.96 0.75 0.64
-10.17 0.90 0.44
-10.50 0.98 0.38
-10.81 1.06 0.33
-9.09 0.94 0.62
-8.88 0.94 0.65
-9.11 0.99 0.61
-3.86 0.86 1.48
-4.22 1.00 1.41
-3.48 1.05 1.53
-3.38 1.08 1.54
-3.67 1.43 1.47
-7.86 -1.22 0.44
-2.94 -0.59 1.27
-2.92 -0.57 1.28
-8.55 -0.99 0.33
-8.45 -0.92 0.34
-8.41 -0.87 0.35
-8.33 -0.84 0.36
-8.40 -0.82 0.35
-8.42 -0.79 0.35
-7.67 -0.57 0.48
-7.59 -0.54 0.49
-7.48 -0.51 0.51
-7.41 -0.48 0.52
-7.40 -0.46 0.52
-7.17 -0.43 0.56
-7.11 -0.40 0.57
-7.29 -0.39 0.54
-7.01 -0.35 0.59
-7.28 -0.32 0.54
-5.48 -0.24 0.85
-5.31 -0.22 0.87
-7.28 -0.25 0.54
-5.41 -0.18 0.86
-5.40 -0.16 0.86
-5.59 -0.15 0.83
-5.42 -0.12 0.86
-5.56 -0.11 0.83
-5.26 -0.09 0.88
-5.08 -0.07 0.91
-5.27 -0.05 0.88
-5.27 -0.03 0.88
-6.33 -0.01 0.70
-7.81 0.01 0.78
-7.33 0.03 0.86
-7.59 0.05 0.82
-7.80 0.07 0.78
-7.73 0.08 0.79
-7.90 0.10 0.76
-7.46 0.12 0.84
-7.10 0.13 0.90
-7.61 0.16 0.81
-7.05 0.16 0.91
-7.15 0.18 0.89
-7.30 0.20 0.86
-7.32 0.22 0.86
-7.32 0.24 0.86
-7.69 0.27 0.79
-7.52 0.28 0.82
-7.45 0.30 0.84
-7.52 0.32 0.82
-9.11 0.41 0.54
-7.42 0.35 0.84
-7.10 0.36 0.90
-7.37 0.39 0.85
-7.33 0.40 0.86
-8.59 0.49 0.63
-7.86 0.47 0.76
-7.99 0.50 0.74
-8.42 0.54 0.66
-9.32 0.62 0.50
-9.07 0.65 0.55
-9.47 0.70 0.48
-7.96 0.63 0.74
-7.98 0.65 0.74
-5.59 0.48 1.16
-5.52 0.50 1.17
-6.28 0.58 1.04
-9.22 0.89 0.52
-5.59 0.59 1.15
-5.87 0.65 1.10
-5.94 0.76 1.09
-3.97 1.64 1.37
-4.96 -1.18 0.86
-4.28 -1.04 0.99
-4.51 -0.96 0.95
-4.48 -0.92 0.95
-4.42 -0.85 0.96
-7.73 -1.18 0.38
-3.87 -0.61 1.06
-3.06 -0.39 1.21
-7.83 -0.60 0.36
-7.36 -0.55 0.45
-7.36 -0.51 0.45
-7.21 -0.47 0.47
-6.93 -0.42 0.52
-6.92 -0.39 0.53
-6.87 -0.37 0.53
-3.80 -0.23 1.07
-5.17 -0.25 0.83
-5.02 -0.23 0.86
-5.40 -0.20 0.79
-5.31 -0.18 0.81
-5.23 -0.16 0.82
-5.11 -0.14 0.84
-8.73 -0.12 0.62
-8.54 -0.10 0.65
-8.54 -0.07 0.65
-7.01 -0.04 0.92
-8.15 -0.03 0.72
-8.38 -0.01 0.68
-5.42 0.01 0.72
-5.36 0.03 0.73
-5.16 0.04 0.77
-5.21 0.06 0.76
-6.13 0.09 0.59
-6.52 0.11 0.51
-5.10 0.11 0.78
-6.53 0.16 0.51
-5.03 0.15 0.79
-6.41 0.20 0.53
-6.16 0.21 0.58
-7.77 0.23 0.71
-7.69 0.31 0.73
-4.51 0.20 1.31
-4.39 0.22 1.33
-7.81 0.41 0.70
-7.91 0.45 0.68
-8.33 0.50 0.61
-7.64 0.49 0.73
-7.65 0.51 0.73
-9.47 0.65 0.39
-7.68 0.55 0.72
-7.80 0.60 0.70
-7.34 0.58 0.78
-5.44 0.45 1.14
-9.47 0.84 0.39
-9.37 0.90 0.41
-9.47 0.93 0.39
-5.27 0.64 1.16
-3.89 0.92 1.40
-3.58 0.91 1.45
-3.87 0.99 1.40
-3.46 1.12 1.46
-3.67 1.23 1.42
-3.72 1.35 1.40
-3.66 1.34 1.41
-4.38 -1.02 0.91
-6.70 -1.28 0.48
-6.76 -1.20 0.47
-7.22 -1.21 0.38
-4.36 -0.84 0.92
-4.57 -0.81 0.88
-3.41 -0.62 1.09
-3.07 -0.38 1.16
-2.77 -0.33 1.21
-2.56 -0.28 1.25
-7.10 -0.49 0.41
-7.10 -0.47 0.41
-7.02 -0.44 0.43
-6.98 -0.42 0.43
-6.88 -0.39 0.45
-7.02 -0.38 0.43
-7.13 -0.33 0.40
-3.53 -0.20 1.07
-5.12 -0.23 0.78
-4.99 -0.19 0.80
-5.07 -0.17 0.79
-6.64 -0.19 0.50
-4.79 -0.13 0.84
-4.95 -0.12 0.81
-5.12 -0.10 0.78
-4.97 -0.08 0.80
-4.84 -0.06 0.83
-5.30 -0.05 0.74
-5.07 -0.01 0.79
-8.18 0.01 0.57
-7.92 0.03 0.62
-7.35 0.04 0.72
-7.35 0.06 0.72
-7.26 0.08 0.74
-7.11 0.10 0.77
-7.09 0.11 0.77
-7.23 0.13 0.75
-7.20 0.15 0.75
-7.29 0.17 0.73
-7.23 0.18 0.75
-7.29 0.20 0.73
-7.58 0.23 0.68
-7.57 0.25 0.68
-7.59 0.27 0.68
-7.59 0.29 0.68
-7.43 0.30 0.71
-7.75 0.33 0.64
-7.50 0.34 0.69
-8.00 0.38 0.60
-7.97 0.40 0.60
-6.60 0.35 0.87
-7.85 0.43 0.62
-7.79 0.45 0.63
-7.88 0.47 0.62
-7.76 0.48 0.64
-9.12 0.59 0.38
-8.22 0.55 0.55
-5.88 0.41 1.00
-6.09 0.44 0.96
-8.12 0.62 0.57
-6.13 0.49 0.95
-5.83 0.48 1.01
-6.08 0.52 0.96
-6.34 0.55 0.91
-5.77 0.52 1.02
-6.04 0.56 0.97
-8.44 0.79 0.50
-8.56 0.83 0.48
-8.83 0.87 0.42
-9.22 0.93 0.35
-8.21 0.85 0.54
-8.23 0.98 0.54
-8.56 1.06 0.47
-5.22 -1.41 0.68
-4.70 -1.05 0.79
-4.55 -1.01 0.82
-4.91 -1.05 0.74
-4.85 -1.02 0.76
-4.70 -0.99 0.79
-4.43 -0.93 0.84
-6.29 -1.16 0.48
-4.25 -0.88 0.88
-6.33 -1.10 0.47
-3.94 -0.76 0.94
-4.43 -0.77 0.84
-3.68 -0.65 0.99
-3.96 -0.65 0.93
-3.72 -0.61 0.98
-4.06 -0.63 0.91
-4.39 -0.65 0.85
-4.00 -0.60 0.93
-3.98 -0.58 0.93
-4.06 -0.57 0.92
-3.90 -0.54 0.95
-3.69 -0.51 0.99
-3.78 -0.50 0.97
-3.43 -0.46 1.04
-3.56 -0.46 1.01
-3.75 -0.45 0.97
-4.33 -0.48 0.86
-4.15 -0.45 0.90
-4.15 -0.44 0.90
-4.43 -0.44 0.84
-6.85 -0.57 0.37
-6.87 -0.55 0.37
-6.73 -0.52 0.40
-5.66 -0.42 0.60
-6.69 -0.45 0.40
-5.08 -0.35 0.72
-5.41 -0.33 0.65
-3.24 -0.23 1.07
-8.11 -0.27 0.58
-8.36 -0.26 0.53
-8.33 -0.23 0.54
-8.25 -0.21 0.55
-8.39 -0.20 0.53
-8.41 -0.18 0.52
-8.20 -0.15 0.56
-8.21 -0.13 0.56
-8.31 -0.11 0.54
-7.96 -0.09 0.61
-7.96 -0.07 0.61
-7.53 -0.05 0.69
-7.85 -0.03 0.63
-7.84 -0.01 0.63
-5.29 0.01 0.61
-6.35 0.30 0.39
-2.77 0.88 1.54
-6.01 -0.66 0.47
-6.34 -0.56 0.40
-6.84 0.01 0.70
-7.26 0.03 0.61
-6.93 0.04 0.67
-6.91 0.06 0.68
-7.24 0.08 0.61
-7.42 0.10 0.57
-7.26 0.11 0.60
-7.02 0.13 0.66
-7.16 0.15 0.63
-7.36 0.17 0.58
-7.33 0.19 0.59
-7.43 0.21 0.57
-7.35 0.22 0.58
-7.51 0.25 0.55
-7.38 0.26 0.58
-7.70 0.31 0.51
-7.59 0.32 0.53
-7.61 0.34 0.53
-7.87 0.37 0.47
-7.68 0.38 0.51
-7.77 0.41 0.49
-6.31 0.43 0.80
-6.57 0.46 0.74
-5.88 0.43 0.89
-5.62 0.42 0.94
-8.08 0.62 0.42
-7.98 0.63 0.44
-5.88 0.49 0.89
-5.94 0.51 0.87
-5.88 0.52 0.89
-8.09 0.72 0.42
-8.21 0.77 0.39
-5.34 0.53 1.00
-5.09 0.53 1.05
-5.07 0.55 1.05
-5.18 0.59 1.03
-5.47 0.73 0.96
-5.53 -1.60 0.47
-2.82 -1.01 1.05
-2.60 -0.95 1.10
-5.22 -1.41 0.54
-2.50 -0.90 1.12
-5.16 -1.36 0.55
-5.17 -1.34 0.55
-5.03 -1.30 0.58
-4.88 -1.22 0.61
-3.57 -0.95 0.89
-3.84 -0.94 0.84
-4.51 -1.03 0.69
-4.39 -0.99 0.72
-4.70 -1.02 0.65
-4.43 -0.97 0.71
-4.20 -0.92 0.76
-4.45 -0.94 0.71
-3.94 -0.85 0.82
-4.14 -0.86 0.78
-4.21 -0.86 0.76
-4.39 -0.85 0.72
-4.25 -0.81 0.75
-4.14 -0.78 0.78
-4.33 -0.79 0.74
-4.29 -0.75 0.74
-3.79 -0.61 0.85
-3.80 -0.59 0.85
-3.96 -0.59 0.82
-4.17 -0.60 0.77
-2.19 -0.41 1.19
-4.08 -0.56 0.79
-4.42 -0.57 0.72
-4.28 -0.54 0.75
-3.88 -0.48 0.83
-3.80 -0.46 0.85
-5.56 -0.57 0.48
-3.93 -0.44 0.82
-5.63 -0.51 0.46
-5.46 -0.48 0.50
-2.52 -0.28 1.12
-8.18 -0.41 0.42
-7.76 -0.37 0.50
-7.56 -0.34 0.55
-7.58 -0.33 0.54
-7.96 -0.32 0.46
-7.98 -0.30 0.46
-7.62 -0.27 0.53
-7.75 -0.26 0.51
-7.96 -0.24 0.46
-8.03 -0.21 0.45
-8.14 -0.19 0.42
-7.78 -0.16 0.50
-8.00 -0.15 0.45
-6.66 -0.11 0.73
-7.18 -0.10 0.62
-7.01 -0.08 0.66
-6.93 -0.06 0.68
-7.39 -0.05 0.58
-6.85 -0.03 0.69
-7.08 -0.01 0.64
-7.07 0.08 0.58
-7.55 0.10 0.47
-7.45 0.12 0.49
-4.21 0.08 1.21
-4.28 0.09 1.19
-7.46 0.17 0.49
-7.70 0.20 0.44
-6.96 0.21 0.60
-7.28 0.24 0.53
-7.22 0.29 0.54
-7.14 0.30 0.56
-7.57 0.34 0.46
-7.79 0.37 0.41
-7.09 0.35 0.57
-7.76 0.41 0.42
-7.69 0.44 0.44
-7.89 0.47 0.39
-5.58 0.38 0.90
-5.87 0.46 0.84
-5.69 0.46 0.87
-5.46 0.47 0.93
-5.66 0.51 0.88
-5.68 0.53 0.87
-4.78 0.47 1.07
-4.62 0.47 1.11
-5.08 0.60 1.00
-5.60 0.70 0.89
-2.34 -0.98 1.11
-2.40 -0.96 1.10
-2.10 -0.83 1.17
-2.24 -0.81 1.14
-1.81 -0.73 1.23
-1.42 -0.61 1.32
-3.09 -0.86 0.95
-3.68 -0.87 0.82
-4.36 -0.95 0.66
-4.63 -0.92 0.61
-4.58 -0.87 0.62
-3.09 -0.62 0.95
-2.85 -0.56 1.00
-3.53 -0.62 0.85
-3.83 -0.59 0.79
-5.25 -0.71 0.47
-4.40 -0.60 0.66
-3.95 -0.54 0.76
-3.89 -0.52 0.77
-4.79 -0.58 0.57
-4.88 -0.57 0.55
-4.54 -0.53 0.63
-3.78 -0.42 0.80
-3.70 -0.41 0.82
-3.10 -0.35 0.95
-3.35 -0.36 0.89
-3.30 -0.34 0.90
-5.23 -0.38 0.48
-5.52 -0.37 0.41
-2.65 -0.20 1.05
-5.55 -0.28 0.41
-3.03 -0.11 0.96
-5.17 -0.10 0.49
-7.28 0.06 0.46
-6.95 0.08 0.53
-7.42 0.10 0.42
-7.41 0.15 0.43
-7.49 0.17 0.41
-7.12 0.23 0.49
-7.41 0.26 0.43
-7.40 0.33 0.42
-6.91 0.40 0.54
-7.23 0.86 0.45
-4.46 0.62 1.09
-4.62 -1.18 0.53
-4.90 -1.19 0.47
-1.63 -1.22 0.44
-3.02 0.70 0.26
-2.15 0.66 0.28
-1.28 -0.90 0.27
-1.96 0.59 0.21
-0.67 -0.67 0.28
-1.53 -0.72 0.24
-1.37 -0.62 0.21
