# .PCD v0.7 - Point Cloud Data file format
VERSION 0.7
FIELDS x y z
SIZE 4 4 4
TYPE F F F
COUNT 1 1 1
WIDTH 1114
HEIGHT 1
VIEWPOINT 0 0 0 1 0 0 0
POINTS 1114
DATA ASCII
-7.19 -0.57 2.45
-2.26 0.01 2.22
-0.94 -1.58 2.16
-1.90 -1.22 2.15
-0.94 -1.59 2.15
-5.25 -0.77 1.90
-1.08 -0.16 2.05
-8.23 -0.03 1.84
-5.91 0.38 1.81
-7.19 0.08 1.82
-5.40 0.22 1.91
-5.81 0.46 1.88
-6.07 0.84 1.87
-5.73 0.96 1.88
-1.66 -1.66 1.97
-1.99 -1.68 1.96
-1.53 -1.40 1.98
-2.04 -1.42 1.96
-2.49 -1.26 1.94
-1.95 -1.11 1.97
-2.39 -1.14 1.94
-1.97 -1.02 1.97
-2.04 -1.02 1.96
-2.25 -1.05 1.95
-2.21 -1.01 1.95
-2.26 -0.96 1.95
-2.59 -0.99 1.94
-2.87 -1.03 1.92
-2.16 -0.88 1.96
-2.27 -0.88 1.95
-2.41 -0.90 1.94
-2.19 -0.75 1.96
-6.99 -1.05 1.72
-2.53 -0.43 1.94
-3.33 -0.34 1.90
-4.80 -0.07 1.94
-5.06 -0.07 1.92
-5.01 -0.05 1.93
-5.42 -0.04 1.91
-3.13 0.17 2.00
-3.63 0.35 1.98
-3.55 0.89 1.97
-1.64 -1.26 1.96
-1.72 -1.27 1.96
-1.89 -1.31 1.95
-2.02 -1.03 1.94
-2.13 -0.68 1.94
-1.99 -0.21 1.95
-1.95 -0.18 1.95
-5.79 0.11 1.83
-5.57 0.20 1.85
-6.12 0.96 1.81
-1.38 -1.48 1.95
-1.34 -1.45 1.96
-1.84 -1.35 1.93
-2.57 -1.03 1.89
-1.28 -1.45 1.94
-1.30 -1.45 1.94
-1.42 -1.33 1.94
-1.93 -1.29 1.90
-1.89 -1.23 1.91
-1.42 -1.05 1.94
-1.57 -1.08 1.93
-1.77 -1.10 1.92
-2.31 -1.00 1.88
-4.61 -0.20 1.74
-8.01 0.27 1.62
-5.73 0.54 1.78
-2.34 -1.43 1.85
-10.06 -1.12 1.33
-1.34 -0.98 1.90
-7.91 0.03 1.54
-7.69 0.09 1.56
-7.75 0.11 1.56
-8.00 0.13 1.54
-7.61 0.14 1.57
-8.03 0.17 1.53
-7.59 0.20 1.57
-8.77 0.42 1.47
-7.69 0.39 1.56
-9.78 0.61 1.39
-4.02 0.83 1.84
-4.12 0.93 1.83
-2.26 -1.68 1.80
-1.92 -1.50 1.83
-2.00 -1.26 1.83
-2.08 -0.96 1.82
-2.08 -0.94 1.82
-1.98 -0.91 1.83
-1.96 -0.61 1.83
-2.67 -0.51 1.78
-15.93 -1.43 0.74
-12.58 -0.96 1.00
-7.15 -0.32 1.60
-4.91 -0.20 1.78
-5.13 -0.18 1.76
-5.78 0.00 1.49
-7.78 0.07 1.51
-7.78 0.09 1.51
-8.04 0.11 1.49
-7.74 0.15 1.52
-7.30 0.19 1.55
-8.66 0.37 1.44
-9.30 0.56 1.38
-3.28 0.78 1.88
-3.57 0.85 1.85
-2.32 -0.68 1.78
-15.74 -0.16 0.66
-7.03 -0.06 1.39
-5.80 -0.04 1.49
-6.51 -0.02 1.43
-7.86 0.03 1.45
-7.39 0.08 1.50
-7.91 0.11 1.45
-7.69 0.14 1.47
-7.72 0.16 1.47
-7.54 0.20 1.48
-7.24 0.21 1.51
-7.01 0.22 1.53
-6.86 0.26 1.54
-7.26 0.31 1.51
-9.40 0.54 1.31
-5.62 0.75 1.65
-5.70 1.08 1.63
-2.72 -0.84 1.71
-3.35 -0.84 1.66
-3.32 -0.59 1.66
-2.32 -0.33 1.75
-2.49 -0.27 1.74
-2.12 -0.21 1.77
-1.76 -0.18 1.80
-6.58 -0.17 1.37
-3.30 -0.09 1.66
-5.81 0.00 1.39
-6.85 0.05 1.29
-6.97 0.09 1.28
-7.94 0.18 1.19
-9.52 0.36 1.25
-4.43 0.26 1.74
-4.07 0.28 1.77
-9.50 0.78 1.25
-4.57 0.41 1.72
-4.25 0.53 1.75
-4.02 0.54 1.77
-1.52 -1.02 1.80
-1.83 -0.87 1.77
-12.48 -1.66 0.75
-2.04 -0.34 1.75
-2.21 -0.30 1.74
-9.89 -0.67 1.00
-6.22 -0.24 1.35
-8.66 -0.26 1.12
-5.76 -0.02 1.40
-5.20 0.02 1.63
-7.62 0.05 1.38
-7.79 0.07 1.37
-7.63 0.09 1.38
-7.65 0.11 1.38
-7.51 0.12 1.39
-7.77 0.15 1.37
-7.85 0.17 1.36
-8.56 0.20 1.29
-8.72 0.23 1.27
-8.69 0.25 1.27
-8.76 0.31 1.26
-9.38 0.36 1.20
-9.18 0.37 1.22
-9.76 0.44 1.16
-9.50 0.45 1.19
-9.52 0.48 1.19
-9.60 0.50 1.18
-9.34 0.77 1.20
-5.23 0.45 1.62
-4.86 0.52 1.66
-5.80 0.78 1.56
-5.56 0.76 1.58
-5.85 0.81 1.55
-6.00 0.92 1.53
-6.19 1.05 1.51
-5.30 1.03 1.60
-4.99 1.18 1.63
-4.48 1.08 1.68
-2.53 -1.10 1.67
-2.57 -1.08 1.66
-3.18 -1.09 1.60
-2.64 -0.91 1.66
-2.57 -0.89 1.67
-11.99 -1.68 0.70
-11.97 -1.57 0.71
-4.73 -0.54 1.45
-9.04 -0.71 1.01
-2.46 -0.28 1.68
-9.05 -0.62 1.01
-3.07 -0.29 1.62
-9.95 -0.61 0.92
-5.39 -0.31 1.38
-8.39 -0.25 1.31
-6.82 -0.12 1.47
-15.55 -0.16 0.57
-5.02 -0.01 1.65
-7.84 0.09 1.25
-7.97 0.11 1.24
-8.11 0.13 1.22
-8.17 0.15 1.21
-14.80 0.31 0.45
-7.81 0.18 1.25
-8.19 0.21 1.21
-8.48 0.24 1.18
-8.53 0.26 1.17
-8.84 0.32 1.13
-9.06 0.34 1.11
-15.20 0.64 0.40
-7.15 0.33 1.33
-9.13 0.44 1.10
-9.65 0.51 1.04
-9.63 0.53 1.04
-5.54 0.52 1.51
-2.02 -0.87 1.66
-2.50 -0.94 1.61
-2.95 -0.75 1.56
-12.76 -1.51 0.42
-12.92 -1.46 0.40
-12.64 -1.36 0.44
-8.63 -0.65 0.90
-9.89 -0.51 1.02
-9.89 -0.49 1.02
-9.46 -0.44 1.07
-9.83 -0.44 1.02
-6.70 -0.09 1.39
-6.54 0.00 1.08
-6.50 0.03 1.09
-6.42 0.05 1.10
-8.27 0.11 1.15
-14.61 0.27 0.37
-14.81 0.31 0.35
-8.08 0.19 1.17
-8.19 0.21 1.16
-8.52 0.26 1.12
-8.73 0.29 1.09
-8.52 0.30 1.12
-10.05 0.55 0.93
-9.96 0.64 0.93
-10.22 0.76 0.90
-9.89 0.78 0.94
-3.86 0.62 1.67
-3.99 0.65 1.66
-1.97 -0.89 1.64
-2.28 -0.92 1.60
-11.14 -1.12 0.52
-9.69 -0.95 0.70
-10.09 -0.89 0.65
-9.82 -0.78 0.68
-9.40 -0.53 0.73
-8.65 -0.47 0.83
-1.72 -0.17 1.67
-9.06 -0.43 0.78
-8.50 -0.33 0.85
-8.85 -0.32 0.80
-6.19 -0.22 1.13
-6.24 -0.18 1.12
-6.08 -0.16 1.14
-5.66 -0.13 1.19
-6.79 -0.13 1.05
-5.97 -0.10 1.15
-6.31 -0.08 1.11
-6.02 -0.06 1.15
-6.06 -0.04 1.14
-5.70 -0.02 1.19
-8.59 0.01 1.04
-8.95 0.04 1.00
-7.97 0.05 1.12
-7.58 0.07 1.18
-7.39 0.08 1.20
-8.11 0.11 1.11
-7.26 0.12 1.22
-8.27 0.16 1.08
-7.40 0.16 1.20
-8.24 0.19 1.09
-8.61 0.22 1.04
-8.26 0.23 1.09
-7.83 0.24 1.14
-8.27 0.28 1.08
-8.44 0.30 1.06
-8.89 0.34 1.00
-6.33 0.26 1.33
-8.94 0.38 1.00
-8.34 0.38 1.07
-7.73 0.37 1.15
-8.55 0.43 1.05
-7.50 0.40 1.18
-8.90 0.49 1.00
-9.66 0.65 0.90
-9.52 0.66 0.92
-10.60 0.76 0.78
-9.69 0.72 0.89
-7.55 0.58 1.17
-10.12 0.80 0.84
-7.08 0.59 1.23
-9.98 0.87 0.85
-10.14 0.90 0.83
-10.39 0.95 0.80
-5.89 0.77 1.38
-3.94 1.21 1.61
-2.32 -0.90 1.56
-2.21 -0.68 1.58
-2.53 -0.70 1.54
-10.54 -1.67 0.49
-4.88 -0.87 1.23
-11.66 -1.64 0.35
-10.90 -1.36 0.45
-3.98 -0.56 1.35
-9.75 -1.04 0.60
-9.74 -1.01 0.60
-9.84 -0.99 0.59
-9.52 -0.93 0.63
-3.94 -0.49 1.35
-9.62 -0.88 0.62
-9.75 -0.86 0.60
-9.77 -0.84 0.60
-9.54 -0.79 0.63
-9.29 -0.72 0.66
-9.34 -0.70 0.66
-9.26 -0.63 0.67
-4.70 -0.37 1.26
-8.83 -0.56 0.72
-4.31 -0.29 1.31
-4.85 -0.29 1.24
-5.87 -0.27 1.10
-8.78 -0.34 0.73
-5.58 -0.23 1.14
-3.23 -0.15 1.45
-6.29 -0.20 1.05
-6.36 -0.18 1.04
-6.29 -0.16 1.05
-6.23 -0.14 1.06
-7.98 -0.10 1.13
-8.08 -0.08 1.11
-8.13 -0.07 1.11
-8.29 -0.05 1.08
-7.92 -0.03 1.13
-8.37 -0.01 1.07
-5.74 0.00 1.06
-6.18 0.02 1.00
-7.16 0.05 0.87
-6.07 0.06 1.02
-6.76 0.09 0.92
-7.31 0.12 0.85
-6.90 0.14 0.90
-6.15 0.15 1.00
-7.68 0.20 0.80
-5.73 0.18 1.06
-6.17 0.21 1.00
-5.77 0.22 1.06
-8.17 0.25 1.04
-8.54 0.28 0.99
-9.02 0.32 0.92
-8.93 0.34 0.93
-9.01 0.37 0.92
-6.75 0.31 1.23
-7.09 0.34 1.18
-7.33 0.37 1.15
-9.19 0.48 0.90
-9.35 0.54 0.87
-8.96 0.56 0.93
-9.02 0.58 0.92
-10.17 0.68 0.76
-9.66 0.67 0.83
-11.48 0.82 0.58
-10.63 0.89 0.69
-12.71 1.09 0.41
-12.70 1.12 0.41
-9.76 0.94 0.81
-10.03 0.99 0.77
-4.57 0.54 1.52
-13.15 1.58 0.34
-3.76 0.93 1.62
-1.18 -1.58 1.66
-1.97 -1.69 1.55
-1.49 -1.35 1.63
-1.83 -1.21 1.59
-10.24 -1.53 0.44
-10.29 -1.48 0.44
-10.16 -1.43 0.46
-10.26 -1.42 0.44
-10.70 -1.34 0.38
-9.95 -1.20 0.49
-10.07 -1.18 0.47
-9.74 -1.12 0.52
-9.20 -1.05 0.59
-10.15 -1.10 0.46
-10.15 -1.07 0.46
-10.22 -1.05 0.45
-9.95 -1.00 0.49
-9.77 -0.95 0.51
-9.80 -0.92 0.51
-9.92 -0.91 0.49
-9.52 -0.85 0.55
-9.60 -0.83 0.54
-9.79 -0.81 0.51
-9.81 -0.78 0.51
-9.46 -0.73 0.56
-10.72 -0.74 0.38
-9.07 -0.49 0.61
-8.87 -0.43 0.64
-8.89 -0.37 0.63
-8.54 -0.33 0.68
-7.05 -0.27 0.88
-6.61 -0.21 0.94
-6.75 -0.19 0.93
-6.61 -0.17 0.94
-6.49 -0.14 0.96
-6.24 -0.12 0.99
-6.35 -0.10 0.98
-6.37 -0.08 0.98
-6.25 -0.06 0.99
-6.27 -0.04 0.99
-6.13 -0.02 1.01
-8.74 0.01 0.89
-9.32 0.04 0.81
-8.57 0.06 0.92
-8.38 0.07 0.94
-8.95 0.10 0.86
-8.68 0.12 0.90
-8.85 0.14 0.88
-9.05 0.17 0.85
-8.58 0.18 0.91
-4.73 0.11 1.47
-8.62 0.22 0.91
-9.01 0.25 0.85
-9.00 0.28 0.85
-9.20 0.30 0.82
-8.72 0.31 0.89
-6.89 0.26 1.16
-6.53 0.27 1.21
-7.19 0.31 1.11
-6.95 0.32 1.15
-6.98 0.34 1.14
-7.17 0.36 1.11
-9.27 0.49 0.81
-9.19 0.51 0.82
-9.09 0.52 0.84
-7.18 0.43 1.11
-9.65 0.60 0.75
-9.19 0.60 0.82
-7.29 0.49 1.09
-9.16 0.64 0.82
-7.07 0.51 1.13
-9.41 0.70 0.79
-6.69 0.52 1.18
-6.35 0.53 1.23
-9.73 0.82 0.74
-5.52 0.80 1.34
-5.37 0.82 1.36
-5.08 0.81 1.40
-5.08 0.83 1.40
-5.86 1.10 1.28
-5.92 -0.98 0.97
-9.55 -1.31 0.45
-9.40 -1.12 0.47
-9.88 -1.11 0.40
-9.60 -1.06 0.44
-9.78 -1.04 0.42
-10.17 -1.05 0.36
-10.08 -1.01 0.37
-10.27 -0.99 0.35
-10.03 -0.94 0.38
-10.08 -0.92 0.37
-10.00 -0.88 0.38
-10.09 -0.86 0.37
-9.93 -0.82 0.40
-9.76 -0.78 0.42
-9.65 -0.74 0.44
-9.52 -0.62 0.45
-8.93 -0.56 0.54
-8.93 -0.54 0.54
-4.82 -0.33 1.13
-8.67 -0.42 0.58
-6.60 -0.32 0.87
-9.46 -0.31 0.79
-7.86 -0.22 1.02
-8.83 -0.22 0.88
-7.76 -0.18 1.04
-8.16 -0.17 0.98
-7.50 -0.13 1.07
-7.73 -0.12 1.04
-7.75 -0.10 1.04
-7.74 -0.08 1.04
-7.66 -0.06 1.05
-7.94 -0.04 1.01
-9.45 -0.03 0.79
-7.71 -0.00 1.04
-6.90 0.09 0.76
-6.72 0.11 0.79
-6.14 0.21 0.88
-8.07 0.38 0.58
-8.29 0.47 0.55
-9.03 0.52 0.78
-11.60 0.83 0.38
-4.05 0.53 1.53
-1.51 -1.33 1.57
-7.58 -1.33 0.65
-8.84 -0.56 0.47
-8.85 -0.37 0.47
-6.46 -0.17 0.83
-7.83 0.01 0.90
-8.70 0.03 0.76
-8.68 0.06 0.76
-9.37 0.08 0.65
-7.40 0.10 0.97
-8.88 0.14 0.73
-8.78 0.16 0.75
-8.90 0.19 0.72
-8.96 0.21 0.71
-8.43 0.22 0.80
-8.63 0.24 0.77
-8.22 0.25 0.83
-8.62 0.29 0.77
-9.06 0.32 0.70
-9.57 0.36 0.62
-7.05 0.29 1.02
-8.93 0.38 0.72
-9.37 0.42 0.65
-6.86 0.35 1.05
-6.80 0.36 1.06
-6.96 0.39 1.03
-6.93 0.40 1.04
-9.99 0.60 0.55
-6.67 0.42 1.08
-9.18 0.62 0.68
-9.47 0.68 0.63
-9.92 0.74 0.55
-9.82 0.76 0.57
-9.70 0.77 0.59
-9.81 0.83 0.57
-10.45 0.96 0.47
-10.10 0.95 0.52
-9.83 0.95 0.56
-8.99 1.12 0.69
-4.51 0.67 1.41
-8.17 -0.81 0.48
-10.37 -0.54 0.49
-9.65 -0.48 0.61
-9.80 -0.46 0.59
-9.57 -0.43 0.62
-9.60 -0.40 0.62
-9.35 -0.30 0.66
-9.31 -0.21 0.66
-7.58 -0.15 0.94
-7.90 -0.10 0.89
-7.17 -0.08 1.00
-7.41 -0.06 0.97
-8.27 -0.05 0.83
-7.76 -0.03 0.91
-6.11 0.02 0.74
-6.17 0.04 0.73
-5.96 0.06 0.77
-8.69 0.10 0.69
-9.11 0.12 0.62
-8.62 0.14 0.70
-7.30 0.14 0.92
-8.73 0.18 0.68
-8.78 0.21 0.68
-8.79 0.23 0.67
-8.06 0.23 0.80
-8.45 0.26 0.73
-9.18 0.30 0.61
-8.83 0.31 0.67
-9.08 0.34 0.62
-8.88 0.36 0.66
-8.82 0.38 0.67
-7.16 0.33 0.95
-7.14 0.34 0.95
-7.22 0.36 0.93
-6.80 0.36 1.00
-9.30 0.51 0.58
-7.63 0.44 0.86
-7.24 0.44 0.93
-7.13 0.45 0.95
-10.54 0.68 0.37
-9.91 0.66 0.48
-9.91 0.69 0.48
-6.34 0.46 1.08
-6.64 0.50 1.03
-6.30 0.49 1.08
-10.02 0.79 0.46
-9.88 0.81 0.48
-6.65 0.58 1.02
-10.05 0.89 0.45
-10.19 0.96 0.43
-9.96 0.96 0.46
-5.53 0.60 1.21
-5.63 0.71 1.19
-5.47 0.76 1.22
-3.62 0.91 1.51
-3.55 1.06 1.51
-3.12 1.28 1.57
-1.88 -0.98 1.45
-2.17 -0.81 1.40
-5.97 -0.86 0.77
-5.76 -0.68 0.80
-4.59 -0.55 1.00
-5.11 -0.54 0.91
-8.33 -0.71 0.37
-4.69 -0.46 0.98
-8.39 -0.64 0.36
-7.43 -0.54 0.52
-4.29 -0.35 1.05
-7.30 -0.48 0.55
-7.08 -0.43 0.58
-7.08 -0.38 0.58
-7.10 -0.34 0.58
-8.41 -0.36 0.36
-7.07 -0.29 0.59
-7.57 -0.28 0.50
-6.63 -0.24 0.66
-6.30 -0.18 0.71
-4.59 -0.12 1.00
-6.41 -0.12 0.70
-3.55 -0.07 1.17
-6.46 -0.08 0.69
-6.14 -0.06 0.74
-6.11 -0.02 0.74
-7.41 0.03 0.84
-7.37 0.05 0.85
-7.57 0.07 0.81
-7.77 0.11 0.78
-8.18 0.13 0.71
-8.40 0.16 0.67
-8.44 0.18 0.66
-8.37 0.22 0.67
-8.47 0.24 0.65
-8.47 0.28 0.65
-8.88 0.31 0.58
-8.72 0.33 0.61
-8.78 0.35 0.60
-8.70 0.39 0.61
-8.83 0.42 0.59
-8.44 0.44 0.66
-8.27 0.46 0.69
-6.60 0.38 0.98
-6.60 0.40 0.98
-6.59 0.43 0.98
-6.27 0.43 1.04
-6.15 0.45 1.06
-6.37 0.48 1.02
-9.81 0.75 0.41
-9.84 0.78 0.40
-9.95 0.84 0.38
-9.93 0.91 0.39
-7.85 0.74 0.75
-10.21 1.01 0.33
-9.20 1.16 0.51
-5.86 0.78 1.10
-5.17 0.81 1.22
-5.45 0.87 1.16
-5.56 0.94 1.14
-5.52 0.96 1.15
-5.64 1.00 1.13
-5.78 1.04 1.10
-4.92 -1.14 0.88
-5.85 -1.25 0.71
-4.77 -0.98 0.91
-4.67 -0.93 0.92
-4.24 -0.83 1.00
-4.88 -0.87 0.89
-4.48 -0.79 0.96
-4.69 -0.76 0.92
-7.37 -0.96 0.45
-5.77 -0.78 0.73
-5.92 -0.78 0.71
-5.30 -0.68 0.81
-5.94 -0.70 0.70
-5.78 -0.66 0.73
-5.28 -0.61 0.82
-5.62 -0.61 0.76
-4.43 -0.51 0.97
-5.15 -0.54 0.84
-4.92 -0.51 0.88
-5.03 -0.50 0.86
-4.91 -0.47 0.88
-5.29 -0.48 0.82
-4.90 -0.44 0.89
-4.71 -0.41 0.92
-4.85 -0.40 0.89
-4.91 -0.38 0.88
-4.72 -0.36 0.92
-4.67 -0.34 0.93
-4.88 -0.33 0.89
-5.39 -0.33 0.80
-6.79 -0.37 0.55
-6.46 -0.34 0.61
-6.01 -0.26 0.69
-6.25 -0.25 0.65
-6.32 -0.23 0.64
-6.14 -0.20 0.67
-5.88 -0.18 0.71
-6.02 -0.16 0.69
-5.99 -0.14 0.69
-7.41 -0.10 0.84
-7.30 -0.08 0.86
-7.31 -0.04 0.86
-7.53 -0.03 0.82
-7.42 -0.01 0.84
-5.96 0.00 0.62
-6.17 0.02 0.59
-5.94 0.04 0.63
-5.56 0.06 0.70
-5.31 0.09 0.74
-5.16 0.11 0.77
-5.37 0.13 0.73
-5.58 0.16 0.69
-5.67 0.20 0.68
-6.07 0.23 0.60
-8.75 0.27 0.53
-9.04 0.30 0.47
-9.05 0.32 0.47
-8.81 0.33 0.51
-8.66 0.35 0.54
-8.78 0.38 0.52
-8.44 0.38 0.58
-8.76 0.42 0.52
-9.03 0.45 0.47
-8.65 0.46 0.54
-8.19 0.45 0.63
-6.62 0.38 0.92
-6.51 0.41 0.94
-6.44 0.47 0.95
-6.30 0.47 0.98
-6.49 0.57 0.94
-6.42 0.59 0.95
-6.06 0.62 1.02
-4.15 0.71 1.36
-4.59 0.88 1.27
-3.60 0.75 1.46
-4.13 0.86 1.36
-3.81 0.93 1.41
-3.85 0.95 1.40
-3.74 0.94 1.42
-3.48 0.93 1.47
-3.60 1.00 1.44
-1.42 -1.48 1.44
-1.81 -1.27 1.38
-1.69 -1.20 1.40
-1.73 -1.17 1.40
-1.72 -1.14 1.40
-1.59 -1.06 1.43
-5.50 -1.17 0.70
-4.94 -1.04 0.81
-4.71 -0.99 0.85
-6.01 -0.94 0.62
-4.79 -0.77 0.84
-4.54 -0.70 0.89
-5.54 -0.72 0.70
-5.10 -0.66 0.79
-6.51 -0.66 0.52
-6.27 -0.60 0.57
-6.61 -0.58 0.51
-6.91 -0.55 0.45
-6.47 -0.29 0.53
-6.62 -0.28 0.51
-6.66 -0.19 0.50
-6.34 -0.16 0.56
-6.13 -0.14 0.59
-6.10 -0.10 0.60
-6.74 -0.04 0.48
-6.27 -0.02 0.57
-9.19 0.01 0.36
-7.85 0.03 0.62
-7.60 0.05 0.67
-7.98 0.07 0.60
-8.01 0.09 0.59
-9.14 0.12 0.37
-8.47 0.14 0.50
-8.42 0.16 0.51
-8.55 0.18 0.49
-8.49 0.20 0.50
-8.56 0.22 0.48
-8.31 0.24 0.53
-8.44 0.26 0.51
-8.11 0.27 0.57
-8.66 0.31 0.46
-8.49 0.32 0.50
-8.52 0.34 0.49
-6.73 0.29 0.84
-6.43 0.31 0.89
-8.98 0.45 0.40
-6.76 0.38 0.83
-8.83 0.51 0.43
-6.71 0.41 0.84
-6.58 0.42 0.86
-6.53 0.43 0.87
-6.45 0.44 0.89
-6.56 0.46 0.87
-6.31 0.46 0.91
-6.45 0.49 0.89
-6.18 0.48 0.94
-6.30 0.51 0.91
-6.30 0.52 0.91
-6.19 0.53 0.94
-6.16 0.54 0.94
-6.31 0.57 0.91
-6.56 0.61 0.86
-6.56 0.62 0.86
-6.82 0.70 0.81
-8.87 0.99 0.41
-5.72 0.74 1.02
-6.20 0.83 0.92
-5.85 0.83 0.99
-5.64 0.81 1.03
-4.72 -1.08 0.79
-5.08 -1.09 0.72
-5.32 -1.11 0.67
-4.67 -1.00 0.80
-4.77 -1.00 0.78
-4.36 -0.93 0.86
-4.35 -0.91 0.86
-4.47 -0.91 0.84
-4.39 -0.88 0.85
-4.28 -0.85 0.87
-4.46 -0.86 0.84
-4.73 -0.87 0.79
-4.89 -0.87 0.76
-4.82 -0.85 0.77
-5.30 -0.87 0.68
-5.59 -0.88 0.62
-5.49 -0.85 0.64
-5.55 -0.84 0.63
-5.81 -0.84 0.58
-6.15 -0.86 0.51
-5.79 -0.80 0.58
-6.50 -0.85 0.45
-6.16 -0.80 0.51
-5.86 -0.75 0.57
-5.85 -0.73 0.57
-5.97 -0.72 0.55
-5.84 -0.69 0.57
-5.59 -0.65 0.62
-5.60 -0.63 0.62
-6.36 -0.63 0.47
-6.20 -0.55 0.51
-4.44 -0.43 0.85
-4.92 -0.44 0.75
-6.81 -0.50 0.39
-6.75 -0.48 0.40
-6.69 -0.46 0.41
-4.90 -0.35 0.76
-4.30 -0.30 0.87
-4.75 -0.31 0.79
-6.68 -0.37 0.41
-9.12 -0.30 0.38
-7.33 -0.22 0.73
-7.14 -0.20 0.76
-7.34 -0.19 0.73
-7.29 -0.17 0.74
-7.22 -0.15 0.75
-7.19 -0.13 0.75
-7.01 -0.11 0.79
-7.15 -0.09 0.76
-7.20 -0.08 0.75
-9.01 -0.07 0.40
-7.20 -0.04 0.75
-8.06 -0.01 0.58
-3.88 0.47 1.35
-3.98 0.94 1.31
-3.18 0.79 1.47
-3.23 0.82 1.46
-4.60 -0.67 0.76
-6.33 -0.81 0.41
-7.83 0.01 0.48
-7.87 0.07 0.47
-8.22 0.09 0.40
-6.64 0.14 0.73
-6.59 0.16 0.74
-6.54 0.27 0.75
-6.51 0.28 0.76
-6.81 0.34 0.69
-6.50 0.35 0.76
-6.34 0.35 0.79
-6.78 0.39 0.70
-6.44 0.39 0.77
-6.75 0.42 0.70
-6.60 0.46 0.73
-5.63 0.41 0.94
-6.17 0.47 0.82
-5.90 0.46 0.88
-5.88 0.48 0.88
-5.58 0.47 0.95
-6.19 0.53 0.82
-5.70 0.50 0.92
-5.93 0.55 0.87
-5.91 0.57 0.87
-6.05 0.59 0.84
-6.34 0.64 0.78
-6.01 0.62 0.85
-6.31 0.67 0.79
-6.19 0.67 0.81
-6.50 0.72 0.75
-6.37 0.72 0.77
-6.11 0.71 0.83
-5.91 0.70 0.87
-5.90 0.71 0.87
-6.14 0.76 0.82
-5.81 0.73 0.89
-5.59 0.72 0.93
-5.31 0.70 0.99
-5.59 0.75 0.93
-5.70 0.78 0.91
-5.82 0.81 0.89
-6.00 0.85 0.85
-5.61 0.81 0.93
-6.13 0.90 0.82
-5.77 0.86 0.89
-5.62 0.85 0.92
-5.15 0.80 1.02
-5.62 0.88 0.92
-5.23 0.84 1.01
-5.86 0.95 0.87
-5.03 0.83 1.05
-5.80 0.97 0.88
-6.27 1.06 0.78
-5.70 0.98 0.90
-5.45 0.96 0.95
-5.29 0.94 0.99
-5.14 0.93 1.02
-5.23 0.96 1.00
-5.14 0.96 1.02
-5.35 1.02 0.97
-3.49 0.78 1.37
-2.44 -0.96 1.14
-4.90 -1.20 0.61
-4.21 -1.05 0.76
-4.59 -1.09 0.68
-4.83 -1.11 0.63
-4.85 -1.10 0.62
-4.70 -1.06 0.66
-4.85 -1.06 0.63
-4.42 -0.98 0.72
-4.41 -0.97 0.72
-5.26 -1.07 0.54
-4.34 -0.91 0.74
-4.62 -0.93 0.68
-4.37 -0.88 0.73
-4.36 -0.86 0.73
-4.22 -0.83 0.76
-4.50 -0.85 0.70
-4.48 -0.83 0.71
-4.37 -0.80 0.73
-4.36 -0.78 0.73
-4.53 -0.78 0.70
-4.67 -0.78 0.67
-4.76 -0.77 0.65
-4.32 -0.71 0.74
-4.18 -0.68 0.77
-4.57 -0.70 0.69
-4.35 -0.66 0.74
-5.77 -0.78 0.44
-4.20 -0.62 0.77
-5.58 -0.73 0.48
-5.81 -0.73 0.43
-3.98 -0.55 0.82
-5.97 -0.70 0.40
-5.83 -0.67 0.42
-5.56 -0.63 0.48
-5.86 -0.63 0.42
-5.59 -0.57 0.48
-5.56 -0.55 0.48
-5.55 -0.53 0.48
-7.47 -0.41 0.56
-7.82 -0.41 0.49
-7.61 -0.38 0.53
-8.02 -0.36 0.44
-7.65 -0.32 0.52
-3.55 -0.14 1.39
-7.71 -0.29 0.51
-7.37 -0.26 0.58
-7.00 -0.19 0.66
-7.34 -0.17 0.59
-7.69 -0.14 0.51
-7.15 -0.11 0.63
-7.47 -0.10 0.56
-7.24 -0.04 0.61
-3.86 0.00 0.78
-4.19 0.03 0.71
-7.66 0.07 0.44
-6.75 0.09 0.65
-6.51 0.15 0.70
-7.29 0.19 0.52
-6.64 0.21 0.67
-6.68 0.26 0.66
-6.26 0.26 0.75
-6.58 0.28 0.68
-6.60 0.30 0.67
-6.89 0.33 0.61
-6.53 0.33 0.69
-6.63 0.35 0.67
-6.07 0.34 0.79
-6.35 0.38 0.73
-6.51 0.41 0.69
-5.81 0.38 0.85
-6.72 0.46 0.64
-5.82 0.41 0.84
-5.60 0.41 0.89
-5.48 0.42 0.92
-5.77 0.45 0.85
-5.41 0.44 0.93
-5.63 0.48 0.88
-5.46 0.48 0.92
-5.93 0.54 0.82
-5.47 0.51 0.92
-5.43 0.52 0.93
-5.72 0.56 0.86
-5.82 0.58 0.84
-5.62 0.58 0.88
-5.59 0.59 0.89
-5.60 0.61 0.89
-5.98 0.66 0.80
-5.39 0.61 0.93
-5.65 0.65 0.87
-5.35 0.63 0.94
-5.41 0.66 0.93
-5.39 0.68 0.93
-5.50 0.72 0.90
-5.62 0.75 0.88
-4.93 0.69 1.03
-5.81 0.82 0.83
-5.42 0.78 0.92
-5.18 0.76 0.97
-5.56 0.83 0.88
-5.21 0.79 0.96
-5.37 0.83 0.93
-5.46 0.85 0.91
-5.27 0.84 0.95
-4.86 0.79 1.04
-3.91 0.65 1.25
-5.39 0.90 0.92
-5.34 0.93 0.93
-5.18 0.92 0.96
-5.31 0.96 0.93
-5.14 0.94 0.97
-4.47 0.89 1.12
-4.07 0.83 1.21
-3.89 0.80 1.25
-3.31 0.70 1.38
-2.60 -0.95 1.06
-2.36 -0.80 1.11
-4.93 -1.16 0.54
-4.60 -1.08 0.61
-4.67 -0.93 0.60
-4.74 -0.91 0.59
-4.58 -0.85 0.62
-4.24 -0.79 0.70
-4.18 -0.76 0.71
-4.00 -0.72 0.75
-4.20 -0.71 0.71
-4.46 -0.69 0.65
-5.67 -0.75 0.38
-5.60 -0.67 0.40
-5.54 -0.64 0.41
-4.46 -0.11 0.65
-4.29 -0.09 0.69
-6.82 0.29 0.55
-6.78 0.31 0.56
-5.73 0.42 0.80
-5.76 0.44 0.80
-5.70 0.45 0.81
-6.09 0.49 0.72
-5.09 0.43 0.95
-5.96 0.57 0.75
-6.18 0.61 0.69
-6.03 0.62 0.73
-6.31 0.71 0.66
-6.36 0.73 0.65
-6.49 0.76 0.62
-5.33 0.69 0.88
-5.51 0.76 0.84
-5.77 0.86 0.78
-5.59 0.85 0.82
-5.59 0.86 0.82
-5.93 0.92 0.74
-5.72 0.91 0.78
-5.76 0.93 0.78
-6.09 1.00 0.70
-5.90 1.00 0.74
-4.10 -1.09 0.66
-4.78 -1.16 0.50
-4.61 -1.11 0.54
-4.76 -1.12 0.50
-4.67 -1.09 0.52
-4.63 -1.07 0.53
-4.59 -1.04 0.55
-4.75 -1.05 0.51
-4.92 -1.05 0.47
-4.74 -0.99 0.51
-5.01 -1.01 0.45
-5.04 -1.00 0.44
-4.99 -0.97 0.45
-4.92 -0.95 0.47
-4.84 -0.92 0.49
-4.79 -0.90 0.50
-4.82 -0.88 0.50
-4.77 -0.86 0.51
-5.09 -0.88 0.43
-4.81 -0.83 0.50
-4.88 -0.82 0.48
-4.89 -0.80 0.48
-4.85 -0.78 0.49
-5.14 -0.79 0.42
-5.15 -0.78 0.42
-0.74 -1.07 0.66
-0.92 -1.12 0.49
-3.38 0.25 0.30
-0.86 -1.03 0.28
-1.69 -0.79 0.26
-1.39 -0.74 0.23
