# .PCD v0.7 - Point Cloud Data file format
VERSION 0.7
FIELDS x y z
SIZE 4 4 4
TYPE F F F
COUNT 1 1 1
WIDTH 479
HEIGHT 1
VIEWPOINT 0 0 0 1 0 0 0
POINTS 479
DATA ASCII
-2.63 1.17 2.27
-4.23 1.40 2.27
-6.96 0.81 2.25
-7.18 1.16 2.25
-3.46 1.04 2.21
-7.97 -0.98 2.10
-0.80 -0.46 2.10
-5.93 -0.03 2.02
-1.75 1.51 2.10
-0.60 -0.43 2.10
-6.81 1.20 1.94
-2.98 1.05 2.05
-11.72 -0.92 1.61
-4.34 0.65 1.97
-5.78 0.18 1.89
-5.83 0.20 1.88
-5.47 0.23 1.90
-5.34 0.25 1.91
-5.30 0.27 1.91
-3.90 0.41 1.98
-4.21 0.45 1.96
-4.21 0.60 1.96
-4.55 0.74 1.94
-4.69 1.04 1.93
-4.90 1.10 1.92
-4.08 1.18 1.96
-2.70 -1.14 1.93
-11.48 -1.64 1.51
-2.75 -0.57 1.93
-2.39 -0.52 1.95
-2.64 -0.50 1.94
-11.70 -1.36 1.50
-11.50 -0.94 1.51
-6.79 -0.22 1.84
-13.04 -0.36 1.53
-6.67 -0.10 1.84
-3.70 0.38 1.97
-3.64 0.38 1.97
-3.93 0.55 1.95
-3.87 0.30 1.94
-11.48 -1.21 1.38
-6.23 -0.73 1.68
-3.38 0.54 1.95
-11.53 -0.42 1.31
-11.61 -0.38 1.31
-8.20 0.23 1.61
-9.08 1.00 1.54
-3.59 0.58 1.91
-4.56 1.02 1.84
-4.45 1.02 1.85
-11.56 -1.35 1.24
-11.87 -0.24 1.36
-1.69 0.16 1.88
-3.55 0.33 1.90
-3.54 0.52 1.90
-11.51 -0.28 1.17
-11.35 -0.21 1.18
-4.36 0.04 1.82
-4.80 0.12 1.78
-5.79 0.15 1.70
-5.04 0.16 1.76
-5.02 0.38 1.76
-4.18 0.62 1.83
-4.52 0.98 1.79
-4.77 1.17 1.77
-4.36 1.20 1.80
-1.88 -1.08 1.84
-2.28 -0.94 1.81
-11.72 -1.57 1.07
-11.92 -1.56 1.06
-11.26 -1.03 1.11
-6.14 -0.48 1.51
-4.67 -0.11 1.80
-4.72 -0.10 1.79
-12.07 -0.19 1.21
-12.07 -0.16 1.21
-7.16 -0.08 1.60
-12.65 -0.11 1.17
-1.68 -0.46 1.84
-6.67 0.31 1.56
-4.71 0.33 1.73
-6.87 0.62 1.53
-5.03 0.77 1.70
-5.93 1.10 1.61
-5.98 1.12 1.60
-11.23 -1.68 0.95
-11.72 -1.57 0.91
-3.06 -0.58 1.69
-6.93 0.97 1.48
-4.47 1.06 1.71
-3.51 1.13 1.80
-2.37 -1.45 1.72
-11.35 -1.52 0.87
-11.49 -0.68 0.86
-10.84 -0.61 0.92
-1.69 -0.12 1.79
-4.96 0.02 1.65
-5.13 0.05 1.63
-4.61 0.09 1.69
-5.35 0.14 1.61
-7.58 0.22 1.38
-5.00 0.16 1.64
-6.13 0.33 1.53
-5.30 0.31 1.61
-4.73 0.45 1.67
-6.79 0.67 1.46
-4.88 0.50 1.65
-4.75 0.50 1.66
-6.94 0.94 1.43
-6.64 0.92 1.47
-5.82 0.90 1.55
-6.09 0.96 1.52
-5.08 0.91 1.62
-5.26 0.99 1.60
-5.22 0.99 1.61
-5.16 1.00 1.61
-4.87 0.95 1.64
-5.23 1.05 1.60
-5.19 1.05 1.61
-4.81 0.99 1.65
-5.13 1.07 1.61
-4.93 1.04 1.63
-4.49 0.99 1.68
-5.42 1.20 1.58
-4.85 1.18 1.64
-5.21 1.32 1.60
-4.73 1.22 1.65
-11.84 -1.41 0.73
-2.68 -0.48 1.66
-10.32 -0.92 0.89
-2.41 -0.34 1.69
-10.80 -0.90 0.84
-11.09 -0.85 0.81
-10.96 -0.65 0.82
-10.83 -0.58 0.83
-2.92 -0.20 1.64
-11.92 -0.33 0.94
-11.90 -0.27 0.94
-12.18 -0.16 0.91
-4.97 -0.03 1.65
-12.35 -0.01 0.90
-3.19 1.53 1.76
-10.36 -0.26 0.80
-4.70 0.06 1.61
-4.34 0.13 1.65
-13.43 0.47 0.60
-5.15 0.20 1.56
-4.88 0.29 1.59
-4.67 0.76 1.60
-4.37 0.74 1.63
-4.75 0.82 1.59
-3.87 0.70 1.69
-4.34 1.06 1.63
-2.18 -0.46 1.65
-11.34 -1.33 0.60
-11.29 -1.29 0.60
-10.60 -1.16 0.68
-10.34 -1.08 0.71
-10.81 -0.87 0.66
-11.00 -0.81 0.64
-11.02 -0.75 0.64
-11.53 -0.63 0.82
-11.63 -0.61 0.81
-11.32 -0.56 0.85
-11.11 -0.50 0.87
-11.22 -0.48 0.86
-12.14 -0.37 0.75
-4.23 -0.09 1.66
-3.98 0.12 1.67
-4.14 0.34 1.64
-5.15 0.53 1.52
-3.59 0.93 1.69
-4.16 1.11 1.62
-2.99 1.42 1.73
-2.01 -0.44 1.64
-10.82 -1.28 0.57
-10.90 -1.25 0.56
-10.87 -1.00 0.56
-11.03 -0.94 0.54
-11.06 -0.88 0.54
-11.38 -0.84 0.50
-10.55 -0.51 0.60
-7.82 -0.18 0.94
-6.04 -0.11 1.15
-13.40 0.05 0.42
-9.67 0.18 0.90
-9.87 0.25 0.87
-9.33 0.38 0.94
-9.29 0.40 0.94
-6.19 0.39 1.34
-6.18 0.67 1.34
-4.64 0.60 1.54
-6.19 1.41 1.32
-5.34 1.31 1.43
-5.53 1.55 1.39
-10.76 -1.59 0.48
-11.16 -1.31 0.43
-10.80 -1.15 0.48
-10.45 -1.09 0.52
-10.47 -1.03 0.52
-11.18 -1.05 0.43
-11.31 -1.00 0.41
-10.60 -0.91 0.50
-10.53 -0.88 0.51
-10.70 -0.86 0.49
-11.56 -0.88 0.38
-10.94 -0.81 0.46
-10.90 -0.71 0.46
-10.67 -0.64 0.49
-10.84 -0.62 0.47
-10.58 -0.57 0.51
-10.74 -0.55 0.48
-7.45 -0.37 0.91
-7.38 -0.34 0.92
-7.83 -0.33 0.86
-10.24 -0.35 0.55
-10.15 -0.06 0.84
-9.21 0.26 0.60
-3.77 0.16 1.63
-6.05 0.72 1.31
-3.98 1.00 1.58
-4.31 1.12 1.53
-3.88 1.07 1.59
-8.11 -1.37 0.74
-11.53 -1.54 0.28
-11.42 -1.37 0.29
-11.51 -1.34 0.28
-11.29 -1.26 0.31
-11.57 -1.25 0.27
-11.66 -1.22 0.26
-10.84 -1.06 0.38
-11.32 -1.06 0.31
-11.02 -1.01 0.35
-10.96 -0.88 0.36
-10.12 -0.76 0.47
-10.45 -0.75 0.43
-10.65 -0.73 0.40
-10.71 -0.64 0.39
-10.65 -0.61 0.40
-11.07 -0.59 0.35
-7.26 -0.40 0.86
-10.41 -0.50 0.44
-10.41 -0.47 0.44
-7.39 -0.34 0.85
-7.50 -0.32 0.83
-10.36 -0.38 0.44
-7.22 -0.27 0.87
-7.29 -0.25 0.86
-6.93 -0.21 0.91
-7.25 -0.20 0.87
-7.44 -0.18 0.84
-7.27 -0.13 0.86
-7.71 -0.11 0.80
-7.07 -0.06 0.89
-8.37 -0.01 0.71
-10.06 0.04 0.69
-9.80 0.06 0.73
-9.71 0.11 0.74
-9.79 0.13 0.73
-10.11 0.16 0.69
-9.90 0.21 0.72
-9.94 0.23 0.71
-6.80 0.18 1.16
-10.14 0.29 0.68
-10.14 0.33 0.68
-6.32 0.34 1.23
-4.07 0.29 1.55
-6.16 0.61 1.25
-6.30 0.83 1.22
-4.50 1.09 1.47
-5.06 1.32 1.38
-4.19 1.16 1.51
-10.98 -1.23 0.25
-11.10 -1.21 0.23
-10.79 -1.15 0.28
-11.00 -1.13 0.25
-11.10 -1.08 0.23
-10.89 -0.97 0.27
-10.48 -0.75 0.33
-10.70 -0.74 0.29
-7.71 -0.54 0.72
-10.45 -0.66 0.33
-6.42 -0.43 0.91
-10.65 -0.61 0.30
-6.73 -0.41 0.87
-10.36 -0.53 0.34
-7.21 -0.38 0.80
-10.48 -0.48 0.33
-8.47 -0.38 0.61
-8.39 -0.23 0.94
-8.54 -0.20 0.92
-8.43 -0.17 0.93
-8.69 -0.16 0.89
-9.02 -0.10 0.85
-9.07 -0.03 0.84
-8.04 0.01 0.60
-2.96 1.51 1.62
-10.47 0.06 0.47
-10.01 0.16 0.54
-9.78 0.20 0.58
-9.73 0.25 0.59
-10.31 0.31 0.49
-9.79 0.32 0.57
-9.76 0.37 0.58
-9.19 0.46 0.67
-2.46 -1.49 1.38
-7.13 -0.38 1.00
-7.44 -0.37 0.95
-7.56 -0.36 0.93
-7.15 -0.32 1.00
-7.35 -0.31 0.97
-7.98 -0.32 0.87
-6.95 -0.18 1.03
-8.17 -0.13 0.84
-9.35 -0.08 0.65
-10.11 0.11 0.45
-10.00 0.13 0.46
-10.03 0.16 0.46
-10.26 0.19 0.42
-10.25 0.24 0.42
-10.33 0.26 0.41
-10.16 0.36 0.43
-3.68 0.18 1.52
-3.93 0.23 1.48
-9.98 0.84 0.46
-3.91 1.11 1.45
-3.35 1.12 1.53
-3.46 1.34 1.50
-0.85 -1.04 1.63
-2.63 -1.43 1.32
-2.36 -1.34 1.37
-5.93 -0.71 0.78
-1.96 -0.20 1.45
-6.82 -0.21 0.64
-8.06 -0.16 0.43
-7.88 -0.01 0.46
-9.79 0.01 0.42
-6.85 0.08 0.93
-9.25 0.12 0.51
-7.28 0.13 0.86
-9.96 0.21 0.38
-10.03 0.26 0.37
-9.90 0.33 0.39
-10.06 0.36 0.36
-6.49 0.38 0.99
-9.34 0.61 0.49
-6.82 0.50 0.93
-6.72 0.53 0.95
-6.40 0.76 1.00
-5.48 -0.59 0.79
-5.92 -0.31 0.72
-7.68 -0.23 0.41
-9.91 -0.13 0.40
-9.82 -0.08 0.41
-9.69 -0.06 0.43
-9.06 -0.03 0.54
-9.78 -0.01 0.42
-9.59 0.50 0.36
-6.97 0.40 0.84
-3.90 0.27 1.41
-9.84 0.90 0.30
-3.82 0.38 1.42
-9.77 0.97 0.32
-9.72 1.06 0.32
-3.36 1.02 1.47
-3.64 1.16 1.42
-3.87 1.38 1.36
-3.77 1.41 1.38
-3.86 1.45 1.36
-2.42 -1.27 1.28
-6.71 0.33 0.83
-6.67 0.36 0.84
-6.65 0.39 0.84
-6.77 0.41 0.82
-9.43 0.64 0.30
-7.15 0.58 0.74
-7.53 0.72 0.66
-8.75 0.94 0.42
-9.06 1.01 0.36
-8.64 1.03 0.44
-5.40 0.70 1.07
-5.38 -0.59 0.68
-5.08 -0.53 0.73
-8.75 -0.29 0.44
-8.61 -0.26 0.47
-9.34 -0.26 0.33
-9.50 -0.20 0.30
-9.44 -0.15 0.31
-9.27 -0.10 0.34
-9.17 -0.08 0.36
-1.81 -1.16 1.32
-6.97 0.01 0.65
-6.76 0.24 0.69
-6.74 0.28 0.70
-6.42 0.31 0.77
-6.72 0.36 0.70
-7.18 0.40 0.60
-7.00 0.42 0.64
-5.04 0.36 1.05
-8.20 0.78 0.38
-8.29 1.06 0.35
-8.10 1.05 0.39
-5.44 0.76 0.95
-8.13 1.24 0.38
-5.16 0.85 1.01
-5.25 0.87 0.99
-5.17 0.96 1.00
-5.25 1.22 0.97
-5.54 1.46 0.90
-5.38 -0.92 0.53
-5.40 -0.66 0.53
-5.55 -0.62 0.50
-5.04 -0.53 0.60
-5.19 -0.52 0.57
-5.01 -0.49 0.61
-5.11 -0.48 0.59
-5.09 -0.46 0.59
-5.77 -0.48 0.45
-5.04 -0.42 0.60
-7.05 -0.16 0.64
-6.36 -0.08 0.78
-6.17 -0.02 0.82
-3.71 0.00 0.83
-3.85 0.02 0.79
-6.93 0.18 0.59
-5.90 0.18 0.82
-6.25 0.37 0.74
-3.80 0.29 1.28
-7.85 0.61 0.38
-7.57 0.89 0.43
-7.28 0.95 0.49
-5.15 0.84 0.96
-2.13 1.57 1.52
-4.96 -0.66 0.55
-5.02 -0.61 0.54
-5.06 -0.60 0.53
-4.92 -0.55 0.56
-4.85 -0.48 0.58
-4.47 -0.44 0.66
-4.70 -0.42 0.61
-4.61 -0.40 0.63
-4.96 -0.40 0.55
-4.89 -0.38 0.57
-4.40 -0.33 0.68
-4.68 -0.33 0.62
-4.65 -0.31 0.62
-4.30 -0.22 0.70
-4.45 -0.19 0.67
-4.09 -0.17 0.74
-4.00 -0.09 0.76
-6.73 0.14 0.57
-6.56 0.32 0.60
-6.13 0.31 0.70
-6.87 0.40 0.53
-5.66 0.75 0.79
-5.01 -0.72 0.46
-5.02 -0.70 0.46
-5.19 -0.68 0.42
-5.04 -0.63 0.46
-5.07 -0.62 0.45
-5.07 -0.60 0.45
-5.39 -0.59 0.38
-5.08 -0.53 0.45
-5.17 -0.52 0.43
-5.14 -0.50 0.44
-5.29 -0.47 0.40
-4.17 -0.15 0.66
-3.98 -0.13 0.70
-2.12 1.22 1.42
-2.75 1.67 1.09
-0.93 -1.13 0.49
-1.52 -0.09 0.40
-0.83 -1.41 0.22
-1.62 -0.91 0.25
-0.95 -1.01 0.25
-1.70 -0.82 0.22
-1.39 -0.70 0.20
-1.27 -0.34 0.33
-1.27 -0.17 0.30
