# .PCD v0.7 - Point Cloud Data file format
VERSION 0.7
FIELDS x y z
SIZE 4 4 4
TYPE F F F
COUNT 1 1 1
WIDTH 788
HEIGHT 1
VIEWPOINT 0 0 0 1 0 0 0
POINTS 788
DATA ASCII
-7.78 -1.35 2.58
-7.45 1.61 2.17
-2.90 -0.58 2.17
-8.51 -0.18 2.16
-10.06 0.04 2.11
-10.14 0.01 2.10
-10.08 0.04 2.10
-9.85 0.09 2.10
-2.58 -0.53 2.14
-10.16 -0.06 2.10
-10.11 -0.04 2.10
-10.22 -0.01 2.10
-1.22 -0.19 2.15
-10.01 0.01 2.04
-10.04 0.09 2.04
-10.10 -0.23 1.97
-9.98 0.04 1.98
-10.10 0.06 1.98
-10.17 0.09 1.98
-9.93 0.13 1.98
-10.37 -0.54 1.93
-10.04 -0.33 1.98
-10.28 -0.04 1.98
-9.77 0.01 1.90
-9.83 0.04 1.92
-9.79 0.06 1.92
-9.91 0.09 1.92
-9.75 0.11 1.93
-10.03 -0.30 1.92
-10.34 -0.29 1.91
-10.16 -0.26 1.92
-10.26 -0.06 1.91
-9.61 0.08 1.90
-9.45 0.10 1.91
-10.38 -0.75 1.81
-9.78 0.01 1.85
-9.66 0.04 1.86
-9.86 0.06 1.85
-9.61 0.11 1.86
-9.89 0.16 1.85
-12.74 0.42 1.76
-4.40 1.47 2.02
-7.69 -1.02 1.85
-9.82 -0.25 1.78
-8.44 -0.14 1.78
-9.61 0.06 1.79
-9.84 0.11 1.78
-9.57 0.13 1.79
-8.38 0.99 1.83
-7.89 1.23 1.85
-8.83 -0.23 1.82
-10.23 -0.21 1.76
-9.78 -0.13 1.78
-7.55 -0.61 1.74
-9.31 0.08 1.72
-9.45 0.10 1.71
-9.71 0.13 1.70
-9.64 0.15 1.70
-9.72 0.20 1.70
-8.14 0.27 1.77
-7.97 0.29 1.78
-5.53 1.21 1.89
-2.60 -1.69 1.93
-2.64 -1.66 1.93
-2.76 -1.12 1.93
-2.26 -0.35 1.95
-9.79 -0.86 1.59
-8.04 -0.64 1.67
-7.61 -0.59 1.69
-7.63 -0.56 1.69
-8.01 -0.44 1.78
-8.14 -0.41 1.77
-8.30 -0.40 1.77
-11.33 -0.45 1.62
-10.36 -0.34 1.67
-9.13 -0.19 1.73
-9.32 -0.12 1.72
-9.34 -0.06 1.72
-8.03 -0.04 1.63
-9.33 0.04 1.63
-9.41 0.06 1.62
-9.43 0.15 1.62
-9.87 1.62 1.59
-7.45 -0.69 1.61
-7.90 -0.46 1.58
-7.66 -0.42 1.60
-7.89 -0.41 1.58
-8.66 -0.09 1.67
-9.21 -0.08 1.63
-12.15 0.78 1.40
-7.37 -0.71 1.57
-7.65 -0.54 1.55
-7.92 -0.48 1.54
-7.13 -0.83 1.54
-7.86 -0.77 1.49
-7.16 -0.65 1.53
-7.25 -0.64 1.53
-7.21 -0.59 1.53
-7.48 -0.56 1.51
-7.10 -0.51 1.54
-7.73 -0.52 1.50
-7.46 -0.49 1.51
-7.85 -0.43 1.49
-7.83 -0.41 1.49
-7.96 -0.24 1.63
-7.81 -0.20 1.64
-12.99 -0.27 1.29
-8.83 -0.14 1.57
-8.89 -0.05 1.57
-8.93 -0.03 1.56
-9.11 -0.01 1.55
-7.40 -0.55 1.47
-7.95 -0.51 1.43
-9.13 0.10 1.45
-8.65 0.20 1.48
-2.14 -1.66 1.81
-2.22 -1.68 1.81
-2.20 -1.59 1.81
-2.49 -1.60 1.79
-7.48 -0.82 1.40
-7.00 -0.60 1.44
-4.91 -0.43 1.61
-7.35 -0.55 1.41
-8.64 -0.48 1.48
-8.02 -0.42 1.53
-8.05 -0.40 1.53
-8.24 -0.39 1.52
-8.49 -0.38 1.50
-7.95 -0.34 1.54
-8.15 -0.33 1.52
-8.23 -0.31 1.52
-8.86 -0.31 1.47
-13.68 -0.41 1.09
-8.36 -0.21 1.51
-8.21 -0.17 1.52
-8.78 -0.16 1.47
-8.80 -0.14 1.47
-8.78 -0.12 1.47
-9.00 0.10 1.41
-8.25 0.95 1.46
-1.73 -1.55 1.83
-2.01 -1.57 1.80
-2.22 -1.47 1.79
-9.63 -1.57 1.17
-6.36 -0.68 1.45
-7.46 -0.72 1.36
-7.05 -0.60 1.39
-7.45 -0.53 1.36
-7.64 -0.49 1.34
-7.58 -0.47 1.35
-7.18 -0.43 1.38
-7.50 -0.42 1.35
-7.43 -0.39 1.36
-7.58 -0.25 1.35
-7.09 -0.22 1.39
-6.73 -0.17 1.42
-8.68 0.05 1.38
-9.77 0.44 1.28
-5.37 1.30 1.66
-5.52 1.67 1.63
-2.19 -1.59 1.76
-6.88 -0.79 1.35
-6.88 -0.72 1.35
-6.84 -0.70 1.35
-6.78 -0.60 1.35
-7.08 -0.60 1.33
-6.78 -0.54 1.35
-7.15 -0.54 1.32
-6.90 -0.46 1.34
-13.14 -0.62 0.78
-6.50 -0.29 1.38
-7.15 -0.24 1.32
-6.69 -0.14 1.36
-13.01 -0.11 0.99
-9.35 0.42 1.26
-1.96 -1.58 1.75
-2.08 -1.57 1.74
-2.26 -1.62 1.72
-6.69 -0.77 1.31
-6.70 -0.73 1.31
-6.64 -0.70 1.32
-6.94 -0.70 1.29
-6.95 -0.68 1.29
-6.70 -0.64 1.31
-6.74 -0.60 1.31
-6.41 -0.27 1.34
-7.05 -0.24 1.28
-6.40 -0.06 1.34
-8.87 0.12 1.25
-9.28 0.19 1.21
-6.92 0.16 1.45
-13.06 1.67 0.81
-2.25 -1.67 1.69
-2.14 -1.62 1.70
-2.39 -1.65 1.68
-2.61 -1.41 1.66
-6.64 -0.75 1.26
-6.73 -0.73 1.25
-6.55 -0.70 1.27
-6.33 -0.66 1.29
-6.62 -0.66 1.26
-6.78 -0.65 1.24
-6.56 -0.61 1.27
-5.99 -0.55 1.33
-6.46 -0.54 1.28
-6.34 -0.51 1.29
-7.16 -0.52 1.20
-6.57 -0.44 1.27
-6.49 -0.42 1.27
-6.39 -0.39 1.28
-7.36 -0.41 1.19
-7.49 -0.37 1.17
-7.67 -0.25 1.37
-8.27 -0.25 1.31
-8.80 -0.25 1.26
-8.35 -0.21 1.31
-7.23 -0.17 1.42
-7.11 -0.15 1.43
-8.16 -0.15 1.33
-7.96 -0.13 1.35
-8.23 -0.09 1.32
-7.33 -0.01 1.41
-11.12 0.11 0.71
-6.66 -0.68 1.20
-5.83 -0.50 1.29
-9.13 0.03 1.10
-8.66 0.14 1.15
-8.66 0.16 1.15
-2.26 -1.68 1.62
-2.20 -1.62 1.63
-10.45 -1.31 0.69
-10.54 -1.28 0.69
-10.03 -1.14 0.74
-6.19 -0.73 1.19
-6.53 -0.74 1.15
-6.64 -0.73 1.14
-6.24 -0.55 1.18
-11.36 -0.81 0.59
-8.40 -0.46 1.18
-8.26 -0.44 1.20
-8.67 -0.39 1.15
-15.49 -0.62 0.37
-12.37 -0.46 0.73
-8.20 -0.29 1.21
-8.45 -0.22 1.18
-7.83 -0.14 1.25
-12.35 1.50 0.63
-1.91 -1.63 1.64
-2.15 -1.69 1.61
-2.27 -1.54 1.60
-6.53 -0.78 1.09
-6.21 -0.61 1.13
-6.06 -0.42 1.15
-7.30 -0.39 1.00
-5.82 -0.31 1.18
-7.04 -0.29 1.03
-6.52 -0.25 1.09
-6.15 -0.20 1.14
-6.31 -0.18 1.12
-6.38 -0.16 1.11
-5.84 -0.07 1.17
-5.97 -0.05 1.16
-8.11 0.21 1.10
-7.57 1.08 1.16
-8.35 1.49 1.05
-7.99 1.57 1.09
-7.96 1.58 1.09
-2.05 -1.67 1.58
-2.19 -1.60 1.57
-2.37 -1.52 1.55
-8.69 -1.69 0.74
-10.08 -1.69 0.56
-8.65 -1.23 0.75
-10.46 -1.21 0.52
-10.48 -1.19 0.51
-9.81 -0.98 0.60
-5.32 -0.53 1.18
-6.28 -0.43 1.06
-6.27 -0.41 1.06
-6.15 -0.38 1.07
-6.02 -0.35 1.09
-5.92 -0.33 1.10
-6.40 -0.31 1.04
-5.92 -0.27 1.10
-6.24 -0.26 1.06
-6.17 -0.24 1.07
-5.96 -0.21 1.10
-6.38 -0.18 1.05
-6.50 -0.16 1.03
-6.54 -0.14 1.02
-7.45 -0.08 1.19
-7.56 -0.06 1.17
-8.87 -0.03 1.00
-6.92 0.01 0.91
-6.11 0.03 1.02
-6.69 0.16 0.94
-6.50 0.24 0.96
-7.73 0.47 1.09
-11.56 0.75 0.57
-7.56 0.53 1.11
-11.64 1.27 0.55
-3.86 0.49 1.61
-8.63 1.29 0.95
-8.29 1.37 0.99
-7.34 1.64 1.11
-2.11 -1.67 1.54
-2.14 -1.64 1.54
-2.03 -1.57 1.56
-2.14 -1.59 1.54
-2.30 -1.56 1.52
-2.34 -1.55 1.52
-2.11 -1.46 1.55
-10.59 -1.69 0.40
-10.49 -1.62 0.42
-9.62 -1.48 0.53
-9.49 -1.43 0.55
-9.23 -1.37 0.59
-8.72 -1.26 0.66
-6.35 -0.45 0.99
-6.15 -0.42 1.01
-6.15 -0.40 1.01
-6.11 -0.34 1.02
-6.30 -0.33 0.99
-6.14 -0.28 1.02
-6.63 -0.27 0.95
-6.06 -0.24 1.03
-6.21 -0.22 1.01
-5.80 -0.19 1.06
-6.78 -0.06 0.93
-6.46 -0.04 0.97
-8.50 0.09 0.92
-8.47 0.12 0.92
-7.27 0.19 1.09
-8.16 0.27 0.97
-9.09 0.37 0.83
-9.03 1.60 0.81
-4.31 1.38 1.48
-2.15 -1.67 1.50
-2.14 -1.66 1.50
-2.20 -1.65 1.49
-2.16 -1.63 1.50
-2.36 -1.58 1.48
-2.65 -1.52 1.44
-2.86 -1.55 1.41
-9.93 -1.67 0.40
-10.10 -1.66 0.37
-9.85 -1.60 0.41
-10.10 -1.60 0.37
-4.71 -0.89 1.15
-9.32 -1.44 0.49
-8.37 -1.15 0.62
-6.35 -0.52 0.92
-6.19 -0.49 0.94
-6.21 -0.47 0.94
-6.22 -0.43 0.94
-6.27 -0.41 0.93
-6.14 -0.38 0.95
-6.21 -0.36 0.94
-6.22 -0.34 0.94
-6.10 -0.32 0.95
-6.63 -0.32 0.88
-8.08 -0.27 0.98
-8.15 -0.25 0.97
-7.78 -0.22 1.03
-7.16 -0.19 1.11
-7.34 -0.17 1.09
-7.46 -0.16 1.07
-7.56 -0.14 1.06
-7.69 -0.12 1.04
-7.53 -0.10 1.06
-7.26 -0.08 1.10
-7.49 -0.06 1.07
-7.67 -0.05 1.04
-7.53 -0.03 1.06
-1.34 -1.69 1.58
-1.35 -1.65 1.58
-1.72 -1.46 1.54
-9.64 -1.57 0.35
-9.52 0.04 0.62
-9.77 0.06 0.58
-10.05 0.09 0.54
-9.76 0.11 0.58
-6.80 0.16 1.05
-9.00 0.30 0.70
-9.05 0.32 0.69
-9.09 0.44 0.69
-9.43 0.50 0.63
-8.37 0.73 0.79
-1.51 -1.69 1.52
-1.65 -1.69 1.50
-1.84 -1.68 1.47
-1.82 -1.64 1.48
-1.74 -1.58 1.49
-2.02 -1.68 1.45
-1.96 -1.64 1.46
-1.91 -1.55 1.47
-8.65 -0.46 0.76
-8.62 -0.43 0.77
-7.35 -0.33 0.97
-8.71 -0.35 0.75
-9.04 -0.30 0.70
-11.08 -0.23 0.37
-7.97 -0.15 0.87
-10.06 -0.04 0.54
-6.98 0.00 0.61
-6.81 0.03 0.63
-9.10 0.32 0.61
-9.12 0.35 0.61
-8.20 0.37 0.76
-8.57 0.54 0.70
-3.13 0.21 1.61
-9.38 0.63 0.56
-8.12 0.57 0.77
-9.69 0.72 0.51
-9.52 0.78 0.53
-8.99 0.76 0.62
-8.62 1.36 0.67
-1.41 -1.67 1.51
-1.45 -1.64 1.50
-1.70 -1.63 1.46
-1.88 -1.69 1.43
-1.86 -1.65 1.44
-1.73 -1.58 1.46
-1.69 -1.56 1.47
-1.97 -1.66 1.42
-2.04 -1.66 1.41
-2.13 -1.68 1.39
-1.97 -1.59 1.42
-2.02 -1.59 1.41
-2.16 -1.64 1.39
-2.23 -1.62 1.38
-2.42 -1.65 1.35
-2.21 -1.57 1.39
-2.26 -1.58 1.38
-2.00 -1.46 1.42
-2.39 -1.56 1.36
-2.42 -1.52 1.35
-2.01 -1.38 1.42
-2.31 -1.46 1.37
-2.00 -1.33 1.43
-2.19 -1.22 1.40
-5.02 -0.74 0.94
-4.75 -0.59 0.98
-4.72 -0.57 0.99
-8.70 -0.73 0.32
-8.53 -0.69 0.35
-8.39 -0.63 0.37
-6.25 -0.37 0.73
-6.04 -0.34 0.77
-6.10 -0.32 0.76
-6.10 -0.30 0.76
-6.09 -0.28 0.76
-6.12 -0.26 0.75
-6.19 -0.24 0.74
-6.20 -0.22 0.74
-6.02 -0.20 0.77
-6.52 -0.19 0.68
-6.51 -0.17 0.69
-6.23 -0.14 0.73
-6.99 -0.13 0.61
-7.02 -0.11 0.60
-6.89 -0.08 0.62
-6.97 -0.06 0.61
-6.96 -0.04 0.61
-6.98 -0.02 0.61
-10.12 0.04 0.36
-9.66 0.06 0.44
-9.54 0.13 0.46
-9.38 0.15 0.49
-7.64 0.24 0.79
-8.67 0.33 0.61
-8.58 0.35 0.62
-8.97 0.38 0.56
-8.80 0.40 0.58
-8.45 0.41 0.65
-9.13 0.46 0.53
-9.02 0.48 0.55
-8.96 0.50 0.55
-8.43 0.57 0.65
-8.21 0.58 0.69
-9.49 0.71 0.46
-9.03 0.77 0.54
-8.48 0.89 0.63
-7.81 0.84 0.75
-7.91 1.15 0.72
-8.24 1.24 0.66
-7.59 1.16 0.78
-7.99 1.24 0.71
-8.70 1.39 0.58
-8.08 1.54 0.68
-1.68 -1.66 1.43
-2.24 -1.62 1.34
-4.28 -0.86 1.00
-4.84 -0.84 0.90
-4.94 -0.64 0.89
-4.96 -0.63 0.88
-4.63 -0.58 0.94
-4.64 -0.52 0.94
-4.92 -0.43 0.89
-7.74 -0.53 0.39
-7.85 -0.48 0.38
-6.68 -0.38 0.58
-6.38 -0.35 0.63
-7.26 -0.36 0.48
-7.12 -0.33 0.51
-7.07 -0.31 0.51
-6.62 -0.23 0.59
-6.69 -0.21 0.58
-6.89 -0.19 0.54
-6.42 -0.16 0.63
-6.52 -0.14 0.61
-7.64 -0.10 0.79
-7.87 -0.09 0.75
-7.37 -0.04 0.84
-7.18 0.00 0.41
-7.21 0.03 0.40
-7.09 0.05 0.42
-7.09 0.09 0.42
-7.00 0.12 0.44
-7.24 0.14 0.40
-6.84 0.16 0.47
-7.24 0.24 0.40
-9.15 0.39 0.44
-9.04 0.43 0.46
-8.89 0.45 0.49
-8.92 0.47 0.48
-9.18 0.51 0.44
-9.20 0.53 0.43
-9.24 0.55 0.42
-9.22 0.58 0.43
-9.03 0.79 0.46
-9.36 1.24 0.38
-3.80 1.54 1.36
-3.59 1.63 1.39
-1.37 -1.62 1.45
-1.37 -1.60 1.45
-1.54 -1.65 1.42
-1.49 -1.60 1.43
-1.72 -1.66 1.39
-1.86 -1.63 1.36
-1.77 -1.52 1.38
-1.79 -1.52 1.38
-1.77 -1.49 1.39
-1.74 -1.47 1.39
-1.88 -1.51 1.37
-1.75 -1.43 1.39
-1.77 -1.43 1.39
-2.00 -1.50 1.34
-1.88 -1.42 1.37
-1.95 -1.42 1.36
-1.74 -1.33 1.40
-1.78 -1.31 1.39
-1.82 -1.26 1.39
-2.02 -1.31 1.35
-1.94 -1.27 1.37
-2.07 -1.27 1.34
-2.15 -1.29 1.33
-1.90 -1.14 1.38
-2.12 -1.19 1.33
-4.65 -0.60 0.88
-7.28 -0.36 0.39
-7.52 -0.35 0.35
-7.53 -0.32 0.35
-7.43 -0.30 0.36
-7.10 -0.27 0.42
-7.29 -0.25 0.39
-7.22 -0.20 0.40
-6.72 -0.17 0.49
-6.93 -0.15 0.46
-6.29 -0.10 0.58
-7.21 -0.09 0.40
-7.08 -0.06 0.43
-7.08 -0.02 0.43
-7.37 0.05 0.71
-7.82 0.16 0.62
-9.27 0.24 0.34
-8.00 0.25 0.58
-9.00 0.32 0.39
-9.02 0.37 0.38
-9.10 0.46 0.37
-9.10 0.50 0.37
-9.14 0.55 0.36
-9.10 0.59 0.37
-6.18 0.50 0.93
-8.52 0.85 0.47
-8.75 0.96 0.42
-7.35 0.96 0.69
-7.97 1.20 0.56
-8.78 1.36 0.40
-8.24 1.41 0.50
-7.96 1.48 0.55
-4.23 -0.93 0.89
-4.70 -0.91 0.80
-4.47 -0.85 0.85
-4.91 -0.87 0.76
-5.30 -0.84 0.69
-5.39 -0.81 0.67
-5.18 -0.77 0.71
-4.97 -0.73 0.75
-4.81 -0.68 0.78
-4.97 -0.66 0.75
-7.05 -0.80 0.35
-5.29 -0.62 0.69
-5.24 -0.58 0.70
-5.24 -0.54 0.70
-6.96 -0.62 0.37
-6.59 -0.51 0.44
-5.63 -0.34 0.63
-5.44 -0.29 0.66
-8.06 -0.27 0.57
-8.10 -0.23 0.57
-7.78 -0.18 0.63
-7.80 -0.14 0.62
-7.54 -0.10 0.67
-7.41 -0.06 0.70
-7.75 -0.03 0.63
-2.12 1.41 1.60
-1.62 -1.12 1.36
-3.93 -0.69 0.90
-7.56 0.01 0.53
-8.11 0.03 0.41
-8.15 0.05 0.40
-7.56 0.07 0.53
-7.01 0.08 0.64
-7.62 0.10 0.51
-6.94 0.11 0.66
-7.55 0.14 0.53
-7.97 0.19 0.44
-8.02 0.78 0.41
-7.99 0.80 0.42
-7.73 0.79 0.48
-7.80 0.82 0.46
-8.20 0.88 0.37
-7.84 0.87 0.45
-7.27 0.84 0.57
-8.02 0.97 0.41
-7.28 0.90 0.57
-7.72 0.97 0.47
-7.81 1.04 0.45
-7.72 1.07 0.47
-7.91 1.13 0.43
-7.99 1.24 0.41
-7.91 1.27 0.42
-7.91 1.29 0.42
-7.77 1.29 0.45
-7.77 1.33 0.45
-7.87 1.37 0.43
-7.81 1.38 0.44
-8.05 1.56 0.38
-6.15 1.32 0.78
-5.61 -1.38 0.47
-5.65 -1.34 0.47
-5.55 -1.29 0.49
-5.14 -1.20 0.57
-4.98 -1.12 0.61
-4.69 -1.06 0.67
-4.73 -1.05 0.66
-5.14 -1.10 0.58
-4.77 -1.02 0.66
-4.77 -1.01 0.66
-4.78 -0.99 0.65
-4.85 -0.98 0.64
-5.04 -0.99 0.60
-5.01 -0.97 0.61
-5.04 -0.96 0.60
-4.72 -0.90 0.67
-4.67 -0.87 0.68
-4.72 -0.86 0.67
-5.07 -0.89 0.59
-4.72 -0.83 0.67
-4.82 -0.82 0.65
-4.82 -0.81 0.65
-4.98 -0.81 0.61
-4.89 -0.78 0.63
-5.95 -0.87 0.41
-6.02 -0.86 0.39
-6.05 -0.82 0.39
-5.76 -0.78 0.45
-5.59 -0.74 0.49
-5.46 -0.71 0.51
-5.45 -0.69 0.52
-5.27 -0.66 0.55
-5.33 -0.64 0.54
-5.27 -0.62 0.56
-5.12 -0.59 0.59
-5.66 -0.61 0.47
-4.95 -0.54 0.62
-5.32 -0.55 0.54
-5.95 -0.55 0.41
-5.87 -0.51 0.43
-5.88 -0.49 0.43
-5.99 -0.48 0.40
-8.19 -0.43 0.39
-8.10 -0.39 0.41
-8.03 -0.33 0.43
-8.05 -0.31 0.42
-7.98 -0.28 0.44
-8.01 -0.27 0.43
-7.68 -0.24 0.50
-7.55 -0.21 0.53
-7.93 -0.20 0.45
-8.03 -0.19 0.43
-7.80 -0.16 0.48
-7.93 -0.15 0.45
-8.16 -0.13 0.40
-7.77 -0.11 0.48
-7.72 -0.08 0.49
-7.75 -0.07 0.49
-7.70 -0.05 0.50
-7.86 -0.03 0.46
-7.35 -0.01 0.57
-4.04 0.00 0.75
-7.69 0.07 0.43
-7.38 0.08 0.49
-7.40 0.10 0.49
-7.64 0.12 0.44
-7.63 0.16 0.44
-7.08 0.22 0.56
-5.57 0.30 0.89
-5.93 0.41 0.81
-7.73 0.79 0.40
-7.35 0.92 0.48
-1.98 1.45 1.56
-5.33 -1.25 0.46
-4.99 -1.18 0.54
-4.69 -1.09 0.61
-4.71 -1.05 0.60
-4.75 -1.00 0.60
-4.61 -0.96 0.63
-4.86 -0.98 0.57
-5.27 -1.02 0.48
-5.06 -0.96 0.53
-5.20 -0.95 0.50
-5.02 -0.91 0.54
-5.22 -0.90 0.49
-5.57 -0.91 0.41
-5.57 -0.89 0.41
-4.73 -0.78 0.60
-5.77 -0.87 0.37
-5.69 -0.84 0.39
-5.43 -0.78 0.45
-5.34 -0.73 0.47
-5.60 -0.72 0.41
-4.79 -0.61 0.59
-5.39 -0.64 0.46
-3.59 -0.48 0.86
-4.70 -0.55 0.61
-5.08 -0.57 0.53
-5.47 -0.58 0.44
-5.54 -0.47 0.42
-5.65 -0.30 0.40
-7.15 0.54 0.46
-7.07 0.71 0.47
-7.37 0.76 0.40
-5.19 -1.30 0.41
-5.26 -1.30 0.40
-5.08 -1.23 0.44
-4.96 -1.17 0.47
-5.23 -1.20 0.41
-5.02 -1.15 0.46
-5.01 -1.09 0.46
-4.71 -1.03 0.53
-4.79 -1.03 0.51
-4.94 -1.03 0.48
-5.00 -1.02 0.46
-4.84 -0.98 0.50
-5.20 -1.01 0.42
-5.22 -0.99 0.41
-4.87 -0.93 0.50
-5.10 -0.94 0.44
-5.14 -0.93 0.43
-5.26 -0.93 0.41
-5.28 -0.91 0.40
-5.24 -0.89 0.41
-5.19 -0.72 0.42
-5.28 -0.71 0.40
-5.06 -0.67 0.45
-5.29 -0.66 0.40
-5.33 -0.60 0.39
-5.28 -0.58 0.40
-2.71 1.45 1.21
-1.30 -0.54 0.47
-1.70 -1.20 0.45
-1.64 -0.99 0.46
-2.67 0.89 0.24
-1.92 1.07 0.29
-1.59 -0.75 0.28
-1.70 -0.82 0.25
