# .PCD v0.7 - Point Cloud Data file format
VERSION 0.7
FIELDS x y z
SIZE 4 4 4
TYPE F F F
COUNT 1 1 1
WIDTH 897
HEIGHT 1
VIEWPOINT 0 0 0 1 0 0 0
POINTS 897
DATA ASCII
-11.67 -0.04 2.22
-11.63 0.32 2.15
-1.29 -0.65 2.16
-8.90 -0.50 2.00
-11.47 0.37 1.94
-9.10 -0.26 1.92
-10.82 0.14 1.89
-12.40 -0.56 1.85
-9.50 0.47 1.86
-11.86 -0.32 1.72
-10.11 -0.11 1.84
-11.00 0.09 1.72
-9.41 -0.47 1.71
-9.87 -0.18 1.77
-10.36 -0.04 1.75
-1.07 -1.20 2.03
-12.32 -1.03 1.53
-11.01 0.06 1.63
-4.79 0.10 1.93
-4.49 0.17 1.95
-4.39 0.24 1.95
-3.94 0.94 1.97
-4.23 1.58 1.94
-3.85 -1.48 1.88
-8.42 -0.66 1.66
-9.99 -0.45 1.68
-4.79 -0.12 1.93
-9.36 -0.17 1.71
-10.15 -0.14 1.67
-4.76 -0.03 1.93
-12.55 -0.06 1.39
-4.72 0.17 1.89
-4.13 1.10 1.91
-4.49 1.42 1.89
-3.78 1.49 1.92
-9.29 -0.49 1.51
-3.60 1.41 1.92
-2.31 -0.90 1.89
-1.67 -0.07 1.93
-14.47 -0.14 1.13
-11.16 0.09 1.40
-8.62 0.58 1.57
-4.37 -1.62 1.72
-4.31 -1.59 1.72
-12.31 -1.56 1.19
-12.43 -1.54 1.18
-9.04 -0.51 1.41
-9.17 -0.33 1.54
-9.93 -0.23 1.49
-9.82 -0.11 1.49
-14.96 -0.13 1.14
-4.44 1.14 1.82
-12.21 -1.51 1.12
-4.15 0.14 1.83
-4.38 1.32 1.79
-4.15 1.45 1.81
-3.77 1.50 1.83
-3.91 -1.68 1.68
-4.11 -1.62 1.66
-4.03 -1.59 1.67
-4.30 -1.61 1.65
-4.14 -1.55 1.66
-3.98 -1.40 1.68
-4.23 -1.44 1.66
-11.78 -1.64 1.07
-12.05 -1.64 1.05
-11.85 -1.58 1.06
-12.28 -1.59 1.03
-12.19 -1.55 1.04
-1.45 -0.38 1.88
-9.29 -0.51 1.43
-9.41 -0.50 1.42
-9.64 -0.48 1.40
-9.85 -0.47 1.38
-9.83 -0.42 1.38
-9.29 -0.38 1.43
-9.64 -0.32 1.40
-9.89 -0.30 1.38
-10.79 -0.28 1.31
-9.75 -0.20 1.39
-9.96 -0.14 1.37
-3.70 1.43 1.82
-2.96 1.45 1.88
-2.26 -1.36 1.79
-4.15 -1.69 1.63
-4.29 -1.65 1.62
-4.21 -1.61 1.62
-11.97 -1.66 0.98
-12.13 -1.65 0.97
-11.98 -1.59 0.98
-12.03 -1.57 0.97
-11.89 -1.52 0.99
-12.40 -0.51 0.95
-8.28 0.19 1.41
-5.02 0.28 1.70
-4.78 1.52 1.70
-4.87 1.64 1.69
-4.55 1.64 1.71
-4.06 1.52 1.76
-3.86 1.65 1.77
-3.28 -1.67 1.66
-3.76 -1.67 1.62
-3.84 -1.63 1.61
-3.65 -1.56 1.63
-4.00 -1.64 1.60
-3.76 -1.56 1.62
-3.94 -1.59 1.60
-4.28 -1.66 1.57
-3.90 -1.55 1.61
-4.29 -1.63 1.57
-4.42 -1.65 1.56
-11.65 -1.69 0.92
-10.57 -1.53 1.01
-11.91 -1.66 0.89
-11.90 -1.62 0.89
-11.85 -1.58 0.90
-7.87 -0.41 1.26
-7.95 -0.38 1.25
-7.60 -0.25 1.28
-8.67 -0.08 1.37
-4.06 0.14 1.77
-3.00 -1.67 1.66
-3.09 -1.66 1.65
-3.17 -1.67 1.64
-3.20 -1.67 1.64
-3.56 -1.64 1.60
-3.85 -1.61 1.58
-4.31 -1.60 1.53
-10.13 -1.69 0.98
-10.24 -1.67 0.97
-10.35 -1.66 0.96
-11.61 -1.69 0.84
-11.63 -1.66 0.84
-11.54 -1.61 0.85
-11.73 -1.60 0.83
-11.87 -1.58 0.82
-11.79 -1.54 0.83
-7.05 -0.46 1.28
-7.96 -0.31 1.19
-8.57 0.01 1.28
-7.32 0.03 1.40
-5.26 0.04 1.62
-10.86 0.33 1.04
-4.67 0.18 1.67
-8.62 0.35 1.27
-4.68 0.57 1.67
-6.39 0.84 1.49
-4.48 1.51 1.66
-3.14 -1.67 1.60
-3.27 -1.69 1.59
-3.27 -1.67 1.59
-3.33 -1.67 1.59
-3.16 -1.60 1.60
-3.41 -1.66 1.58
-3.56 -1.68 1.56
-3.65 -1.66 1.55
-3.67 -1.65 1.55
-3.69 -1.64 1.55
-1.49 -1.02 1.78
-4.02 -1.68 1.52
-3.80 -1.61 1.54
-3.82 -1.60 1.54
-3.75 -1.55 1.55
-3.87 -1.56 1.53
-3.76 -1.52 1.55
-3.94 -1.55 1.53
-4.27 -1.61 1.49
-4.09 -1.55 1.51
-3.87 -1.49 1.54
-4.13 -1.53 1.51
-4.02 -1.49 1.52
-3.92 -1.43 1.53
-4.39 -1.52 1.48
-4.27 -1.48 1.50
-4.38 -1.49 1.48
-4.11 -1.37 1.51
-10.03 -1.68 0.91
-10.06 -1.65 0.91
-10.09 -1.63 0.91
-9.97 -1.58 0.92
-10.34 -1.60 0.88
-11.47 -1.67 0.77
-11.68 -1.67 0.74
-11.59 -1.62 0.75
-11.69 -1.60 0.74
-11.78 -1.57 0.73
-11.65 -1.53 0.75
-7.46 -0.79 1.18
-7.86 -0.80 1.14
-7.15 -0.56 1.21
-3.21 -0.30 1.61
-9.41 -0.31 1.19
-8.58 -0.26 1.28
-8.70 -0.25 1.26
-8.06 -0.17 1.33
-9.10 -0.15 1.22
-8.34 -0.12 1.30
-8.28 -0.09 1.31
-8.31 -0.07 1.30
-8.31 -0.05 1.30
-5.17 -0.02 1.62
-15.27 1.05 0.48
-9.95 -1.60 0.84
-11.56 -1.68 0.66
-11.75 -1.67 0.64
-11.76 -1.64 0.64
-11.71 -1.60 0.65
-6.47 -0.50 1.22
-10.72 0.32 0.91
-9.90 0.40 1.00
-8.73 0.37 1.14
-3.61 1.10 1.70
-3.87 1.30 1.67
-4.18 1.40 1.63
-2.78 -1.63 1.57
-3.10 -1.66 1.53
-3.31 -1.68 1.51
-3.01 -1.58 1.54
-3.14 -1.56 1.53
-3.33 -1.60 1.51
-3.29 -1.57 1.51
-3.20 -1.52 1.52
-3.40 -1.56 1.50
-3.61 -1.60 1.48
-3.55 -1.57 1.48
-4.03 -1.68 1.43
-3.68 -1.58 1.47
-3.64 -1.55 1.47
-3.55 -1.51 1.49
-3.75 -1.53 1.46
-4.02 -1.57 1.43
-3.82 -1.49 1.45
-1.83 -1.00 1.69
-3.85 -1.42 1.45
-3.66 -1.36 1.48
-3.85 -1.39 1.45
-3.81 -1.36 1.46
-3.82 -1.35 1.46
-4.04 -1.38 1.43
-3.92 -1.34 1.45
-4.06 -1.36 1.43
-3.88 -1.30 1.45
-4.30 -1.33 1.40
-9.86 -1.66 0.76
-10.01 -1.65 0.75
-9.98 -1.61 0.75
-10.05 -1.59 0.74
-11.58 -1.65 0.57
-11.94 -1.66 0.52
-11.84 -1.62 0.54
-11.81 -1.58 0.54
-11.34 -1.49 0.59
-11.41 -1.37 0.59
-6.98 -0.57 1.10
-8.44 -0.45 1.17
-8.45 -0.43 1.17
-8.25 -0.34 1.20
-8.16 -0.31 1.21
-8.23 -0.29 1.20
-4.01 -0.14 1.69
-8.29 -0.26 1.19
-8.51 -0.24 1.16
-8.47 -0.20 1.17
-8.80 -0.10 1.13
-9.05 -0.08 1.10
-8.59 -0.05 1.16
-8.72 -0.01 1.14
-8.14 0.13 1.15
-8.93 0.29 1.05
-4.47 0.22 1.60
-3.88 1.55 1.63
-2.88 -1.63 1.52
-2.81 -1.59 1.53
-2.76 -1.56 1.54
-3.12 -1.66 1.49
-2.97 -1.57 1.51
-3.16 -1.60 1.49
-3.47 -1.68 1.45
-3.24 -1.60 1.48
-3.27 -1.59 1.48
-3.34 -1.60 1.47
-3.30 -1.57 1.48
-3.23 -1.54 1.48
-3.54 -1.61 1.44
-3.59 -1.61 1.44
-3.54 -1.55 1.45
-3.89 -1.61 1.40
-3.92 -1.60 1.40
-3.74 -1.54 1.42
-3.39 -1.44 1.47
-3.74 -1.51 1.42
-3.83 -1.52 1.41
-3.84 -1.49 1.41
-3.88 -1.44 1.41
-4.06 -1.35 1.39
-10.03 -1.68 0.66
-10.34 -1.69 0.62
-10.38 -1.63 0.62
-10.23 -1.58 0.64
-11.49 -1.67 0.48
-11.31 -1.62 0.51
-11.90 -1.66 0.43
-11.32 -1.52 0.51
-11.39 -1.50 0.50
-11.36 -1.43 0.50
-11.32 -1.39 0.51
-10.81 -1.31 0.57
-7.62 -0.52 0.96
-7.54 -0.46 0.97
-6.94 -0.30 1.04
-8.39 0.01 1.06
-7.69 0.05 1.15
-8.96 0.43 0.98
-3.03 -1.65 1.46
-2.85 -1.58 1.49
-2.83 -1.55 1.49
-3.08 -1.61 1.46
-3.40 -1.69 1.42
-3.34 -1.65 1.43
-3.49 -1.67 1.41
-3.49 -1.66 1.41
-3.42 -1.62 1.42
-3.64 -1.67 1.39
-3.62 -1.65 1.39
-3.65 -1.64 1.39
-3.52 -1.59 1.40
-3.69 -1.62 1.38
-3.78 -1.63 1.37
-3.64 -1.58 1.39
-3.85 -1.62 1.36
-4.16 -1.68 1.32
-4.06 -1.64 1.33
-3.79 -1.56 1.37
-3.62 -1.50 1.39
-3.54 -1.46 1.40
-3.82 -1.52 1.37
-3.65 -1.46 1.39
-3.63 -1.44 1.39
-3.86 -1.48 1.36
-3.69 -1.42 1.39
-4.12 -1.51 1.33
-4.28 -1.53 1.31
-4.25 -1.51 1.31
-3.94 -1.42 1.35
-3.94 -1.41 1.35
-3.99 -1.40 1.35
-4.10 -1.41 1.33
-3.98 -1.37 1.35
-4.20 -1.40 1.32
-4.26 -1.40 1.31
-4.00 -1.33 1.35
-3.95 -1.30 1.36
-4.02 -1.30 1.35
-4.19 -1.32 1.32
-4.22 -1.31 1.32
-4.13 -1.28 1.33
-4.15 -1.26 1.33
-4.26 -1.25 1.32
-4.12 -1.21 1.33
-4.18 -1.20 1.33
-4.00 -1.12 1.35
-4.27 -1.00 1.32
-9.94 -1.67 0.58
-10.23 -1.67 0.54
-11.09 -1.69 0.43
-10.90 -1.64 0.46
-11.14 -1.63 0.43
-11.87 -1.69 0.33
-11.49 -1.61 0.38
-11.61 -1.59 0.37
-11.40 -1.53 0.40
-11.47 -1.51 0.39
-11.26 -1.45 0.41
-11.31 -1.42 0.41
-10.70 -1.33 0.49
-6.08 -0.84 1.09
-10.50 -1.25 0.51
-12.41 -1.18 0.27
-2.89 -0.38 1.50
-7.31 -0.48 0.93
-7.50 -0.46 0.90
-7.36 -0.43 0.92
-7.30 -0.38 0.93
-7.33 -0.36 0.93
-7.20 -0.33 0.94
-7.06 -0.19 0.96
-8.24 0.13 0.73
-8.23 0.16 0.73
-8.35 0.19 0.71
-8.75 0.27 0.95
-10.54 0.37 0.70
-8.84 0.38 0.93
-8.86 0.40 0.93
-8.75 0.46 0.94
-10.15 0.55 0.75
-10.45 1.40 0.70
-3.78 1.31 1.59
-3.00 -1.61 1.43
-3.21 -1.63 1.40
-2.79 -1.49 1.46
-3.02 -1.45 1.43
-3.70 -1.59 1.34
-3.34 -1.48 1.39
-3.88 -1.61 1.31
-3.60 -1.52 1.35
-3.45 -1.47 1.37
-3.77 -1.53 1.33
-3.71 -1.50 1.34
-3.42 -1.42 1.38
-3.74 -1.44 1.33
-4.00 -1.45 1.30
-3.80 -1.39 1.33
-3.84 -1.37 1.32
-3.77 -1.34 1.33
-4.08 -1.31 1.29
-3.92 -1.15 1.32
-10.03 -1.68 0.48
-10.02 -1.64 0.48
-10.37 -1.63 0.44
-10.73 -1.65 0.39
-5.23 -0.94 1.14
-11.38 -1.66 0.30
-11.24 -1.61 0.32
-11.27 -1.58 0.31
-6.25 -0.98 1.00
-11.13 -1.50 0.33
-11.26 -1.48 0.32
-11.26 -1.45 0.32
-10.90 -1.38 0.36
-10.61 -1.32 0.41
-10.57 -1.22 0.41
-10.56 -1.16 0.41
-6.57 -0.72 0.96
-7.22 -0.47 0.87
-7.35 -0.46 0.85
-7.15 -0.40 0.88
-7.30 -0.38 0.86
-7.56 -0.37 0.82
-7.26 -0.34 0.87
-7.27 -0.31 0.86
-7.30 -0.29 0.86
-7.80 -0.28 0.79
-6.92 -0.24 0.91
-7.76 -0.23 0.80
-7.64 -0.21 0.81
-7.16 -0.17 0.88
-7.23 -0.13 0.87
-7.57 -0.02 0.82
-11.27 0.12 0.51
-10.36 0.21 0.64
-10.54 0.29 0.62
-10.49 0.39 0.62
-9.06 0.41 0.83
-4.59 0.32 1.47
-12.55 1.36 0.31
-9.44 1.10 0.76
-9.47 1.25 0.76
-9.34 1.26 0.77
-9.43 1.29 0.76
-3.19 -1.64 1.36
-3.33 -1.67 1.34
-3.30 -1.65 1.34
-3.19 -1.60 1.36
-3.33 -1.60 1.34
-3.33 -1.58 1.34
-3.68 -1.67 1.29
-3.55 -1.61 1.31
-3.48 -1.58 1.32
-3.69 -1.62 1.29
-3.94 -1.66 1.25
-3.75 -1.58 1.28
-4.10 -1.65 1.23
-3.88 -1.58 1.26
-3.55 -1.47 1.31
-3.70 -1.49 1.29
-3.41 -1.40 1.33
-3.63 -1.44 1.30
-3.58 -1.42 1.31
-3.74 -1.44 1.29
-3.90 -1.46 1.26
-3.78 -1.42 1.28
-3.77 -1.40 1.28
-4.06 -1.44 1.24
-3.83 -1.37 1.27
-3.92 -1.37 1.26
-4.17 -1.41 1.22
-3.87 -1.33 1.27
-3.75 -1.29 1.29
-3.90 -1.31 1.27
-3.72 -1.26 1.29
-4.05 -1.31 1.24
-3.91 -1.22 1.27
-4.10 -1.18 1.24
-3.93 -1.13 1.26
-3.98 -1.12 1.26
-4.09 -1.12 1.24
-4.11 -1.11 1.24
-9.67 -1.69 0.43
-9.60 -1.65 0.45
-9.84 -1.65 0.41
-9.89 -1.63 0.40
-10.27 -1.65 0.35
-10.45 -1.61 0.32
-10.47 -1.59 0.32
-10.54 -1.56 0.31
-10.78 -1.56 0.28
-6.27 -0.88 0.93
-6.01 -0.83 0.97
-10.22 -1.16 0.36
-10.54 -1.16 0.32
-5.92 -0.73 0.98
-7.40 -0.46 0.77
-7.40 -0.44 0.77
-7.42 -0.41 0.77
-7.10 -0.38 0.81
-7.24 -0.34 0.79
-8.34 -0.26 0.94
-8.36 -0.24 0.93
-8.71 -0.23 0.88
-8.40 -0.18 0.93
-8.87 -0.17 0.86
-8.92 -0.10 0.85
-9.41 -0.08 0.78
-8.80 -0.06 0.87
-8.63 -0.03 0.89
-8.92 0.20 0.46
-4.41 -1.14 1.15
-8.72 0.12 0.74
-10.93 0.17 0.39
-8.90 0.16 0.71
-10.59 0.24 0.44
-9.07 0.57 0.68
-9.14 1.00 0.66
-9.19 1.03 0.65
-3.73 1.25 1.49
-3.80 1.30 1.48
-3.84 1.46 1.47
-3.49 -1.63 1.22
-3.45 -1.39 1.24
-3.60 -1.39 1.21
-3.56 -1.37 1.22
-3.78 -1.40 1.18
-3.67 -1.29 1.20
-5.42 -0.52 0.93
-9.21 -0.74 0.33
-8.97 -0.64 0.37
-4.61 -0.23 1.40
-8.59 -0.31 0.76
-8.28 -0.28 0.81
-9.34 -0.26 0.64
-8.35 -0.22 0.80
-8.73 -0.21 0.74
-8.98 -0.19 0.70
-9.13 -0.17 0.68
-8.91 -0.04 0.71
-8.99 -0.01 0.70
-8.63 0.01 0.33
-8.40 0.04 0.37
-9.14 0.08 0.60
-9.20 0.10 0.59
-9.30 0.15 0.57
-10.41 0.26 0.39
-9.98 0.35 0.46
-9.98 0.38 0.46
-9.97 0.40 0.46
-10.37 0.44 0.39
-10.28 0.46 0.41
-10.07 0.48 0.44
-10.24 0.51 0.41
-10.21 0.53 0.42
-10.46 0.57 0.37
-9.12 0.61 0.60
-9.08 0.63 0.60
-8.85 0.79 0.64
-9.01 0.85 0.61
-8.91 0.86 0.63
-8.81 0.88 0.65
-9.92 1.06 0.46
-9.42 1.05 0.54
-9.60 1.10 0.51
-9.45 1.10 0.53
-9.53 1.14 0.52
-10.35 1.31 0.38
-9.84 1.34 0.46
-10.06 1.40 0.42
-9.42 1.36 0.53
-9.93 1.60 0.44
-10.02 1.64 0.42
-3.69 0.95 1.49
-3.78 1.04 1.47
-3.99 1.42 1.41
-3.53 1.59 1.47
-1.92 -1.60 1.43
-3.43 -1.64 1.18
-3.49 -1.61 1.18
-3.53 -1.56 1.17
-3.62 -1.57 1.16
-3.30 -1.44 1.21
-3.06 -1.37 1.25
-3.53 -1.47 1.17
-3.29 -1.40 1.22
-3.74 -1.50 1.14
-3.42 -1.40 1.19
-3.33 -1.37 1.21
-3.97 -1.51 1.10
-3.72 -1.43 1.14
-3.80 -1.43 1.13
-3.71 -1.37 1.15
-3.67 -1.33 1.15
-3.49 -1.28 1.19
-3.40 -1.23 1.20
-3.55 -1.25 1.18
-3.50 -1.13 1.19
-5.97 -0.95 0.78
-6.36 -0.89 0.71
-6.24 -0.86 0.73
-6.28 -0.84 0.73
-6.22 -0.81 0.74
-6.69 -0.84 0.66
-6.22 -0.77 0.74
-6.05 -0.74 0.77
-6.08 -0.72 0.76
-6.25 -0.71 0.73
-6.13 -0.68 0.75
-8.33 -0.63 0.39
-7.36 -0.29 0.55
-7.38 -0.27 0.54
-7.55 -0.25 0.51
-7.45 -0.23 0.53
-7.91 -0.21 0.45
-8.73 -0.18 0.32
-7.41 -0.11 0.54
-7.07 -0.08 0.59
-7.25 -0.06 0.56
-7.07 -0.04 0.59
-8.83 -0.02 0.30
-9.36 0.01 0.48
-9.19 0.03 0.51
-9.11 0.05 0.53
-9.49 0.08 0.46
-8.95 0.10 0.56
-8.93 0.12 0.56
-8.86 0.14 0.57
-8.95 0.16 0.56
-8.83 0.18 0.58
-8.94 0.21 0.56
-9.39 0.24 0.48
-10.06 0.40 0.36
-10.21 0.43 0.33
-10.10 0.45 0.35
-10.28 0.49 0.32
-10.23 0.51 0.33
-9.38 0.49 0.48
-8.61 0.54 0.61
-8.84 0.88 0.56
-8.94 0.91 0.54
-9.60 1.03 0.43
-9.32 1.09 0.47
-9.57 1.31 0.42
-9.20 1.33 0.49
-3.56 -1.68 1.11
-3.59 -1.66 1.11
-3.59 -1.64 1.11
-3.61 -1.60 1.10
-3.54 -1.57 1.12
-3.66 -1.58 1.10
-3.47 -1.52 1.13
-3.67 -1.56 1.10
-3.88 -1.60 1.06
-3.48 -1.48 1.13
-3.70 -1.52 1.09
-3.62 -1.47 1.11
-3.41 -1.40 1.15
-3.87 -1.50 1.06
-3.81 -1.47 1.07
-3.79 -1.42 1.08
-3.82 -1.38 1.07
-3.61 -1.28 1.11
-3.48 -1.22 1.14
-3.55 -1.20 1.13
-3.99 -1.25 1.05
-3.83 -1.13 1.08
-6.92 -1.26 0.54
-6.65 -1.18 0.58
-6.89 -1.19 0.54
-5.19 -0.86 0.84
-6.19 -0.96 0.67
-6.02 -0.88 0.70
-6.57 -0.89 0.60
-6.56 -0.87 0.60
-6.67 -0.86 0.59
-6.46 -0.82 0.62
-6.43 -0.79 0.63
-6.43 -0.77 0.63
-6.21 -0.73 0.67
-6.37 -0.72 0.64
-6.24 -0.69 0.66
-6.34 -0.68 0.64
-6.20 -0.63 0.67
-5.97 -0.59 0.71
-5.68 -0.42 0.76
-7.40 -0.30 0.46
-7.27 -0.27 0.48
-7.73 -0.26 0.40
-7.21 -0.22 0.49
-7.50 -0.21 0.44
-7.49 -0.18 0.44
-6.87 -0.15 0.55
-9.30 -0.13 0.49
-8.70 -0.10 0.60
-8.83 -0.08 0.58
-8.77 -0.06 0.59
-9.14 -0.04 0.52
-9.01 -0.01 0.55
-4.97 0.02 0.82
-9.34 0.33 0.40
-8.59 0.45 0.54
-8.24 0.45 0.60
-8.51 0.51 0.55
-9.13 0.98 0.43
-9.54 1.33 0.34
-8.03 1.62 0.61
-3.36 1.30 1.45
-4.21 1.69 1.28
-3.69 1.55 1.38
-3.27 -1.69 1.11
-1.19 -1.02 1.51
-3.51 -1.67 1.07
-3.44 -1.52 1.09
-3.45 -1.41 1.09
-6.79 -1.17 0.48
-6.83 -1.02 0.47
-5.33 -0.84 0.75
-6.46 -0.92 0.54
-6.52 -0.84 0.53
-7.00 -0.86 0.45
-6.65 -0.81 0.51
-6.07 -0.74 0.62
-6.60 -0.76 0.52
-5.81 -0.62 0.67
-7.59 -0.30 0.34
-6.89 -0.15 0.47
-9.23 0.05 0.34
-9.07 0.10 0.37
-9.23 0.19 0.34
-9.07 0.23 0.37
-9.09 0.28 0.37
-6.90 0.25 0.79
-8.02 0.40 0.57
-7.56 0.40 0.66
-7.34 0.41 0.70
-8.87 0.58 0.40
-8.39 0.59 0.50
-8.90 1.02 0.39
-9.03 1.12 0.36
-8.94 1.25 0.37
-4.58 1.63 1.17
-3.75 -1.68 0.97
-3.60 -1.51 1.00
-3.75 -1.53 0.97
-3.56 -1.46 1.01
-3.56 -1.44 1.01
-3.50 -1.41 1.02
-3.43 -1.37 1.04
-3.55 -1.38 1.02
-3.60 -1.33 1.01
-3.90 -1.35 0.95
-6.16 -1.30 0.52
-6.63 -1.20 0.43
-6.52 -1.14 0.45
-6.50 -1.12 0.46
-6.52 -1.10 0.45
-6.39 -1.04 0.48
-5.08 -0.82 0.73
-7.22 -1.02 0.32
-6.38 -0.91 0.48
-6.07 -0.84 0.54
-6.22 -0.82 0.51
-6.48 -0.80 0.46
-6.03 -0.74 0.55
-6.05 -0.72 0.55
-5.64 -0.61 0.63
-7.00 -0.67 0.36
-6.81 -0.56 0.40
-6.59 -0.51 0.44
-6.43 -0.44 0.47
-8.26 -0.19 0.53
-8.17 -0.15 0.55
-9.09 -0.04 0.37
-6.67 -0.55 0.35
-7.54 0.03 0.53
-6.89 0.04 0.66
-6.26 0.07 0.79
-6.67 0.09 0.71
-6.70 0.11 0.70
-6.53 0.12 0.74
-6.39 0.13 0.77
-6.40 0.15 0.76
-6.66 0.17 0.71
-6.48 0.18 0.75
-6.68 0.20 0.71
-6.69 0.22 0.70
-7.04 0.25 0.63
-6.44 0.25 0.75
-7.06 0.29 0.62
-6.85 0.29 0.67
-6.93 0.32 0.65
-7.02 0.34 0.63
-7.37 0.39 0.55
-7.70 0.44 0.49
-7.89 0.48 0.44
-8.03 0.52 0.41
-7.94 0.56 0.43
-6.92 1.00 0.63
-3.42 0.69 1.37
-3.58 0.73 1.34
-3.63 -1.61 0.88
-3.72 -1.62 0.86
-3.66 -1.56 0.88
-3.73 -1.56 0.86
-3.76 -1.55 0.85
-3.74 -1.53 0.86
-3.67 -1.50 0.87
-3.79 -1.51 0.85
-3.81 -1.49 0.85
-3.90 -1.50 0.83
-3.87 -1.47 0.83
-4.65 -1.40 0.68
-5.02 -1.38 0.60
-4.86 -1.25 0.63
-5.94 -1.29 0.41
-6.02 -1.28 0.39
-5.83 -1.23 0.43
-5.92 -1.23 0.41
-5.84 -1.20 0.43
-5.84 -1.16 0.43
-6.04 -1.16 0.39
-4.45 -0.86 0.73
-4.29 -0.79 0.76
-4.40 -0.68 0.74
-5.84 -0.76 0.44
-6.08 -0.76 0.39
-5.66 -0.63 0.47
-5.85 -0.62 0.44
-5.72 -0.56 0.46
-5.88 -0.55 0.43
-5.98 -0.54 0.41
-7.64 -0.43 0.51
-8.08 -0.43 0.41
-7.94 -0.40 0.44
-7.87 -0.38 0.46
-7.84 -0.36 0.46
-7.84 -0.32 0.46
-8.21 -0.31 0.38
-8.00 -0.19 0.43
-6.00 -0.01 0.85
-5.78 0.03 0.37
-6.63 0.09 0.65
-7.35 0.24 0.49
-7.21 0.26 0.52
-7.75 0.45 0.40
-7.42 0.47 0.47
-7.59 0.55 0.43
-3.06 1.69 1.33
-4.77 -1.24 0.59
-2.16 -0.77 1.17
-4.12 -1.05 0.74
-2.17 -0.71 1.17
-2.40 -0.74 1.12
-3.79 -0.92 0.81
-5.79 -1.20 0.36
-5.66 -1.15 0.39
-3.76 -0.66 0.82
-4.24 -0.69 0.71
-4.32 -0.55 0.70
-5.70 -0.59 0.39
-5.14 -1.29 0.43
-5.11 -1.27 0.44
-5.12 -1.25 0.43
-4.42 -0.97 0.60
-5.29 -0.78 0.40
-3.90 -0.49 0.73
-1.30 -1.26 0.61
-3.17 0.42 0.51
-1.25 -0.69 0.48
-2.15 1.24 0.34
-0.95 -1.07 0.26
-0.78 -0.91 0.25
-1.02 -0.98 0.24
-0.70 -0.81 0.25
-0.74 -0.83 0.22
-0.69 -0.55 0.22
-0.70 -0.56 0.21
-0.78 -0.48 0.25
-1.00 -0.68 0.20
-0.77 -0.51 0.22
-0.69 -0.42 0.21
