# .PCD v0.7 - Point Cloud Data file format
VERSION 0.7
FIELDS x y z
SIZE 4 4 4
TYPE F F F
COUNT 1 1 1
WIDTH 2799
HEIGHT 1
VIEWPOINT 0 0 0 1 0 0 0
POINTS 2799
DATA ASCII
-3.01 0.74 2.33
-4.36 1.67 2.37
-4.15 -1.19 2.44
-8.21 -0.23 2.46
-3.19 -0.92 2.34
-4.45 -1.29 2.25
-4.61 -1.04 2.25
-4.23 -1.03 2.21
-4.48 0.03 2.14
-4.47 0.13 2.14
-9.40 0.40 2.10
-4.68 0.22 2.14
-9.61 0.50 2.10
-4.33 -1.49 2.13
-3.93 -1.04 2.13
-4.17 -0.97 2.13
-4.15 -0.95 2.13
-3.65 -0.74 2.14
-2.17 -0.38 2.15
-4.65 -0.08 2.14
-8.92 0.05 2.05
-9.44 0.45 2.05
-8.34 -0.19 2.03
-9.43 0.42 2.02
-9.59 0.46 2.02
-9.64 0.48 2.02
-9.55 0.50 2.02
-9.48 0.54 2.02
-8.38 -0.30 2.01
-9.36 0.08 1.99
-9.32 0.10 1.99
-8.91 0.27 2.00
-9.35 0.35 1.99
-9.49 0.43 1.99
-9.48 0.48 1.99
-9.59 0.50 1.99
-9.93 0.57 1.98
-9.81 0.59 1.98
-9.50 0.62 1.99
-3.46 -1.24 2.07
-4.05 -1.05 2.06
-9.03 -0.23 2.00
-8.56 -0.11 2.01
-9.14 -0.08 2.00
-8.86 0.33 1.93
-9.51 0.47 1.96
-9.60 0.50 1.96
-9.94 0.54 1.95
-9.61 0.55 1.96
-8.03 -1.68 1.95
-8.34 -0.19 1.94
-8.17 -0.04 1.94
-9.27 0.03 1.94
-9.13 0.05 1.94
-4.58 0.04 2.06
-9.25 0.10 1.94
-9.27 0.12 1.94
-8.90 0.16 1.94
-9.42 0.29 1.93
-9.28 0.35 1.93
-9.36 0.38 1.93
-9.69 0.44 1.92
-9.50 0.50 1.93
-10.10 0.70 1.91
-2.21 -1.64 2.06
-4.12 -1.51 2.01
-3.77 -1.38 2.02
-4.20 -0.90 2.01
-4.15 -0.76 2.01
-8.86 -0.27 1.95
-9.15 -0.23 1.94
-8.99 -0.21 1.94
-8.91 -0.19 1.95
-9.08 -0.08 1.94
-9.07 -0.01 1.94
-4.37 0.04 2.05
-9.30 0.10 1.91
-9.23 0.12 1.91
-9.36 0.15 1.90
-9.41 0.20 1.90
-4.63 0.18 2.04
-9.24 0.37 1.91
-9.47 0.41 1.90
-9.48 0.43 1.90
-9.52 0.45 1.90
-9.41 0.47 1.90
-9.44 0.50 1.90
-9.73 0.53 1.89
-7.97 -0.71 1.88
-8.43 -0.22 1.87
-8.94 0.01 1.88
-9.16 0.03 1.87
-9.40 0.08 1.86
-9.37 0.10 1.87
-9.07 0.12 1.88
-9.35 0.15 1.87
-9.28 0.17 1.87
-9.34 0.19 1.87
-9.10 0.21 1.87
-9.45 0.24 1.86
-9.43 0.26 1.86
-9.26 0.28 1.87
-9.53 0.31 1.86
-9.38 0.33 1.86
-9.49 0.36 1.86
-9.36 0.38 1.86
-9.49 0.41 1.86
-9.29 0.42 1.87
-9.47 0.45 1.86
-9.46 0.47 1.86
-9.44 0.50 1.86
-9.81 0.61 1.85
-4.60 -1.63 1.95
-4.22 -1.03 1.97
-8.04 -1.39 1.84
-8.44 -0.22 1.83
-8.16 -0.17 1.84
-8.96 -0.12 1.88
-9.17 -0.08 1.87
-9.10 -0.06 1.87
-9.07 -0.03 1.88
-8.88 -0.01 1.88
-8.74 0.17 1.77
-8.71 0.28 1.77
-8.94 0.31 1.77
-9.23 0.28 1.83
-9.18 0.35 1.84
-9.05 0.36 1.84
-9.41 0.40 1.83
-9.47 0.43 1.82
-9.23 0.46 1.83
-3.84 -0.95 1.95
-8.26 -0.27 1.79
-8.24 -0.24 1.79
-8.26 -0.19 1.79
-8.11 -0.14 1.80
-8.24 -0.12 1.79
-9.20 0.01 1.80
-9.17 0.03 1.80
-9.38 0.06 1.79
-9.27 0.10 1.80
-9.30 0.12 1.79
-9.19 0.15 1.80
-9.25 0.17 1.80
-9.15 0.19 1.80
-9.16 0.21 1.80
-9.14 0.28 1.80
-9.23 0.30 1.80
-9.29 0.33 1.79
-9.39 0.35 1.79
-8.85 0.36 1.81
-9.03 0.39 1.80
-9.02 0.43 1.81
-9.29 0.46 1.79
-9.36 0.49 1.79
-9.29 0.51 1.79
-10.56 0.73 1.74
-4.66 -1.66 1.89
-4.11 -1.10 1.92
-4.21 -0.98 1.91
-4.54 -0.86 1.90
-4.18 -0.80 1.92
-9.23 -0.30 1.80
-8.71 -0.24 1.82
-8.99 -0.23 1.81
-9.35 -0.15 1.79
-9.01 -0.10 1.81
-8.95 -0.08 1.81
-9.08 -0.06 1.80
-8.98 -0.03 1.81
-9.17 -0.01 1.80
-8.90 0.28 1.68
-8.85 0.31 1.68
-8.75 0.33 1.69
-1.95 0.18 1.99
-9.85 0.54 1.64
-9.33 0.47 1.76
-9.26 0.49 1.76
-9.49 0.54 1.75
-9.33 0.79 1.75
-8.26 -0.22 1.71
-8.40 -0.19 1.70
-4.90 0.01 1.93
-4.93 0.02 1.93
-5.18 0.03 1.92
-4.65 0.04 1.94
-4.72 0.05 1.94
-4.53 0.06 1.95
-4.83 0.08 1.93
-4.91 0.09 1.93
-4.47 0.10 1.95
-9.26 0.24 1.72
-5.05 0.15 1.92
-9.20 0.28 1.72
-4.58 0.16 1.95
-4.86 0.18 1.93
-9.38 0.38 1.71
-5.33 0.23 1.91
-9.45 0.45 1.71
-9.43 0.47 1.71
-9.32 0.49 1.71
-4.67 0.28 1.94
-9.72 0.58 1.69
-10.84 0.73 1.64
-10.87 0.75 1.63
-11.14 0.80 1.62
-11.21 0.83 1.62
-11.12 0.85 1.62
-10.88 0.86 1.63
-10.65 0.90 1.64
-11.08 0.99 1.62
-6.10 0.60 1.87
-6.23 0.66 1.86
-6.22 0.74 1.86
-2.04 -1.64 1.96
-2.16 -1.49 1.95
-2.14 -1.37 1.96
-2.10 -1.29 1.96
-2.90 -1.50 1.92
-2.72 -1.44 1.93
-4.07 -1.62 1.86
-2.93 -1.33 1.92
-4.49 -1.69 1.84
-2.27 -1.13 1.95
-4.45 -1.63 1.84
-4.60 -1.65 1.84
-4.42 -1.59 1.84
-4.48 -1.59 1.84
-4.25 -1.50 1.85
-4.44 -1.53 1.84
-3.90 -1.39 1.87
-4.15 -1.43 1.86
-4.55 -1.47 1.84
-4.07 -1.34 1.86
-4.48 -1.37 1.84
-4.35 -1.31 1.85
-4.76 -1.36 1.83
-4.51 -1.29 1.84
-4.33 -1.17 1.85
-4.16 -1.10 1.86
-4.34 -1.11 1.85
-4.12 -1.04 1.86
-4.70 -1.12 1.83
-3.96 -0.99 1.87
-4.10 -1.00 1.86
-3.87 -0.94 1.87
-4.06 -0.96 1.87
-4.15 -0.95 1.86
-4.35 -0.97 1.85
-4.16 -0.92 1.86
-4.24 -0.92 1.86
-3.70 -0.83 1.88
-4.27 -0.88 1.86
-4.07 -0.83 1.86
-3.93 -0.80 1.87
-4.24 -0.82 1.86
-4.56 -0.84 1.84
-3.98 -0.71 1.87
-3.89 -0.69 1.87
-4.17 -0.70 1.86
-3.63 -0.60 1.89
-3.94 -0.62 1.87
-3.92 -0.60 1.87
-3.57 -0.55 1.89
-4.08 -0.58 1.86
-3.69 -0.54 1.88
-3.68 -0.52 1.88
-3.71 -0.49 1.88
-3.63 -0.46 1.89
-3.72 -0.43 1.88
-4.59 -0.40 1.84
-4.75 -0.24 1.94
-4.57 -0.22 1.95
-4.55 -0.21 1.95
-4.78 -0.21 1.94
-4.82 -0.20 1.94
-5.65 -0.22 1.89
-4.48 -0.15 1.95
-4.81 -0.15 1.94
-5.25 -0.15 1.91
-5.51 -0.14 1.90
-4.97 -0.10 1.93
-4.87 -0.09 1.93
-5.31 -0.07 1.91
-5.09 -0.06 1.92
-5.48 -0.05 1.90
-5.05 -0.03 1.92
-5.83 -0.02 1.88
-9.12 -0.01 1.72
-9.20 0.06 1.68
-9.21 0.10 1.68
-9.25 0.12 1.68
-9.29 0.17 1.67
-9.51 0.20 1.66
-4.37 0.12 1.94
-9.63 0.32 1.66
-10.31 0.49 1.62
-10.74 0.56 1.59
-10.81 0.67 1.59
-10.92 0.76 1.58
-11.07 0.82 1.58
-10.55 0.94 1.60
-10.81 1.04 1.59
-3.43 0.63 1.98
-0.32 -1.42 2.03
-0.33 -1.42 2.03
-8.38 -0.32 1.61
-8.56 -0.17 1.60
-5.00 0.01 1.88
-8.96 0.03 1.65
-8.94 0.05 1.65
-9.12 0.08 1.64
-9.36 0.10 1.62
-9.19 0.12 1.63
-9.23 0.15 1.63
-9.34 0.17 1.62
-9.33 0.19 1.63
-9.72 0.22 1.60
-9.54 0.24 1.61
-4.83 0.14 1.89
-9.77 0.30 1.60
-6.40 0.21 1.80
-9.83 0.35 1.60
-9.79 0.37 1.60
-9.80 0.39 1.60
-9.91 0.42 1.59
-9.82 0.47 1.59
-9.88 0.49 1.59
-10.38 0.54 1.56
-10.59 0.58 1.55
-10.68 0.64 1.54
-10.96 0.71 1.53
-10.71 0.72 1.54
-10.67 0.74 1.54
-10.86 0.78 1.53
-10.63 0.79 1.55
-10.82 0.83 1.53
-10.82 0.88 1.53
-10.94 0.92 1.53
-10.65 0.95 1.54
-10.90 1.00 1.53
-10.76 1.09 1.54
-11.08 1.18 1.52
-4.58 -1.65 1.77
-4.67 -1.61 1.77
-4.49 -1.56 1.78
-4.49 -1.34 1.78
-4.19 -1.18 1.80
-3.88 -0.99 1.82
-4.26 -0.86 1.79
-3.99 -0.81 1.81
-4.23 -0.82 1.80
-4.46 -0.63 1.78
-3.40 -0.47 1.84
-7.63 -0.66 1.60
-7.15 -0.56 1.63
-8.36 -0.32 1.56
-4.13 -0.17 1.80
-9.11 -0.10 1.64
-9.15 -0.08 1.64
-5.16 -0.03 1.87
-9.23 -0.03 1.63
-8.96 -0.01 1.65
-13.97 0.21 1.15
-9.86 0.49 1.55
-9.97 0.52 1.54
-10.58 0.58 1.50
-10.83 0.67 1.48
-10.36 0.67 1.51
-10.24 0.68 1.52
-10.96 0.76 1.48
-10.72 0.77 1.49
-10.64 0.79 1.50
-10.69 0.82 1.49
-10.90 0.86 1.48
-10.47 0.85 1.51
-10.51 0.88 1.50
-10.93 0.95 1.48
-11.18 1.13 1.46
-11.22 1.22 1.46
-7.25 -0.61 1.58
-7.40 -0.57 1.57
-8.17 -0.37 1.52
-8.29 -0.32 1.51
-8.97 0.01 1.56
-9.05 0.03 1.55
-9.58 0.06 1.52
-9.44 0.08 1.53
-9.44 0.10 1.53
-8.98 0.14 1.56
-10.46 0.27 1.46
-10.40 0.32 1.46
-10.17 0.33 1.48
-10.45 0.37 1.46
-10.37 0.39 1.46
-10.67 0.43 1.44
-10.37 0.44 1.46
-10.03 0.45 1.48
-10.18 0.48 1.47
-10.12 0.51 1.48
-10.31 0.54 1.46
-10.25 0.56 1.47
-10.23 0.59 1.47
-10.30 0.62 1.46
-10.43 0.65 1.46
-10.44 0.67 1.46
-10.63 0.71 1.44
-10.43 0.73 1.46
-10.58 0.76 1.45
-10.71 0.80 1.44
-10.58 0.81 1.44
-10.69 0.85 1.44
-10.85 0.89 1.43
-10.84 0.96 1.43
-10.82 0.99 1.43
-10.90 1.02 1.42
-10.83 1.04 1.43
-10.62 1.05 1.44
-11.10 1.12 1.41
-11.21 1.19 1.40
-11.38 1.24 1.39
-10.90 1.21 1.42
-10.39 1.18 1.45
-4.46 -1.65 1.71
-4.69 -1.69 1.69
-4.76 -1.58 1.69
-4.43 -1.34 1.72
-4.05 -0.99 1.74
-3.59 -0.74 1.78
-4.20 -0.64 1.73
-7.65 -0.90 1.50
-7.66 -0.83 1.50
-7.61 -0.73 1.50
-7.39 -0.69 1.52
-7.36 -0.67 1.52
-7.34 -0.64 1.52
-7.40 -0.62 1.52
-7.35 -0.60 1.52
-7.29 -0.57 1.53
-7.27 -0.52 1.53
-6.99 -0.48 1.55
-4.19 -0.33 1.73
-8.40 -0.30 1.60
-8.46 -0.28 1.59
-5.08 -0.15 1.82
-4.67 -0.12 1.85
-4.60 -0.11 1.85
-8.93 -0.19 1.56
-8.74 -0.16 1.57
-8.84 -0.14 1.57
-9.04 -0.12 1.55
-9.02 -0.10 1.56
-9.23 -0.08 1.54
-9.17 -0.06 1.55
-8.95 -0.03 1.56
-9.25 -0.01 1.54
-8.66 0.14 1.37
-10.05 0.46 1.27
-9.66 0.47 1.30
-10.17 0.52 1.26
-9.62 0.53 1.30
-9.99 0.58 1.27
-10.44 0.52 1.40
-10.79 0.56 1.37
-10.33 0.56 1.41
-10.50 0.60 1.39
-10.57 0.63 1.39
-10.31 0.64 1.41
-10.33 0.67 1.41
-10.14 0.68 1.42
-10.25 0.71 1.41
-10.36 0.74 1.40
-10.45 0.78 1.40
-10.62 0.81 1.38
-10.67 0.84 1.38
-10.87 0.88 1.37
-10.84 0.91 1.37
-10.91 0.94 1.36
-11.20 0.99 1.34
-10.96 1.00 1.36
-10.77 1.01 1.37
-11.20 1.08 1.34
-11.09 1.09 1.35
-11.06 1.12 1.35
-1.50 -0.55 1.90
-11.47 -1.01 1.17
-11.54 -0.98 1.16
-11.46 -0.84 1.17
-11.13 -0.69 1.19
-7.83 -0.45 1.43
-8.10 -0.44 1.41
-8.26 -0.29 1.40
-7.95 -0.24 1.43
-7.61 -0.11 1.45
-4.47 0.01 1.81
-6.16 0.02 1.68
-4.57 0.03 1.80
-4.62 0.04 1.80
-4.43 0.05 1.81
-8.63 0.12 1.48
-4.56 0.08 1.80
-9.66 0.18 1.40
-9.66 0.22 1.40
-4.47 0.12 1.81
-10.47 0.29 1.34
-10.27 0.34 1.35
-4.67 0.17 1.79
-10.36 0.39 1.35
-10.11 0.41 1.36
-10.23 0.44 1.36
-10.06 0.45 1.37
-10.29 0.49 1.35
-10.04 0.50 1.37
-10.28 0.54 1.35
-10.12 0.56 1.36
-10.57 0.60 1.33
-10.27 0.61 1.35
-10.19 0.63 1.36
-10.43 0.67 1.34
-10.56 0.71 1.33
-10.36 0.72 1.34
-10.62 0.76 1.32
-10.85 0.81 1.30
-10.97 0.84 1.29
-10.76 0.85 1.31
-10.96 0.90 1.29
-11.04 0.93 1.29
-10.92 0.95 1.30
-10.81 0.96 1.31
-11.05 1.01 1.29
-11.03 1.04 1.29
-10.81 1.04 1.30
-11.07 1.09 1.28
-11.14 1.16 1.28
-10.98 1.17 1.29
-10.55 1.23 1.32
-10.41 1.24 1.33
-11.19 1.38 1.27
-10.78 1.36 1.30
-10.58 1.42 1.32
-10.40 1.42 1.33
-10.30 1.46 1.34
-4.69 0.71 1.78
-9.95 1.51 1.37
-10.02 1.59 1.36
-10.49 1.69 1.32
-10.10 1.66 1.35
-6.17 1.65 1.65
-1.68 -1.45 1.85
-2.27 -1.34 1.81
-2.27 -1.25 1.81
-4.77 -1.69 1.61
-4.62 -1.59 1.62
-4.77 -1.60 1.61
-4.74 -1.56 1.61
-2.27 -1.01 1.81
-4.25 -1.41 1.65
-4.20 -1.31 1.66
-4.05 -1.27 1.67
-4.39 -1.32 1.64
-4.26 -1.28 1.65
-4.34 -1.24 1.65
-3.89 -1.11 1.68
-4.05 -1.11 1.67
-3.77 -1.05 1.69
-2.98 -0.90 1.76
-3.96 -1.05 1.68
-3.86 -1.02 1.69
-3.49 -0.92 1.72
-4.32 -1.03 1.65
-3.10 -0.83 1.75
-4.08 -0.96 1.67
-3.79 -0.90 1.69
-3.80 -0.87 1.69
-7.54 -1.35 1.40
-4.00 -0.86 1.68
-4.09 -0.85 1.67
-3.95 -0.82 1.68
-7.47 -1.15 1.40
-4.12 -0.75 1.67
-7.37 -0.97 1.41
-7.38 -0.95 1.41
-7.34 -0.90 1.41
-7.51 -0.82 1.40
-7.25 -0.77 1.42
-7.38 -0.74 1.41
-7.18 -0.70 1.43
-6.96 -0.66 1.44
-7.06 -0.65 1.44
-6.79 -0.56 1.46
-11.43 -0.81 1.09
-10.80 -0.74 1.14
-8.16 -0.45 1.52
-4.93 -0.26 1.78
-8.02 -0.40 1.53
-8.29 -0.31 1.51
-5.09 -0.18 1.76
-4.86 -0.15 1.78
-8.61 -0.24 1.49
-8.33 -0.21 1.51
-8.52 -0.20 1.49
-4.44 -0.09 1.81
-8.99 -0.16 1.46
-8.99 -0.14 1.46
-4.27 -0.06 1.83
-8.98 -0.10 1.46
-4.95 -0.04 1.77
-4.13 -0.03 1.84
-4.73 -0.02 1.79
-4.55 -0.00 1.80
-9.06 0.08 1.40
-10.68 0.12 1.27
-14.38 0.22 0.96
-4.40 0.08 1.79
-9.86 0.23 1.34
-14.47 0.37 0.95
-10.31 0.29 1.30
-9.98 0.35 1.32
-10.01 0.38 1.32
-9.83 0.39 1.34
-10.01 0.43 1.32
-10.32 0.49 1.30
-10.20 0.51 1.31
-10.55 0.58 1.28
-10.74 0.61 1.26
-10.48 0.62 1.28
-10.75 0.67 1.26
-10.52 0.68 1.28
-10.52 0.70 1.28
-10.70 0.74 1.26
-11.20 0.83 1.22
-11.28 0.86 1.21
-11.06 0.87 1.23
-10.95 0.89 1.24
-10.80 0.91 1.25
-10.82 0.94 1.25
-11.31 1.00 1.21
-11.53 1.08 1.19
-11.26 1.08 1.21
-11.47 1.16 1.19
-11.54 1.19 1.19
-4.49 0.49 1.78
-10.62 1.21 1.26
-10.30 1.22 1.29
-10.24 1.32 1.29
-10.14 1.36 1.30
-10.41 1.42 1.28
-10.23 1.44 1.29
-10.24 1.65 1.29
-4.85 -1.63 1.57
-3.54 -0.93 1.68
-3.79 -0.93 1.66
-4.64 -0.55 1.59
-6.96 -0.68 1.40
-7.12 -0.65 1.38
-4.74 -0.40 1.58
-11.06 -0.72 1.05
-7.14 -0.49 1.38
-7.30 -0.48 1.37
-7.34 -0.46 1.37
-7.39 -0.43 1.36
-7.46 -0.41 1.36
-3.48 -0.23 1.69
-7.41 -0.36 1.36
-7.52 -0.35 1.35
-7.71 -0.33 1.33
-7.23 -0.29 1.38
-7.84 -0.28 1.32
-8.53 0.01 1.39
-8.76 0.03 1.37
-4.82 0.03 1.73
-4.85 0.04 1.72
-8.69 0.09 1.38
-9.58 0.15 1.30
-4.64 0.09 1.74
-9.20 0.19 1.33
-9.26 0.21 1.32
-9.44 0.24 1.31
-9.75 0.27 1.28
-5.11 0.17 1.70
-10.04 0.35 1.25
-9.95 0.38 1.26
-10.03 0.40 1.25
-10.16 0.43 1.24
-10.13 0.46 1.24
-10.22 0.48 1.24
-10.36 0.52 1.22
-10.28 0.56 1.23
-10.49 0.60 1.21
-10.54 0.63 1.21
-10.63 0.66 1.20
-10.92 0.70 1.17
-10.89 0.73 1.17
-10.85 0.78 1.18
-10.90 0.81 1.17
-10.88 0.83 1.17
-10.99 0.87 1.16
-10.76 0.88 1.18
-10.72 0.90 1.19
-11.06 0.96 1.16
-11.04 0.98 1.16
-10.31 0.97 1.22
-10.82 1.04 1.18
-10.54 1.04 1.20
-11.99 1.21 1.07
-11.93 1.24 1.07
-11.98 1.27 1.07
-11.84 1.31 1.08
-10.41 1.18 1.21
-11.73 1.36 1.09
-10.21 1.21 1.23
-10.32 1.25 1.22
-10.48 1.30 1.20
-10.48 1.32 1.20
-10.52 1.35 1.20
-10.30 1.38 1.22
-10.12 1.38 1.23
-10.10 1.43 1.24
-10.20 1.47 1.23
-9.87 1.45 1.25
-9.96 1.56 1.25
-10.27 1.66 1.22
-9.87 1.64 1.25
-2.41 -1.41 1.74
-4.46 -1.69 1.55
-4.50 -1.66 1.55
-4.57 -1.56 1.54
-4.69 -1.50 1.54
-4.30 -1.35 1.57
-4.41 -1.35 1.56
-4.30 -1.32 1.57
-3.90 -1.22 1.61
-3.90 -1.18 1.61
-3.62 -1.11 1.63
-3.37 -1.04 1.66
-4.36 -1.20 1.57
-3.87 -1.09 1.61
-3.94 -1.06 1.61
-3.64 -1.00 1.63
-3.95 -1.00 1.61
-4.35 -1.05 1.57
-4.18 -0.99 1.59
-4.14 -0.97 1.59
-4.47 -1.00 1.56
-2.97 -0.77 1.69
-4.24 -0.93 1.58
-4.20 -0.91 1.58
-3.80 -0.84 1.62
-4.29 -0.89 1.58
-4.26 -0.74 1.58
-4.30 -0.73 1.58
-7.38 -1.04 1.30
-4.47 -0.70 1.56
-4.43 -0.68 1.56
-7.74 -0.98 1.27
-7.59 -0.94 1.28
-4.20 -0.59 1.58
-4.59 -0.61 1.55
-7.11 -0.76 1.32
-4.76 -0.56 1.53
-7.14 -0.67 1.32
-6.80 -0.58 1.35
-3.44 -0.36 1.65
-4.72 -0.38 1.54
-7.01 -0.49 1.33
-4.59 -0.34 1.55
-7.35 -0.46 1.30
-4.87 -0.32 1.52
-7.24 -0.41 1.31
-3.77 -0.25 1.62
-3.34 -0.22 1.66
-4.01 -0.22 1.60
-7.32 -0.32 1.30
-7.30 -0.29 1.31
-7.47 -0.27 1.29
-7.38 -0.25 1.30
-7.75 -0.23 1.27
-7.48 -0.20 1.29
-7.61 -0.18 1.28
-7.53 -0.16 1.28
-8.96 -0.12 1.35
-9.10 -0.10 1.34
-9.11 -0.06 1.34
-9.07 -0.03 1.34
-4.40 -0.00 1.76
-13.38 0.02 0.67
-8.46 0.04 1.14
-14.27 0.10 0.59
-9.31 0.15 1.06
-9.16 0.20 1.07
-1.26 0.07 1.83
-9.11 0.26 1.08
-9.47 0.30 1.04
-9.74 0.27 1.23
-10.09 0.31 1.19
-10.04 0.33 1.20
-9.81 0.35 1.22
-9.94 0.37 1.21
-10.11 0.41 1.19
-10.02 0.43 1.20
-10.16 0.46 1.18
-10.34 0.49 1.17
-10.15 0.51 1.19
-10.03 0.52 1.20
-10.16 0.56 1.18
-10.44 0.60 1.16
-10.45 0.62 1.16
-10.33 0.64 1.17
-10.69 0.69 1.13
-10.89 0.73 1.11
-10.84 0.75 1.12
-11.11 0.80 1.09
-11.23 0.83 1.08
-11.12 0.85 1.09
-11.08 0.88 1.09
-10.83 0.88 1.12
-10.75 0.90 1.12
-10.73 0.93 1.13
-11.15 0.99 1.09
-11.29 1.03 1.07
-11.30 1.06 1.07
-10.37 1.00 1.16
-11.84 1.17 1.02
-12.15 1.23 0.99
-12.06 1.25 0.99
-12.27 1.30 0.97
-10.42 1.13 1.15
-10.46 1.16 1.15
-10.50 1.19 1.14
-10.16 1.18 1.18
-10.20 1.21 1.17
-10.02 1.21 1.19
-10.47 1.29 1.15
-10.35 1.30 1.16
-10.20 1.39 1.17
-10.50 1.45 1.14
-10.38 1.46 1.15
-9.88 1.42 1.20
-10.17 1.49 1.17
-10.02 1.49 1.18
-9.85 1.49 1.20
-10.15 1.58 1.17
-10.35 1.64 1.15
-1.88 -1.31 1.76
-1.93 -1.10 1.76
-3.15 -1.16 1.65
-3.92 -1.25 1.57
-3.13 -0.92 1.65
-3.24 -0.91 1.64
-4.26 -1.03 1.54
-2.91 -0.81 1.67
-3.99 -0.96 1.57
-2.51 -0.70 1.71
-3.30 -0.77 1.63
-7.27 -1.19 1.25
-7.49 -1.08 1.23
-4.29 -0.63 1.54
-11.73 -1.20 0.83
-11.42 -1.14 0.86
-11.57 -1.12 0.84
-6.87 -0.68 1.29
-6.75 -0.65 1.31
-6.92 -0.59 1.29
-6.65 -0.53 1.32
-7.40 -0.55 1.24
-7.24 -0.52 1.26
-4.82 -0.37 1.49
-5.14 -0.37 1.46
-6.20 -0.40 1.36
-7.33 -0.43 1.25
-7.48 -0.41 1.24
-7.05 -0.37 1.28
-7.31 -0.36 1.25
-7.09 -0.33 1.27
-7.27 -0.31 1.26
-7.46 -0.30 1.24
-7.47 -0.27 1.24
-7.30 -0.25 1.25
-7.02 -0.22 1.28
-7.26 -0.20 1.26
-7.40 -0.18 1.24
-7.50 -0.16 1.23
-7.56 -0.13 1.23
-7.53 -0.11 1.23
-7.49 -0.08 1.23
-7.88 -0.06 1.20
-7.65 -0.01 1.22
-8.60 0.01 1.28
-8.89 0.03 1.25
-4.70 0.03 1.68
-8.63 0.07 1.28
-9.26 0.10 1.21
-9.30 0.12 1.21
-5.43 0.09 1.60
-9.28 0.17 1.21
-4.86 0.10 1.66
-9.56 0.22 1.18
-5.21 0.14 1.62
-9.89 0.28 1.15
-9.92 0.30 1.14
-9.94 0.33 1.14
-9.76 0.34 1.16
-9.90 0.37 1.14
-9.86 0.40 1.15
-10.02 0.43 1.13
-9.95 0.45 1.14
-10.17 0.48 1.12
-10.31 0.51 1.10
-10.20 0.53 1.11
-10.40 0.57 1.09
-10.54 0.60 1.08
-4.89 0.30 1.65
-10.74 0.67 1.06
-11.01 0.71 1.03
-10.72 0.72 1.06
-10.74 0.74 1.06
-10.90 0.78 1.04
-11.08 0.82 1.02
-11.19 0.86 1.01
-11.19 0.88 1.01
-11.17 0.91 1.01
-10.99 0.92 1.03
-11.34 0.98 0.99
-11.30 1.00 1.00
-10.66 0.98 1.06
-11.16 1.05 1.01
-10.10 0.98 1.12
-10.53 1.04 1.07
-12.03 1.21 0.92
-12.42 1.28 0.88
-12.07 1.28 0.91
-10.68 1.16 1.06
-10.33 1.15 1.09
-10.26 1.17 1.10
-10.10 1.18 1.11
-10.33 1.23 1.09
-4.53 0.57 1.69
-5.89 0.74 1.55
-10.17 1.29 1.10
-10.38 1.34 1.08
-10.02 1.32 1.12
-10.20 1.39 1.10
-9.97 1.38 1.12
-9.78 1.38 1.14
-10.13 1.46 1.11
-9.84 1.44 1.14
-9.49 1.42 1.17
-9.61 1.50 1.16
-9.65 1.54 1.15
-10.44 1.68 1.07
-4.27 0.81 1.71
-1.67 -1.52 1.75
-2.00 -1.62 1.71
-2.34 -1.45 1.68
-2.12 -1.37 1.71
-2.46 -1.46 1.67
-4.29 -1.69 1.49
-4.41 -1.69 1.47
-4.49 -1.63 1.47
-4.31 -1.52 1.49
-4.45 -1.53 1.47
-4.68 -1.53 1.45
-4.59 -1.49 1.46
-4.28 -1.41 1.49
-4.35 -1.41 1.48
-3.92 -1.31 1.53
-3.86 -1.28 1.53
-4.23 -1.32 1.50
-4.23 -1.29 1.50
-3.70 -1.17 1.55
-4.12 -1.23 1.51
-4.26 -1.23 1.49
-3.62 -1.08 1.56
-4.36 -1.20 1.49
-3.84 -1.08 1.54
-4.02 -1.07 1.52
-4.09 -1.02 1.51
-7.22 -1.44 1.19
-3.86 -0.93 1.54
-7.24 -1.40 1.19
-3.95 -0.91 1.53
-3.71 -0.86 1.55
-4.37 -0.94 1.49
-4.51 -0.94 1.47
-7.29 -1.29 1.19
-4.23 -0.84 1.50
-6.73 -1.11 1.25
-4.45 -0.80 1.48
-5.16 -0.81 1.41
-5.88 -0.86 1.33
-4.96 -0.75 1.43
-6.06 -0.84 1.32
-5.14 -0.73 1.41
-4.69 -0.67 1.45
-6.61 -0.79 1.26
-6.30 -0.74 1.29
-6.77 -0.76 1.24
-6.65 -0.68 1.26
-4.96 -0.52 1.43
-7.21 -0.63 1.20
-7.58 -0.63 1.16
-7.31 -0.59 1.19
-7.02 -0.55 1.22
-6.95 -0.53 1.23
-4.72 -0.39 1.45
-6.55 -0.46 1.27
-7.20 -0.47 1.20
-4.84 -0.34 1.44
-7.81 -0.45 1.14
-7.14 -0.40 1.21
-6.81 -0.34 1.24
-4.38 -0.16 1.71
-4.55 -0.15 1.69
-8.27 -0.25 1.31
-4.74 -0.14 1.67
-8.48 -0.22 1.29
-8.52 -0.20 1.29
-8.43 -0.18 1.30
-8.53 -0.16 1.29
-8.39 -0.13 1.30
-8.55 -0.12 1.29
-5.53 -0.06 1.59
-4.52 -0.04 1.70
-8.47 -0.05 1.29
-8.69 -0.03 1.27
-8.68 -0.01 1.27
-13.26 0.13 0.48
-8.99 0.15 0.94
-9.07 0.17 0.93
-8.97 0.20 0.94
-9.71 0.45 0.86
-9.99 0.49 0.83
-10.24 0.59 0.80
-10.33 0.51 1.03
-10.12 0.53 1.05
-10.97 0.60 0.96
-10.98 0.62 0.96
-10.68 0.63 0.99
-10.53 0.65 1.01
-10.83 0.70 0.98
-11.15 0.74 0.94
-10.88 0.75 0.97
-11.13 0.80 0.94
-11.20 0.83 0.93
-11.36 0.87 0.92
-11.25 0.89 0.93
-11.43 0.93 0.91
-11.21 0.94 0.93
-11.48 0.99 0.90
-11.18 0.99 0.93
-11.14 1.07 0.94
-11.25 1.11 0.92
-11.33 1.14 0.91
-11.35 1.17 0.91
-10.07 1.07 1.05
-10.14 1.13 1.04
-10.18 1.16 1.04
-10.43 1.24 1.01
-12.32 1.51 0.80
-9.85 1.27 1.07
-9.53 1.27 1.11
-3.32 0.85 1.78
-0.35 -0.91 1.88
-5.90 -0.55 1.28
-7.61 -0.56 1.09
-7.33 -0.46 1.12
-7.44 -0.30 1.11
-7.73 -0.18 1.08
-8.09 -0.04 1.04
-7.82 -0.02 1.07
-8.73 0.01 1.15
-8.73 0.03 1.15
-4.08 0.03 1.68
-9.23 0.08 1.09
-9.13 0.10 1.10
-9.62 0.13 1.04
-9.60 0.15 1.04
-9.71 0.18 1.03
-9.79 0.20 1.02
-9.64 0.22 1.04
-9.95 0.25 1.00
-9.94 0.28 1.00
-10.02 0.30 0.99
-10.01 0.33 1.00
-9.86 0.35 1.01
-10.33 0.39 0.96
-10.24 0.41 0.97
-10.06 0.43 0.99
-11.15 0.50 0.86
-4.41 0.22 1.64
-10.73 0.53 0.91
-4.39 0.24 1.64
-11.31 0.62 0.84
-11.12 0.63 0.87
-11.00 0.66 0.88
-10.64 0.66 0.92
-10.66 0.69 0.92
-10.71 0.72 0.91
-11.03 0.76 0.87
-10.83 0.78 0.90
-10.97 0.81 0.88
-10.91 0.84 0.89
-11.44 0.90 0.83
-11.07 0.90 0.87
-10.97 0.92 0.88
-9.08 0.79 1.10
-10.85 0.97 0.89
-11.30 1.03 0.84
-11.02 1.04 0.87
-10.86 1.05 0.89
-10.54 1.04 0.93
-10.12 1.03 0.97
-10.40 1.08 0.94
-11.20 1.19 0.85
-9.90 1.08 1.00
-11.30 1.26 0.83
-10.39 1.18 0.94
-9.96 1.16 0.99
-9.94 1.18 0.99
-9.54 1.16 1.04
-9.79 1.21 1.01
-9.77 1.24 1.01
-9.70 1.25 1.02
-9.56 1.26 1.03
-9.76 1.31 1.01
-9.73 1.33 1.01
-9.56 1.33 1.03
-9.61 1.36 1.03
-9.87 1.42 1.00
-9.54 1.45 1.03
-10.18 1.59 0.96
-10.03 1.59 0.97
-10.45 1.69 0.92
-4.08 0.83 1.66
-1.62 -1.46 1.70
-2.28 -1.32 1.63
-2.10 -1.21 1.65
-2.24 -1.14 1.64
-4.51 -1.53 1.37
-1.77 -0.67 1.70
-4.73 -1.06 1.35
-4.43 -1.00 1.39
-5.92 -0.91 1.22
-6.66 -0.95 1.13
-6.79 -0.94 1.12
-6.50 -0.89 1.15
-6.43 -0.86 1.16
-6.67 -0.86 1.13
-6.64 -0.84 1.13
-6.51 -0.80 1.15
-6.52 -0.78 1.15
-6.11 -0.68 1.20
-6.41 -0.69 1.16
-6.07 -0.64 1.20
-6.82 -0.65 1.11
-6.91 -0.64 1.10
-6.45 -0.52 1.16
-11.96 -0.62 0.77
-12.24 -0.61 0.74
-12.20 -0.58 0.75
-8.10 -0.37 1.22
-7.57 -0.33 1.28
-7.73 -0.31 1.26
-3.75 -0.15 1.72
-8.00 -0.29 1.23
-7.93 -0.26 1.24
-8.15 -0.25 1.21
-8.16 -0.23 1.21
-8.33 -0.21 1.19
-8.28 -0.19 1.20
-8.39 -0.17 1.19
-8.32 -0.15 1.19
-8.48 -0.14 1.18
-8.26 -0.11 1.20
-8.53 -0.09 1.17
-8.42 -0.07 1.18
-8.50 -0.05 1.17
-8.76 -0.03 1.14
-8.75 -0.01 1.14
-8.54 0.04 0.84
-8.99 0.05 1.06
-9.19 0.08 1.03
-8.59 0.09 1.10
-9.69 0.13 0.97
-9.94 0.16 0.94
-9.49 0.17 0.99
-9.77 0.20 0.96
-9.88 0.23 0.95
-9.94 0.25 0.94
-9.76 0.27 0.96
-9.94 0.30 0.94
-9.85 0.32 0.95
-9.89 0.35 0.94
-10.25 0.38 0.90
-10.37 0.41 0.88
-10.33 0.44 0.89
-10.33 0.46 0.89
-10.54 0.50 0.86
-11.41 0.57 0.76
-11.10 0.58 0.79
-10.78 0.59 0.83
-10.83 0.62 0.83
-10.63 0.63 0.85
-10.49 0.65 0.87
-10.59 0.68 0.85
-10.34 0.69 0.88
-10.89 0.75 0.82
-10.83 0.78 0.82
-10.85 0.80 0.82
-10.91 0.83 0.81
-10.91 0.86 0.81
-11.05 0.90 0.80
-10.97 0.92 0.80
-10.90 0.94 0.81
-10.53 0.94 0.86
-10.33 0.94 0.88
-10.60 1.00 0.85
-10.06 0.97 0.91
-10.34 1.02 0.88
-10.36 1.05 0.88
-10.08 1.05 0.91
-10.65 1.13 0.84
-10.99 1.19 0.80
-10.87 1.21 0.81
-11.29 1.28 0.76
-11.54 1.34 0.73
-9.84 1.17 0.94
-9.60 1.16 0.97
-9.83 1.22 0.94
-9.65 1.22 0.96
-9.78 1.26 0.94
-9.80 1.29 0.94
-9.60 1.28 0.96
-9.85 1.37 0.93
-9.79 1.38 0.94
-9.73 1.40 0.95
-9.64 1.41 0.96
-9.55 1.42 0.97
-9.73 1.47 0.94
-9.74 1.50 0.94
-9.73 1.52 0.94
-10.22 1.62 0.88
-9.86 1.64 0.92
-2.56 1.33 1.79
-2.11 -1.35 1.62
-0.89 -0.94 1.77
-0.73 -0.89 1.79
-4.41 -1.04 1.34
-6.00 -1.02 1.15
-6.31 -0.99 1.11
-7.24 -1.07 1.00
-6.28 -0.92 1.12
-6.06 -0.88 1.15
-6.54 -0.91 1.09
-6.29 -0.84 1.12
-6.62 -0.85 1.08
-6.15 -0.79 1.13
-6.67 -0.79 1.07
-6.55 -0.76 1.09
-6.73 -0.75 1.06
-6.56 -0.70 1.09
-6.71 -0.69 1.07
-6.79 -0.67 1.06
-4.91 -0.50 1.29
-5.67 -0.53 1.19
-7.42 -0.62 0.98
-7.20 -0.56 1.01
-7.19 -0.54 1.01
-7.06 -0.51 1.02
-7.10 -0.47 1.02
-7.43 -0.46 0.98
-7.08 -0.42 1.02
-6.96 -0.37 1.04
-6.92 -0.35 1.04
-6.35 -0.31 1.11
-12.66 -0.45 0.34
-6.66 -0.23 1.07
-6.43 -0.18 1.10
-6.73 -0.17 1.06
-13.28 -0.25 0.27
-13.50 -0.13 0.24
-8.36 -0.01 0.86
-9.52 0.01 0.92
-5.14 0.02 1.49
-9.42 0.06 0.93
-9.36 0.08 0.94
-9.29 0.10 0.95
-9.31 0.12 0.95
-9.36 0.15 0.94
-9.26 0.17 0.95
-9.70 0.20 0.90
-9.59 0.22 0.91
-9.43 0.24 0.93
-9.52 0.27 0.92
-9.53 0.29 0.92
-9.83 0.32 0.88
-10.03 0.35 0.85
-9.75 0.37 0.89
-9.93 0.40 0.86
-9.92 0.42 0.86
-10.13 0.46 0.84
-10.29 0.49 0.82
-9.99 0.50 0.85
-10.60 0.55 0.78
-10.73 0.59 0.76
-11.02 0.63 0.72
-10.50 0.62 0.79
-10.25 0.64 0.82
-10.37 0.67 0.80
-10.20 0.68 0.83
-10.29 0.71 0.81
-10.68 0.77 0.76
-10.62 0.79 0.77
-10.34 0.79 0.80
-10.36 0.82 0.80
-10.53 0.86 0.78
-10.75 0.90 0.75
-10.49 0.91 0.78
-10.40 0.93 0.80
-10.40 0.95 0.79
-10.27 0.96 0.81
-10.36 1.00 0.80
-10.44 1.03 0.79
-10.61 1.08 0.77
-10.84 1.12 0.74
-9.77 1.04 0.87
-5.75 0.64 1.40
-10.88 1.21 0.73
-11.31 1.28 0.67
-6.20 0.73 1.34
-9.96 1.18 0.85
-9.77 1.18 0.87
-9.64 1.20 0.89
-9.89 1.25 0.85
-10.04 1.29 0.83
-10.37 1.36 0.79
-10.50 1.40 0.77
-9.98 1.36 0.84
-9.59 1.33 0.89
-9.38 1.33 0.92
-9.62 1.41 0.89
-9.67 1.46 0.88
-9.65 1.49 0.88
-10.08 1.62 0.82
-1.88 -1.58 1.60
-2.46 -1.58 1.53
-2.05 -1.42 1.59
-2.04 -1.38 1.59
-0.78 -0.90 1.76
-2.72 -1.42 1.50
-2.56 -1.35 1.53
-4.52 -1.65 1.27
-4.48 -1.59 1.28
-4.14 -1.49 1.32
-4.58 -1.53 1.26
-4.33 -1.45 1.30
-4.02 -1.28 1.34
-3.75 -1.19 1.38
-4.04 -1.23 1.34
-4.42 -1.26 1.29
-4.40 -1.02 1.30
-7.23 -1.42 0.93
-6.03 -1.14 1.08
-6.07 -1.09 1.08
-6.12 -1.07 1.07
-6.56 -1.11 1.02
-6.36 -1.06 1.04
-6.22 -1.02 1.06
-6.19 -1.00 1.07
-6.16 -0.97 1.07
-6.00 -0.94 1.09
-5.87 -0.90 1.11
-6.53 -0.95 1.02
-6.56 -0.93 1.02
-5.91 -0.85 1.10
-6.00 -0.84 1.09
-5.98 -0.81 1.09
-6.00 -0.80 1.09
-6.13 -0.79 1.07
-6.14 -0.77 1.07
-6.28 -0.76 1.05
-6.31 -0.74 1.05
-6.42 -0.73 1.04
-6.42 -0.71 1.04
-6.66 -0.71 1.01
-6.57 -0.68 1.02
-6.71 -0.67 1.00
-7.07 -0.67 0.95
-7.06 -0.65 0.95
-6.91 -0.61 0.97
-7.01 -0.60 0.96
-7.01 -0.58 0.96
-4.42 -0.40 1.30
-7.14 -0.54 0.94
-7.03 -0.51 0.96
-6.78 -0.47 0.99
-4.20 -0.33 1.32
-6.66 -0.42 1.01
-6.53 -0.40 1.02
-6.40 -0.37 1.04
-6.55 -0.36 1.02
-6.19 -0.32 1.07
-6.43 -0.31 1.04
-6.18 -0.28 1.07
-5.99 -0.25 1.09
-6.33 -0.24 1.05
-5.99 -0.21 1.09
-7.71 -0.23 0.87
-3.75 -0.11 1.38
-6.71 -0.14 1.00
-8.34 -0.11 1.07
-8.30 -0.09 1.08
-8.50 -0.07 1.05
-8.53 -0.05 1.05
-8.70 -0.03 1.03
-8.65 -0.01 1.03
-8.27 0.01 0.72
-8.56 0.04 0.68
-8.91 0.06 0.63
-8.49 0.09 0.69
-8.62 0.12 0.67
-8.52 0.14 0.69
-8.38 0.16 0.70
-8.30 0.19 0.72
-8.42 0.22 0.70
-8.76 0.25 0.65
-8.71 0.28 0.66
-8.71 0.30 0.66
-9.72 0.29 0.82
-9.51 0.31 0.85
-9.85 0.37 0.80
-9.53 0.40 0.85
-9.76 0.44 0.81
-9.88 0.47 0.80
-10.28 0.51 0.74
-10.15 0.53 0.76
-10.23 0.58 0.75
-10.34 0.64 0.73
-10.22 0.66 0.75
-10.09 0.67 0.77
-9.59 0.67 0.83
-9.83 0.71 0.80
-9.49 0.73 0.85
-10.32 0.84 0.73
-10.31 0.87 0.73
-10.58 0.91 0.70
-10.72 0.95 0.68
-10.44 0.95 0.71
-10.23 0.99 0.74
-10.24 1.04 0.74
-5.40 0.57 1.40
-10.80 1.15 0.66
-10.46 1.14 0.71
-5.11 0.58 1.44
-9.66 1.12 0.82
-10.02 1.21 0.76
-10.16 1.26 0.75
-10.32 1.30 0.72
-10.43 1.34 0.71
-10.23 1.34 0.73
-9.92 1.35 0.78
-9.70 1.37 0.80
-9.81 1.41 0.79
-9.65 1.41 0.81
-9.88 1.47 0.78
-9.66 1.46 0.81
-9.70 1.52 0.80
-9.81 1.63 0.78
-1.87 -1.41 1.58
-1.92 -1.26 1.58
-2.73 -1.36 1.47
-2.31 -1.23 1.53
-2.17 -0.93 1.55
-3.79 -1.17 1.33
-6.65 -1.49 0.94
-2.45 -0.75 1.51
-7.38 -1.44 0.84
-4.90 -1.04 1.18
-9.79 -1.68 0.51
-6.32 -1.10 0.99
-1.76 -0.52 1.61
-6.20 -1.04 1.00
-6.70 -1.08 0.93
-6.10 -0.99 1.02
-6.33 -0.99 0.98
-6.02 -0.94 1.03
-5.87 -0.90 1.05
-6.21 -0.92 1.00
-6.16 -0.89 1.01
-6.29 -0.88 0.99
-5.96 -0.83 1.04
-5.85 -0.80 1.05
-6.05 -0.80 1.02
-5.75 -0.75 1.07
-5.82 -0.74 1.06
-6.36 -0.77 0.98
-6.19 -0.73 1.01
-6.43 -0.73 0.97
-6.35 -0.70 0.98
-6.38 -0.68 0.98
-6.59 -0.68 0.95
-6.60 -0.66 0.95
-6.86 -0.63 0.91
-6.85 -0.61 0.92
-6.99 -0.60 0.90
-6.83 -0.56 0.92
-7.32 -0.57 0.85
-7.10 -0.54 0.88
-6.95 -0.50 0.90
-6.57 -0.46 0.95
-6.85 -0.46 0.92
-7.06 -0.44 0.89
-6.36 -0.39 0.98
-6.60 -0.38 0.95
-6.59 -0.36 0.95
-6.40 -0.33 0.98
-10.47 -0.45 0.42
-6.07 -0.26 1.02
-5.88 -0.23 1.05
-3.39 -0.15 1.39
-7.65 -0.21 0.81
-6.00 -0.15 1.03
-7.98 -0.16 0.76
-7.53 -0.13 0.82
-8.25 -0.07 0.72
-8.72 -0.04 0.66
-8.40 -0.02 0.70
-9.24 0.01 0.81
-9.24 0.03 0.81
-9.27 0.05 0.81
-9.20 0.08 0.82
-9.33 0.10 0.80
-9.35 0.12 0.80
-9.43 0.15 0.79
-9.29 0.17 0.81
-9.51 0.20 0.77
-9.27 0.21 0.81
-9.40 0.24 0.79
-9.57 0.27 0.76
-9.23 0.28 0.81
-9.38 0.31 0.79
-9.40 0.33 0.79
-9.52 0.36 0.77
-9.56 0.38 0.77
-9.40 0.40 0.79
-9.87 0.44 0.72
-9.59 0.46 0.76
-9.82 0.49 0.73
-9.75 0.51 0.74
-9.66 0.53 0.75
-9.67 0.55 0.75
-9.49 0.57 0.77
-9.44 0.59 0.78
-9.45 0.61 0.78
-9.79 0.66 0.73
-9.24 0.64 0.81
-10.29 0.74 0.66
-10.31 0.77 0.65
-10.26 0.81 0.66
-10.25 0.84 0.66
-10.25 0.86 0.66
-10.14 0.88 0.67
-10.47 0.93 0.63
-10.29 0.94 0.65
-10.55 0.99 0.61
-10.47 1.01 0.62
-10.61 1.05 0.60
-10.62 1.08 0.60
-10.62 1.10 0.60
-10.80 1.15 0.57
-11.09 1.21 0.53
-11.25 1.25 0.51
-6.21 0.72 1.24
-10.43 1.21 0.63
-6.28 0.76 1.23
-10.15 1.23 0.67
-10.35 1.28 0.64
-10.18 1.29 0.66
-10.08 1.30 0.67
-10.12 1.33 0.67
-9.74 1.30 0.72
-10.00 1.36 0.68
-9.83 1.37 0.71
-9.76 1.38 0.72
-9.45 1.36 0.76
-9.56 1.40 0.74
-9.65 1.44 0.73
-9.46 1.43 0.76
-9.69 1.49 0.72
-9.55 1.50 0.74
-9.55 1.54 0.74
-9.72 1.59 0.72
-2.17 -1.43 1.50
-2.63 -1.49 1.43
-2.59 -1.14 1.45
-2.92 -1.16 1.40
-4.12 -1.33 1.23
-4.03 -1.30 1.24
-4.09 -1.26 1.23
-4.07 -1.21 1.24
-3.21 -1.04 1.36
-7.23 -1.58 0.78
-7.20 -1.56 0.78
-4.61 -1.04 1.16
-6.88 -1.33 0.83
-7.16 -1.25 0.79
-7.15 -1.23 0.80
-5.05 -0.94 1.10
-5.06 -0.92 1.10
-7.10 -1.13 0.80
-7.01 -1.07 0.82
-6.51 -0.97 0.89
-6.97 -1.00 0.82
-5.91 -0.87 0.98
-6.10 -0.87 0.95
-6.71 -0.91 0.86
-6.35 -0.85 0.91
-6.36 -0.83 0.91
-6.02 -0.78 0.96
-6.38 -0.79 0.91
-6.56 -0.79 0.88
-6.29 -0.74 0.92
-6.32 -0.72 0.92
-6.31 -0.70 0.92
-2.68 -0.40 1.44
-6.31 -0.66 0.92
-6.30 -0.64 0.92
-6.36 -0.62 0.91
-6.40 -0.60 0.91
-6.49 -0.59 0.89
-6.57 -0.57 0.88
-7.06 -0.58 0.81
-6.97 -0.55 0.83
-7.00 -0.53 0.82
-6.91 -0.50 0.83
-6.83 -0.48 0.85
-6.85 -0.46 0.84
-6.86 -0.44 0.84
-6.37 -0.39 0.91
-6.44 -0.37 0.90
-6.67 -0.36 0.87
-6.42 -0.33 0.91
-6.77 -0.32 0.86
-8.01 -0.27 0.99
-8.01 -0.25 0.99
-8.18 -0.23 0.97
-8.12 -0.21 0.98
-8.43 -0.20 0.93
-8.33 -0.18 0.95
-8.61 -0.16 0.91
-8.28 -0.13 0.95
-8.41 -0.11 0.93
-8.49 -0.09 0.92
-8.58 -0.07 0.91
-8.78 -0.06 0.88
-5.48 -0.02 1.36
-8.87 -0.01 0.87
-9.05 0.15 0.44
-8.95 0.25 0.45
-9.72 0.53 0.67
-9.79 0.56 0.65
-10.56 1.02 0.53
-11.66 1.26 0.36
-11.55 1.28 0.38
-11.47 1.33 0.39
-11.31 1.36 0.41
-11.44 1.41 0.39
-10.44 1.34 0.54
-10.79 1.41 0.49
-9.94 1.35 0.62
-10.39 1.46 0.55
-5.78 -0.75 0.94
-4.19 -0.53 1.18
-7.10 -0.72 0.74
-7.19 -0.33 0.72
-8.25 0.01 0.82
-8.48 0.03 0.79
-9.47 0.06 0.63
-9.56 0.08 0.61
-9.48 0.10 0.63
-9.60 0.13 0.61
-9.79 0.15 0.58
-9.65 0.17 0.60
-10.14 0.21 0.52
-9.95 0.23 0.55
-10.03 0.25 0.54
-9.76 0.27 0.58
-9.53 0.29 0.62
-9.90 0.32 0.56
-9.11 0.32 0.68
-9.23 0.35 0.66
-9.11 0.37 0.68
-9.07 0.39 0.69
-9.43 0.42 0.63
-9.36 0.44 0.64
-9.12 0.46 0.68
-9.24 0.48 0.66
-9.42 0.52 0.63
-9.39 0.54 0.64
-9.30 0.56 0.65
-6.85 0.60 1.04
-10.71 0.98 0.42
-5.92 0.57 1.19
-10.89 1.13 0.39
-6.96 0.75 1.02
-9.85 1.22 0.55
-10.13 1.28 0.50
-9.99 1.29 0.53
-10.17 1.34 0.50
-10.34 1.38 0.47
-10.70 1.46 0.41
-10.36 1.44 0.46
-10.35 1.46 0.46
-10.30 1.48 0.47
-10.09 1.48 0.50
-10.19 1.52 0.49
-9.79 1.48 0.55
-9.47 1.49 0.60
-9.64 1.54 0.57
-9.49 1.54 0.60
-9.66 1.59 0.57
-9.81 1.63 0.54
-9.68 1.64 0.56
-3.09 1.15 1.60
-1.70 -1.39 1.50
-2.55 -1.33 1.37
-3.87 -1.51 1.16
-7.06 -1.26 0.66
-7.27 -1.17 0.63
-7.40 -1.17 0.61
-7.61 -1.17 0.57
-7.55 -1.11 0.58
-7.51 -1.08 0.59
-7.16 -1.02 0.65
-7.41 -1.02 0.61
-6.93 -0.95 0.68
-6.93 -0.93 0.68
-6.99 -0.91 0.67
-6.37 -0.81 0.77
-6.39 -0.79 0.77
-6.17 -0.75 0.81
-6.34 -0.75 0.78
-6.42 -0.73 0.77
-6.62 -0.73 0.73
-6.52 -0.68 0.75
-6.58 -0.66 0.74
-6.54 -0.63 0.75
-6.65 -0.62 0.73
-6.62 -0.60 0.73
-6.31 -0.56 0.78
-6.30 -0.53 0.79
-6.91 -0.55 0.69
-6.83 -0.52 0.70
-7.22 -0.52 0.64
-7.38 -0.39 0.96
-7.56 -0.38 0.94
-7.88 -0.38 0.89
-8.00 -0.36 0.87
-7.90 -0.34 0.88
-7.91 -0.32 0.88
-7.96 -0.30 0.87
-8.10 -0.29 0.85
-8.15 -0.27 0.84
-8.20 -0.25 0.83
-8.39 -0.24 0.80
-8.26 -0.21 0.82
-8.29 -0.19 0.82
-8.28 -0.17 0.82
-8.31 -0.07 0.82
-8.34 -0.05 0.81
-8.23 -0.03 0.83
-8.09 -0.01 0.85
-6.49 0.01 0.68
-6.22 0.03 0.73
-5.95 0.05 0.77
-8.39 0.07 0.73
-10.17 0.11 0.44
-8.45 0.11 0.72
-9.73 0.15 0.51
-8.35 0.15 0.74
-9.72 0.20 0.51
-9.85 0.25 0.49
-9.11 0.25 0.61
-9.56 0.29 0.54
-9.82 0.32 0.49
-9.02 0.32 0.63
-8.98 0.34 0.63
-8.76 0.35 0.67
-9.18 0.39 0.60
-9.67 0.43 0.52
-9.34 0.44 0.57
-9.34 0.47 0.57
-9.33 0.49 0.57
-8.90 0.49 0.64
-9.06 0.52 0.62
-9.19 0.55 0.60
-9.37 0.58 0.56
-8.96 0.58 0.63
-6.75 0.49 1.00
-4.63 0.35 1.36
-4.63 0.37 1.36
-5.13 0.42 1.28
-6.71 0.55 1.01
-6.80 0.58 0.99
-4.61 0.41 1.36
-7.04 0.63 0.95
-4.43 0.42 1.39
-6.14 0.59 1.10
-6.23 0.61 1.09
-6.22 0.62 1.09
-6.06 0.62 1.12
-9.30 0.97 0.57
-4.26 0.50 1.42
-9.70 1.13 0.50
-10.38 1.23 0.38
-9.93 1.20 0.46
-10.45 1.29 0.37
-9.72 1.23 0.49
-10.01 1.29 0.44
-9.94 1.30 0.45
-10.03 1.34 0.44
-9.91 1.35 0.46
-10.42 1.44 0.37
-10.48 1.48 0.36
-10.49 1.50 0.36
-10.08 1.47 0.42
-10.35 1.54 0.38
-9.64 1.46 0.50
-9.68 1.49 0.49
-9.68 1.51 0.49
-9.56 1.52 0.51
-9.53 1.54 0.51
-9.62 1.58 0.50
-9.74 1.62 0.48
-9.63 1.63 0.49
-7.25 1.35 0.89
-3.56 0.83 1.52
-1.26 -1.65 1.53
-1.48 -1.52 1.50
-1.35 -1.45 1.52
-1.58 -1.47 1.49
-1.64 -1.47 1.48
-1.68 -1.41 1.47
-2.24 -1.34 1.38
-2.52 -1.38 1.34
-2.87 -1.46 1.28
-2.51 -1.35 1.34
-2.49 -1.32 1.34
-2.57 -1.32 1.33
-2.69 -1.34 1.31
-2.40 -1.12 1.36
-2.82 -1.15 1.29
-6.31 -1.60 0.70
-3.84 -1.09 1.13
-7.27 -1.40 0.55
-7.04 -1.35 0.59
-7.37 -1.28 0.53
-7.20 -1.23 0.56
-7.52 -1.25 0.51
-7.28 -1.19 0.55
-7.03 -1.14 0.59
-7.08 -1.12 0.58
-6.95 -1.09 0.61
-7.41 -1.12 0.53
-3.04 -0.61 1.26
-7.07 -1.03 0.59
-7.10 -1.01 0.58
-6.90 -0.97 0.62
-7.02 -0.96 0.60
-7.31 -0.97 0.55
-7.28 -0.94 0.55
-6.49 -0.80 0.69
-6.25 -0.76 0.73
-4.37 -0.58 1.04
-6.34 -0.72 0.71
-5.52 -0.64 0.85
-6.30 -0.68 0.72
-6.37 -0.66 0.71
-6.35 -0.64 0.71
-6.36 -0.62 0.71
-6.40 -0.60 0.70
-6.50 -0.59 0.68
-6.57 -0.57 0.67
-6.43 -0.54 0.70
-6.50 -0.52 0.68
-6.28 -0.49 0.72
-4.08 -0.35 1.09
-6.31 -0.45 0.72
-6.47 -0.44 0.69
-6.47 -0.42 0.69
-6.49 -0.40 0.69
-6.56 -0.38 0.67
-6.77 -0.36 0.64
-6.38 -0.33 0.71
-6.30 -0.30 0.72
-5.76 -0.27 0.81
-5.90 -0.25 0.79
-5.79 -0.23 0.80
-6.09 -0.22 0.75
-6.62 -0.21 0.66
-5.35 -0.16 0.88
-5.86 -0.15 0.79
-6.18 -0.14 0.74
-2.65 -0.07 1.33
-6.96 -0.10 0.61
-6.46 -0.08 0.69
-6.36 -0.06 0.71
-7.16 -0.04 0.57
-6.93 -0.01 0.61
-8.79 0.01 0.59
-8.38 0.03 0.66
-8.32 0.05 0.67
-8.26 0.07 0.68
-8.26 0.09 0.68
-8.28 0.11 0.68
-8.31 0.13 0.68
-9.86 0.18 0.40
-9.59 0.22 0.45
-9.59 0.24 0.45
-9.73 0.27 0.43
-8.72 0.26 0.60
-9.54 0.31 0.46
-8.49 0.30 0.64
-8.22 0.31 0.69
-9.45 0.38 0.47
-9.61 0.41 0.44
-9.35 0.42 0.49
-9.48 0.45 0.47
-9.42 0.47 0.48
-9.00 0.47 0.55
-9.00 0.49 0.55
-4.99 0.29 1.26
-8.96 0.54 0.56
-6.10 0.39 1.06
-9.00 0.58 0.55
-6.63 0.45 0.97
-6.57 0.46 0.98
-8.52 0.62 0.63
-6.86 0.52 0.92
-4.70 0.37 1.30
-8.12 0.65 0.70
-7.93 0.65 0.73
-7.95 0.67 0.73
-7.82 0.68 0.75
-7.79 0.70 0.76
-7.90 0.73 0.74
-7.22 0.69 0.86
-7.06 0.69 0.88
-8.27 0.82 0.67
-7.10 0.73 0.88
-6.68 0.70 0.95
-7.32 0.82 0.84
-9.02 1.05 0.53
-9.89 1.20 0.38
-6.39 0.84 1.00
-9.98 1.31 0.36
-9.94 1.33 0.37
-10.05 1.37 0.35
-10.28 1.45 0.30
-9.92 1.53 0.36
-9.41 1.47 0.45
-9.66 1.54 0.41
-7.21 1.18 0.84
-9.54 1.57 0.43
-7.17 1.22 0.85
-6.60 1.18 0.95
-3.30 -1.47 1.16
-2.87 -1.20 1.24
-3.93 -1.32 1.05
-4.07 -1.33 1.03
-4.10 -1.32 1.02
-4.30 -1.33 0.99
-3.91 -1.24 1.06
-4.15 -1.27 1.01
-3.95 -1.22 1.05
-3.66 -1.13 1.10
-6.55 -1.65 0.59
-4.09 -1.18 1.03
-4.09 -1.17 1.02
-3.95 -1.11 1.05
-4.04 -1.11 1.04
-3.97 -1.08 1.05
-7.05 -1.51 0.50
-4.23 -1.05 1.00
-7.26 -1.43 0.47
-3.79 -0.90 1.08
-3.69 -0.87 1.10
-7.70 -1.37 0.39
-7.21 -1.26 0.48
-7.47 -1.27 0.43
-7.35 -1.23 0.45
-7.20 -1.19 0.48
-6.96 -1.13 0.52
-7.18 -1.14 0.49
-7.39 -1.14 0.45
-7.24 -1.10 0.48
-7.22 -1.07 0.48
-7.23 -1.05 0.48
-6.70 -0.97 0.57
-6.68 -0.95 0.58
-6.88 -0.92 0.54
-6.61 -0.88 0.59
-6.26 -0.82 0.65
-5.87 -0.77 0.72
-6.30 -0.78 0.64
-5.93 -0.73 0.71
-6.07 -0.72 0.68
-5.76 -0.68 0.74
-5.86 -0.67 0.72
-7.20 -0.75 0.49
-6.24 -0.65 0.66
-5.90 -0.61 0.71
-6.19 -0.61 0.66
-6.27 -0.59 0.65
-6.23 -0.57 0.66
-6.46 -0.56 0.62
-6.26 -0.53 0.65
-6.25 -0.51 0.65
-6.00 -0.48 0.70
-6.07 -0.46 0.69
-6.29 -0.45 0.65
-6.39 -0.43 0.63
-6.48 -0.42 0.61
-6.35 -0.39 0.64
-6.19 -0.36 0.66
-6.11 -0.34 0.68
-5.99 -0.31 0.70
-6.00 -0.29 0.70
-5.93 -0.27 0.71
-5.95 -0.25 0.71
-5.76 -0.23 0.74
-5.71 -0.21 0.75
-5.47 -0.18 0.79
-5.92 -0.17 0.71
-5.69 -0.15 0.75
-6.06 -0.13 0.69
-8.17 -0.11 0.70
-8.35 -0.09 0.67
-8.17 -0.07 0.70
-8.36 -0.05 0.67
-8.53 -0.03 0.64
-8.54 -0.01 0.64
-6.31 0.01 0.57
-6.51 0.03 0.53
-6.21 0.05 0.58
-6.62 0.07 0.51
-2.96 0.05 1.18
-6.20 0.11 0.58
-6.15 0.13 0.59
-4.52 0.12 0.89
-5.91 0.17 0.64
-6.70 0.20 0.49
-2.79 0.13 1.21
-6.49 0.24 0.53
-8.39 0.28 0.59
-4.37 0.17 1.33
-7.54 0.30 0.74
-8.32 0.35 0.60
-4.44 0.21 1.32
-4.52 0.24 1.30
-4.56 0.26 1.29
-4.57 0.27 1.29
-4.29 0.26 1.34
-4.74 0.30 1.26
-4.62 0.32 1.28
-4.47 0.32 1.31
-4.86 0.37 1.23
-4.33 0.34 1.33
-4.21 0.35 1.35
-4.57 0.38 1.29
-4.26 0.37 1.34
-4.07 0.38 1.38
-4.34 0.42 1.33
-4.01 0.40 1.39
-6.77 0.68 0.87
-4.16 0.44 1.36
-4.04 0.45 1.38
-3.91 0.44 1.41
-4.23 0.50 1.34
-4.04 0.49 1.38
-4.05 0.50 1.38
-4.51 0.57 1.29
-4.28 0.55 1.33
-4.11 0.54 1.36
-4.28 0.60 1.33
-4.15 0.61 1.36
-3.83 0.60 1.41
-3.67 0.60 1.44
-9.51 1.53 0.35
-9.59 1.57 0.33
-3.80 0.88 1.41
-3.35 0.89 1.48
-0.81 -1.55 1.55
-1.61 -1.63 1.40
-1.56 -1.40 1.42
-2.07 -1.42 1.33
-0.99 -1.06 1.54
-1.19 -1.10 1.50
-2.04 -1.28 1.34
-1.92 -1.23 1.36
-2.05 -1.26 1.34
-1.95 -1.13 1.36
-2.57 -1.20 1.25
-3.97 -1.30 0.99
-4.05 -1.28 0.97
-6.75 -1.64 0.47
-3.75 -1.07 1.03
-6.68 -1.54 0.49
-6.49 -1.48 0.52
-7.40 -1.47 0.36
-7.45 -1.40 0.35
-7.25 -1.35 0.39
-2.75 -0.71 1.22
-3.09 -0.72 1.16
-7.46 -1.17 0.35
-7.29 -1.13 0.38
-7.34 -1.01 0.37
-7.10 -0.94 0.42
-4.53 -0.66 0.90
-6.59 -0.83 0.51
-6.43 -0.79 0.54
-6.37 -0.77 0.55
-6.47 -0.75 0.54
-6.18 -0.69 0.59
-6.32 -0.68 0.56
-6.01 -0.62 0.62
-6.50 -0.63 0.53
-6.08 -0.58 0.61
-6.21 -0.57 0.59
-6.55 -0.57 0.52
-6.53 -0.55 0.53
-6.63 -0.53 0.51
-6.26 -0.49 0.58
-6.26 -0.47 0.58
-5.98 -0.43 0.63
-6.17 -0.42 0.59
-5.80 -0.38 0.66
-6.25 -0.39 0.58
-4.06 -0.27 0.98
-5.94 -0.33 0.63
-5.86 -0.31 0.65
-5.81 -0.29 0.66
-5.98 -0.27 0.63
-5.89 -0.25 0.65
-5.52 -0.22 0.71
-2.64 -0.13 1.24
-5.60 -0.19 0.70
-3.01 -0.11 1.18
-3.10 -0.10 1.16
-5.96 -0.13 0.63
-3.46 -0.08 1.09
-5.81 -0.09 0.66
-5.79 -0.07 0.66
-6.07 -0.05 0.61
-6.47 -0.04 0.54
-6.43 -0.01 0.54
-8.00 0.01 0.59
-7.91 0.03 0.61
-7.83 0.05 0.62
-7.61 0.06 0.66
-7.79 0.08 0.63
-7.77 0.10 0.63
-8.02 0.13 0.58
-8.09 0.15 0.57
-7.69 0.16 0.65
-8.11 0.19 0.56
-7.93 0.20 0.60
-8.24 0.23 0.54
-7.92 0.24 0.60
-7.87 0.26 0.61
-7.88 0.28 0.61
-7.68 0.29 0.64
-7.65 0.31 0.65
-7.39 0.32 0.70
-7.65 0.35 0.65
-4.72 0.23 1.22
-7.54 0.38 0.67
-8.22 0.43 0.54
-7.63 0.42 0.65
-7.68 0.44 0.64
-7.94 0.48 0.59
-7.63 0.48 0.65
-7.73 0.50 0.63
-7.90 0.53 0.60
-7.49 0.52 0.68
-8.15 0.59 0.55
-4.17 0.32 1.32
-8.08 0.62 0.56
-8.35 0.67 0.51
-8.59 0.71 0.46
-8.49 0.72 0.48
-8.37 0.73 0.50
-8.61 0.77 0.46
-8.23 0.76 0.53
-6.95 0.66 0.78
-8.71 0.84 0.44
-6.32 0.64 0.90
-6.45 0.67 0.87
-6.41 0.68 0.88
-6.52 0.71 0.86
-6.37 0.71 0.89
-6.38 0.72 0.88
-6.34 0.73 0.89
-6.58 0.78 0.84
-6.34 0.77 0.89
-6.15 0.76 0.93
-6.55 0.82 0.85
-6.54 0.84 0.85
-6.32 0.83 0.89
-6.21 0.84 0.91
-6.85 0.95 0.79
-6.02 0.85 0.95
-7.21 1.03 0.71
-7.46 1.10 0.66
-7.35 1.10 0.69
-6.86 1.05 0.78
-7.01 1.09 0.75
-6.83 1.14 0.78
-3.49 -1.41 1.02
-4.01 -1.47 0.92
-4.00 -1.45 0.92
-4.18 -1.44 0.88
-4.13 -1.40 0.90
-4.16 -1.37 0.89
-3.91 -1.29 0.94
-4.16 -1.31 0.89
-4.28 -1.30 0.87
-4.26 -1.26 0.88
-3.93 -1.18 0.94
-4.16 -1.21 0.90
-3.97 -1.11 0.93
-4.23 -1.13 0.88
-3.93 -1.04 0.94
-3.89 -1.01 0.95
-4.18 -1.02 0.90
-3.83 -0.94 0.96
-3.80 -0.92 0.97
-4.13 -0.95 0.91
-3.97 -0.77 0.94
-6.94 -0.91 0.36
-6.52 -0.80 0.45
-6.29 -0.76 0.49
-5.70 -0.67 0.61
-6.30 -0.68 0.49
-3.86 -0.46 0.96
-6.06 -0.60 0.54
-6.03 -0.58 0.54
-6.40 -0.56 0.47
-6.28 -0.51 0.50
-6.22 -0.47 0.51
-6.16 -0.44 0.52
-5.79 -0.41 0.59
-5.87 -0.37 0.57
-6.13 -0.34 0.52
-5.91 -0.29 0.57
-7.79 -0.26 0.63
-7.82 -0.24 0.62
-8.09 -0.23 0.57
-7.85 -0.20 0.62
-7.93 -0.19 0.60
-7.90 -0.17 0.61
-7.81 -0.15 0.62
-8.50 -0.14 0.49
-7.65 -0.11 0.66
-7.97 -0.09 0.59
-7.76 -0.07 0.63
-7.78 -0.05 0.63
-8.02 -0.03 0.58
-7.73 -0.01 0.64
-5.10 0.08 0.66
-4.80 0.11 0.72
-4.08 0.17 0.86
-3.38 0.17 1.00
-3.31 0.18 1.02
-3.46 0.20 0.99
-3.78 0.23 0.92
-3.69 0.24 0.94
-3.71 0.25 0.94
-3.69 0.27 0.94
-3.66 0.28 0.95
-4.30 0.26 1.26
-4.25 0.27 1.27
-4.47 0.31 1.23
-4.08 0.29 1.30
-4.14 0.31 1.29
-4.48 0.34 1.22
-4.34 0.34 1.25
-4.37 0.36 1.25
-4.00 0.34 1.32
-4.02 0.35 1.32
-4.16 0.37 1.29
-4.06 0.41 1.30
-4.26 0.44 1.27
-3.79 0.40 1.36
-4.04 0.44 1.31
-3.89 0.43 1.34
-3.90 0.44 1.34
-4.01 0.46 1.31
-3.98 0.48 1.32
-4.23 0.58 1.26
-3.98 0.58 1.31
-3.15 0.81 1.46
-3.92 -0.90 0.90
-5.99 -0.43 0.48
-5.97 -0.41 0.49
-6.18 -0.40 0.45
-5.97 -0.31 0.49
-6.22 -0.30 0.44
-6.73 -0.25 0.33
-5.93 -0.03 0.49
-7.18 0.01 0.61
-7.31 0.03 0.58
-7.31 0.04 0.58
-7.38 0.06 0.57
-7.37 0.08 0.57
-7.24 0.10 0.60
-7.09 0.11 0.63
-7.57 0.14 0.53
-7.38 0.15 0.57
-7.50 0.17 0.54
-7.63 0.20 0.51
-7.69 0.21 0.50
-7.83 0.24 0.47
-7.12 0.24 0.62
-7.47 0.26 0.55
-7.44 0.28 0.55
-7.63 0.31 0.51
-7.21 0.31 0.60
-7.49 0.34 0.54
-6.91 0.33 0.66
-6.57 0.33 0.73
-7.60 0.40 0.51
-7.40 0.41 0.56
-7.72 0.45 0.49
-7.96 0.48 0.44
-7.54 0.47 0.53
-7.46 0.49 0.54
-7.03 0.48 0.63
-6.19 0.44 0.81
-6.31 0.46 0.78
-6.45 0.49 0.75
-6.49 0.51 0.75
-6.43 0.52 0.76
-6.61 0.55 0.72
-6.51 0.56 0.74
-6.35 0.56 0.77
-6.51 0.59 0.74
-6.22 0.58 0.80
-6.35 0.61 0.77
-5.66 0.56 0.92
-6.25 0.63 0.79
-6.62 0.68 0.71
-6.32 0.67 0.78
-6.37 0.69 0.77
-6.20 0.69 0.80
-6.35 0.72 0.77
-6.31 0.73 0.78
-6.36 0.75 0.77
-6.30 0.76 0.78
-6.32 0.78 0.77
-6.30 0.79 0.78
-6.54 0.84 0.72
-6.35 0.83 0.76
-6.43 0.86 0.75
-6.02 0.82 0.83
-6.08 0.84 0.82
-6.12 0.87 0.81
-6.38 0.92 0.75
-6.39 0.93 0.75
-6.57 0.98 0.71
-6.38 0.97 0.75
-5.77 0.89 0.88
-6.80 1.06 0.66
-6.39 1.02 0.75
-5.99 0.97 0.83
-6.41 1.05 0.74
-6.31 1.05 0.76
-6.42 1.09 0.74
-5.87 1.03 0.86
-5.90 1.06 0.85
-5.19 1.02 1.00
-5.75 1.29 0.87
-3.85 -1.55 0.83
-3.16 -1.34 0.98
-3.68 -1.44 0.87
-4.28 -1.53 0.74
-4.12 -1.48 0.77
-4.01 -1.44 0.80
-3.63 -1.34 0.88
-3.65 -1.33 0.88
-3.78 -1.33 0.85
-4.18 -1.38 0.76
-4.15 -1.36 0.77
-3.99 -1.31 0.81
-3.70 -1.22 0.87
-3.91 -1.24 0.82
-4.03 -1.25 0.80
-4.11 -1.25 0.78
-4.02 -1.22 0.80
-4.00 -1.20 0.81
-4.04 -1.19 0.80
-4.08 -1.18 0.79
-3.93 -1.14 0.82
-3.77 -1.10 0.86
-4.11 -1.14 0.79
-3.80 -1.07 0.85
-3.93 -1.08 0.83
-3.88 -1.05 0.84
-3.92 -1.04 0.83
-3.87 -1.02 0.84
-3.77 -0.99 0.86
-4.14 -1.03 0.78
-3.95 -0.99 0.82
-4.24 -1.02 0.76
-3.87 -0.95 0.84
-3.68 -0.90 0.88
-3.98 -0.93 0.82
-4.28 -0.96 0.75
-3.67 -0.86 0.88
-4.00 -0.89 0.81
-4.08 -0.88 0.80
-3.87 -0.84 0.84
-4.15 -0.86 0.78
-4.16 -0.85 0.78
-3.95 -0.80 0.83
-4.64 -0.87 0.68
-3.45 -0.71 0.93
-4.56 -0.83 0.70
-4.98 -0.86 0.61
-4.15 -0.75 0.78
-5.27 -0.86 0.55
-3.25 -0.61 0.98
-5.86 -0.86 0.42
-5.77 -0.84 0.44
-5.28 -0.77 0.54
-5.22 -0.74 0.56
-5.23 -0.73 0.56
-4.29 -0.62 0.76
-5.26 -0.69 0.55
-5.45 -0.69 0.51
-5.15 -0.65 0.57
-4.82 -0.60 0.64
-4.82 -0.58 0.64
-4.85 -0.57 0.64
-4.46 -0.52 0.72
-4.54 -0.51 0.70
-4.68 -0.50 0.67
-4.43 -0.47 0.73
-4.91 -0.49 0.63
-4.32 -0.43 0.75
-4.18 -0.41 0.78
-5.50 -0.47 0.50
-7.36 -0.41 0.57
-7.07 -0.38 0.64
-6.86 -0.35 0.68
-7.87 -0.38 0.47
-7.27 -0.33 0.59
-7.79 -0.34 0.48
-7.44 -0.30 0.56
-7.19 -0.28 0.61
-6.93 -0.25 0.66
-6.84 -0.23 0.68
-6.90 -0.21 0.67
-7.25 -0.21 0.60
-7.17 -0.19 0.61
-7.06 -0.17 0.64
-6.78 -0.14 0.70
-7.20 -0.13 0.61
-6.93 -0.11 0.66
-7.11 -0.10 0.63
-7.07 -0.08 0.63
-6.81 -0.06 0.69
-7.02 -0.04 0.64
-6.97 -0.03 0.66
-7.08 -0.01 0.63
-5.52 0.01 0.42
-3.86 0.02 0.79
-7.07 0.06 0.57
-7.23 0.08 0.53
-7.15 0.09 0.55
-7.36 0.12 0.50
-7.17 0.13 0.54
-6.84 0.14 0.62
-7.21 0.17 0.53
-7.23 0.18 0.53
-7.29 0.20 0.51
-7.52 0.23 0.46
-7.46 0.25 0.48
-4.08 0.15 1.22
-7.41 0.28 0.49
-4.19 0.17 1.20
-4.72 0.21 1.08
-6.37 0.29 0.72
-6.10 0.29 0.77
-7.69 0.38 0.42
-6.10 0.32 0.77
-7.82 0.43 0.39
-5.90 0.34 0.82
-6.90 0.42 0.60
-5.04 0.32 1.01
-4.72 0.31 1.08
-5.29 0.36 0.95
-7.23 0.51 0.52
-6.75 0.49 0.63
-7.04 0.53 0.56
-6.74 0.52 0.63
-6.68 0.54 0.64
-6.57 0.54 0.66
-6.55 0.56 0.67
-6.02 0.53 0.79
-6.45 0.60 0.69
-6.09 0.58 0.77
-6.31 0.62 0.72
-6.32 0.63 0.72
-6.28 0.65 0.73
-3.90 0.42 1.25
-6.27 0.68 0.73
-4.09 0.46 1.21
-6.32 0.71 0.71
-4.06 0.48 1.22
-3.87 0.47 1.26
-6.36 0.77 0.70
-3.96 0.50 1.24
-5.97 0.75 0.79
-4.01 0.53 1.23
-6.26 0.82 0.72
-6.00 0.80 0.78
-5.98 0.81 0.78
-5.88 0.82 0.81
-5.96 0.84 0.79
-6.03 0.87 0.77
-6.24 0.91 0.72
-5.78 0.86 0.83
-3.79 0.59 1.27
-5.93 0.92 0.79
-5.92 0.93 0.79
-4.14 0.67 1.19
-6.21 1.08 0.72
-4.22 0.83 1.17
-4.75 0.94 1.04
-3.74 -1.31 0.80
-3.36 -1.22 0.89
-3.50 -1.23 0.86
-3.48 -1.21 0.86
-3.81 -1.26 0.79
-3.79 -1.25 0.79
-3.74 -1.22 0.80
-3.81 -1.22 0.79
-3.69 -1.18 0.82
-3.72 -1.17 0.81
-3.98 -1.21 0.75
-4.07 -1.21 0.73
-3.92 -1.16 0.77
-4.00 -1.16 0.75
-3.78 -1.11 0.80
-3.61 -1.06 0.84
-3.61 -1.05 0.84
-3.72 -1.05 0.81
-3.63 -1.02 0.83
-3.67 -1.02 0.82
-3.47 -0.97 0.87
-3.53 -0.96 0.86
-3.96 -1.02 0.76
-3.80 -0.98 0.80
-3.93 -0.98 0.77
-4.02 -0.98 0.75
-3.80 -0.93 0.80
-3.70 -0.90 0.82
-3.91 -0.92 0.78
-3.66 -0.87 0.83
-3.33 -0.81 0.90
-4.06 -0.88 0.74
-4.08 -0.87 0.74
-3.24 -0.74 0.92
-3.77 -0.79 0.81
-3.01 -0.68 0.98
-4.78 -0.89 0.58
-4.82 -0.88 0.57
-4.66 -0.84 0.61
-4.98 -0.86 0.54
-3.07 -0.62 0.96
-5.36 -0.87 0.45
-4.07 -0.71 0.74
-5.21 -0.81 0.49
-5.52 -0.83 0.42
-5.52 -0.81 0.42
-5.35 -0.75 0.46
-5.39 -0.74 0.45
-5.24 -0.71 0.48
-5.21 -0.69 0.49
-5.05 -0.64 0.53
-5.04 -0.62 0.53
-4.99 -0.60 0.54
-5.17 -0.59 0.50
-4.60 -0.53 0.63
-3.52 -0.44 0.86
-3.67 -0.43 0.83
-4.23 -0.46 0.71
-5.27 -0.51 0.48
-4.45 -0.44 0.66
-5.55 -0.47 0.42
-5.68 -0.40 0.39
-4.06 -0.30 0.75
-5.62 -0.36 0.40
-5.69 -0.34 0.39
-5.77 -0.33 0.37
-5.73 -0.30 0.38
-5.52 -0.26 0.42
-5.59 -0.24 0.41
-5.65 -0.23 0.39
-5.67 -0.07 0.39
-5.54 -0.01 0.42
-7.01 0.08 0.50
-7.14 0.11 0.47
-7.35 0.15 0.43
-7.10 0.16 0.48
-7.09 0.20 0.49
-7.27 0.22 0.44
-7.00 0.23 0.50
-6.98 0.25 0.51
-7.36 0.30 0.42
-7.14 0.31 0.47
-7.58 0.36 0.37
-7.16 0.36 0.47
-5.75 0.46 0.79
-6.58 0.54 0.59
-6.52 0.59 0.60
-6.34 0.59 0.65
-6.15 0.59 0.69
-6.37 0.64 0.64
-6.20 0.64 0.68
-6.37 0.69 0.64
-6.35 0.70 0.64
-6.54 0.74 0.60
-6.16 0.71 0.68
-6.41 0.77 0.62
-6.22 0.77 0.67
-6.48 0.83 0.61
-6.33 0.83 0.64
-6.16 0.82 0.68
-6.15 0.85 0.68
-6.15 0.87 0.68
-6.33 0.91 0.64
-6.33 0.94 0.64
-6.37 0.96 0.63
-6.09 0.94 0.69
-6.04 0.95 0.70
-5.71 0.93 0.78
-5.70 0.94 0.78
-5.96 1.01 0.72
-5.66 0.98 0.79
-5.71 1.00 0.77
-5.63 1.00 0.79
-5.36 1.00 0.85
-4.03 -1.15 0.68
-4.58 -1.24 0.55
-4.09 -1.13 0.66
-4.22 -1.14 0.63
-3.90 -1.07 0.71
-3.80 -1.04 0.73
-3.97 -1.05 0.69
-4.13 -1.06 0.65
-4.33 -1.08 0.61
-3.90 -0.99 0.71
-3.93 -0.98 0.70
-3.95 -0.97 0.70
-4.11 -0.98 0.66
-4.43 -1.01 0.59
-4.82 -1.05 0.50
-4.69 -1.01 0.53
-4.49 -0.95 0.58
-4.66 -0.96 0.54
-4.92 -0.98 0.48
-4.94 -0.96 0.47
-5.16 -0.95 0.42
-4.84 -0.90 0.50
-4.59 -0.85 0.55
-5.14 -0.90 0.43
-4.86 -0.85 0.49
-5.04 -0.85 0.45
-5.24 -0.84 0.40
-5.16 -0.65 0.43
-5.24 -0.63 0.41
-5.15 -0.61 0.43
-5.09 -0.59 0.44
-5.06 -0.57 0.45
-5.16 -0.55 0.43
-5.00 -0.53 0.46
-4.75 -0.47 0.52
-7.02 -0.08 0.50
-7.01 -0.06 0.51
-0.72 -1.51 1.16
-4.27 0.58 0.56
-2.70 1.02 0.52
-2.35 1.18 0.52
-3.49 0.64 0.49
-2.98 0.94 0.49
-2.53 0.77 0.35
-1.66 -0.85 0.39
-2.79 0.85 0.29
-3.20 0.70 0.24
-3.15 0.76 0.24
-3.28 0.75 0.20
-3.14 0.75 0.22
-2.95 0.90 0.23
-2.65 0.86 0.27
-2.40 0.59 0.29
-0.64 -0.17 0.42
-2.59 0.49 0.26
-2.45 0.58 0.27
-2.40 0.60 0.28
-2.34 0.75 0.27
-2.58 0.49 0.24
-2.63 0.59 0.23
-2.44 0.58 0.26
-2.22 0.61 0.28
-2.35 0.47 0.26
-2.65 0.60 0.21
-2.59 0.61 0.22
-2.55 0.65 0.22
-2.40 0.60 0.25
-2.41 0.62 0.24
-2.42 0.69 0.24
-2.23 0.64 0.27
-2.18 0.63 0.28
-2.28 0.76 0.25
-2.05 0.69 0.29
-2.37 0.43 0.25
-2.51 0.53 0.22
-2.45 0.59 0.22
-2.39 0.58 0.23
-2.52 0.69 0.21
-2.38 0.63 0.23
-2.32 0.63 0.24
-2.42 0.71 0.22
-2.39 0.74 0.22
-2.18 0.64 0.26
-2.14 0.67 0.26
-2.10 0.68 0.27
-2.18 0.76 0.25
-2.05 0.68 0.28
-2.36 0.41 0.23
-2.35 0.47 0.23
-2.36 0.49 0.23
-2.48 0.55 0.21
-2.48 0.57 0.21
-2.42 0.56 0.22
-2.39 0.58 0.22
-2.36 0.61 0.22
-2.32 0.62 0.23
-2.16 0.57 0.26
-2.14 0.66 0.25
-2.10 0.68 0.26
-1.87 0.66 0.29
-1.89 0.81 0.27
-2.45 0.25 0.21
-2.40 0.41 0.21
-2.37 0.43 0.22
-2.39 0.57 0.21
-2.35 0.60 0.21
-2.26 0.62 0.22
-2.11 0.57 0.25
-2.20 0.67 0.23
-2.14 0.65 0.24
-2.14 0.66 0.24
-1.94 0.54 0.28
-2.05 0.64 0.26
-2.05 0.66 0.25
-1.92 0.69 0.27
-1.87 0.67 0.28
-1.83 0.69 0.28
-1.89 0.79 0.26
-1.19 -0.96 0.30
-2.38 0.44 0.20
-2.30 0.59 0.21
-2.27 0.62 0.21
-2.11 0.57 0.24
-2.18 0.64 0.22
-2.18 0.66 0.22
-2.10 0.69 0.23
-2.06 0.68 0.24
-2.19 0.65 0.21
-2.10 0.66 0.22
-2.06 0.68 0.23
-1.91 0.67 0.25
-1.93 0.72 0.24
-1.07 -0.88 0.30
-1.32 -0.85 0.30
-1.84 0.82 0.23
-1.07 -0.93 0.28
-1.09 -0.84 0.30
-2.06 0.56 0.22
-1.96 0.68 0.22
-1.88 0.69 0.23
-1.10 -0.91 0.27
-1.96 0.68 0.21
-1.60 0.72 0.25
-1.34 -0.88 0.25
-1.55 -0.66 0.21
