# .PCD v0.7 - Point Cloud Data file format
VERSION 0.7
FIELDS x y z
SIZE 4 4 4
TYPE F F F
COUNT 1 1 1
WIDTH 1884
HEIGHT 1
VIEWPOINT 0 0 0 1 0 0 0
POINTS 1884
DATA ASCII
-0.92 -1.42 2.22
-0.99 -1.47 2.21
-1.07 -1.49 2.21
-11.26 1.35 2.23
-1.09 -1.50 2.20
-10.47 1.34 2.13
-12.39 0.42 2.09
-13.70 1.03 2.08
-11.70 1.52 1.88
-13.41 -1.19 1.76
-11.59 -0.32 1.89
-12.08 0.29 1.79
-12.12 0.32 1.78
-12.54 0.39 1.77
-12.03 0.58 1.79
-12.76 1.65 1.76
-12.56 0.57 1.72
-1.01 -1.52 2.05
-12.36 0.35 1.68
-12.36 0.41 1.68
-12.62 0.55 1.67
-12.32 0.56 1.68
-2.95 0.27 2.04
-10.70 1.58 1.69
-12.37 0.05 1.57
-12.28 0.08 1.58
-12.46 0.14 1.57
-12.02 0.17 1.59
-12.21 0.29 1.58
-12.06 0.32 1.59
-11.60 0.36 1.61
-12.05 0.46 1.59
-12.50 0.57 1.56
-8.44 0.48 1.76
-12.53 0.88 1.56
-2.80 0.26 2.03
-0.92 -1.63 2.01
-2.70 -1.49 1.93
-2.44 -1.30 1.94
-12.27 -0.13 1.58
-2.89 0.26 2.01
-0.86 -1.61 2.00
-12.20 0.08 1.47
-12.35 0.32 1.46
-12.01 0.40 1.48
-12.47 0.69 1.45
-12.89 0.81 1.42
-1.33 -1.05 1.96
-1.32 -1.04 1.96
-11.61 -0.15 1.50
-11.52 -0.12 1.51
-11.58 -0.04 1.50
-11.59 -0.01 1.50
-11.10 0.33 1.33
-12.08 0.38 1.42
-11.96 0.52 1.42
-14.07 1.43 1.28
-3.04 0.94 1.96
-1.78 -1.32 1.92
-1.73 -1.29 1.92
-1.25 -1.03 1.95
-1.29 -1.04 1.95
-11.00 -0.18 1.33
-10.93 -0.15 1.34
-13.94 -0.11 1.15
-8.98 0.17 1.56
-11.98 0.28 1.36
-11.96 0.31 1.36
-11.89 0.34 1.37
-12.04 0.37 1.36
-12.70 0.86 1.31
-13.65 1.22 1.24
-7.72 -1.63 1.49
-11.68 -0.29 1.38
-11.53 -0.26 1.39
-11.60 -0.24 1.39
-11.66 -0.21 1.38
-11.73 -0.18 1.38
-11.83 -0.15 1.37
-11.83 -0.12 1.37
-11.94 -0.07 1.37
-10.51 0.07 1.23
-7.23 0.16 1.47
-11.67 0.61 1.14
-0.72 -1.04 1.95
-7.91 -1.63 1.42
-9.39 0.11 1.43
-7.41 0.20 1.58
-11.89 0.34 1.23
-11.76 0.37 1.24
-11.76 0.39 1.24
-7.50 0.28 1.57
-12.10 0.46 1.21
-12.04 0.61 1.22
-11.99 0.72 1.22
-12.21 0.77 1.20
-9.72 0.86 1.40
-9.67 1.14 1.40
-2.05 -1.28 1.83
-2.29 -1.20 1.81
-7.83 -1.67 1.37
-8.07 -1.69 1.35
-7.95 -1.64 1.36
-7.65 -1.40 1.38
-7.49 -1.26 1.40
-7.25 -1.16 1.42
-8.07 -0.86 1.35
-9.94 -0.72 1.21
-3.63 -0.20 1.88
-10.81 -0.25 1.32
-11.62 -0.18 1.26
-11.96 -0.15 1.23
-11.92 -0.12 1.23
-12.03 -0.10 1.22
-11.63 -0.07 1.25
-11.65 -0.04 1.25
-11.84 -0.01 1.24
-11.76 0.14 1.18
-11.89 0.37 1.17
-11.97 0.43 1.16
-7.90 0.31 1.50
-12.24 0.65 1.14
-12.13 0.73 1.15
-3.42 1.02 1.85
-1.60 -1.19 1.84
-5.82 -0.23 1.49
-11.32 0.05 1.14
-11.34 0.13 1.14
-7.27 0.10 1.51
-11.32 0.19 1.14
-11.38 0.21 1.14
-11.21 0.24 1.15
-11.23 0.27 1.15
-11.45 0.30 1.13
-7.78 0.23 1.46
-11.51 0.36 1.13
-7.71 0.26 1.47
-7.87 0.29 1.45
-7.82 0.30 1.46
-7.77 0.32 1.46
-7.79 0.34 1.46
-7.80 0.36 1.46
-8.02 0.39 1.44
-12.33 0.62 1.05
-12.24 0.65 1.06
-12.34 0.68 1.05
-12.15 0.70 1.07
-12.34 0.77 1.05
-12.29 0.83 1.05
-12.80 0.90 1.01
-12.38 0.90 1.04
-12.96 1.00 0.99
-12.50 1.03 1.03
-13.12 1.37 0.97
-13.37 1.53 0.95
-13.60 1.58 0.93
-13.63 1.62 0.92
-6.55 1.54 1.55
-7.37 -1.34 1.29
-6.19 -0.30 1.41
-6.55 -0.29 1.37
-3.15 -0.17 1.68
-6.40 -0.25 1.39
-6.35 -0.22 1.39
-9.96 -0.26 1.06
-6.30 -0.16 1.40
-10.11 -0.20 1.05
-11.31 -0.12 1.15
-11.54 -0.09 1.13
-11.43 -0.06 1.14
-11.09 -0.04 1.17
-11.32 -0.01 1.15
-6.77 0.00 1.30
-7.39 0.03 1.24
-6.90 0.09 1.29
-7.01 0.14 1.28
-7.47 0.19 1.23
-3.78 0.13 1.59
-7.57 0.24 1.22
-11.45 0.33 1.07
-11.60 0.36 1.05
-8.06 0.27 1.39
-7.77 0.28 1.42
-7.56 0.29 1.44
-8.08 0.33 1.39
-11.38 0.49 1.07
-7.81 0.36 1.41
-7.70 0.40 1.42
-12.18 0.64 1.00
-12.06 0.67 1.01
-12.35 0.80 0.98
-12.38 0.90 0.97
-12.79 1.11 0.93
-9.80 0.89 1.22
-10.09 0.96 1.19
-1.34 -1.32 1.82
-1.55 -1.30 1.80
-7.32 -1.28 1.25
-7.56 -1.29 1.22
-5.92 -0.86 1.38
-7.85 -0.84 1.20
-6.28 -0.32 1.35
-6.43 -0.31 1.34
-6.35 -0.29 1.34
-6.46 -0.27 1.33
-6.51 -0.25 1.33
-6.51 -0.23 1.33
-6.66 -0.21 1.31
-6.39 -0.14 1.34
-6.73 -0.08 1.31
-10.09 -0.08 0.98
-6.31 -0.04 1.35
-10.29 -0.02 0.96
-11.16 0.02 1.02
-7.17 0.05 1.43
-7.64 0.09 1.38
-7.01 0.12 1.44
-7.20 0.14 1.42
-7.46 0.16 1.40
-7.29 0.18 1.41
-7.51 0.20 1.39
-7.41 0.22 1.40
-7.49 0.24 1.39
-7.74 0.26 1.37
-7.11 0.26 1.43
-8.14 0.32 1.33
-8.14 0.34 1.33
-7.90 0.35 1.35
-7.76 0.36 1.36
-7.83 0.38 1.36
-7.83 0.40 1.36
-8.05 0.43 1.33
-8.07 0.46 1.33
-7.98 0.47 1.34
-8.10 0.50 1.33
-7.98 0.51 1.34
-8.10 0.54 1.33
-12.62 0.85 0.87
-8.02 0.57 1.33
-12.44 0.93 0.88
-12.58 0.97 0.87
-12.74 1.02 0.85
-13.23 1.15 0.80
-9.90 0.92 1.14
-9.96 0.95 1.13
-14.74 1.42 0.65
-10.00 1.03 1.13
-13.50 1.41 0.77
-13.40 1.50 0.78
-13.63 1.69 0.75
-10.30 1.60 1.09
-9.49 1.67 1.17
-4.27 0.86 1.70
-6.03 -1.24 1.32
-7.66 -1.33 1.15
-7.68 -1.31 1.15
-7.40 -1.25 1.18
-7.53 -1.22 1.16
-5.95 -0.95 1.33
-5.83 -0.77 1.34
-5.74 -0.75 1.35
-5.69 -0.70 1.35
-5.99 -0.57 1.32
-5.75 -0.44 1.35
-15.00 -0.90 0.40
-10.77 -0.65 0.83
-6.36 -0.39 1.29
-5.91 -0.35 1.33
-5.85 -0.33 1.34
-6.02 -0.32 1.32
-10.23 -0.33 1.12
-10.62 -0.32 1.08
-6.87 -0.19 1.46
-7.01 -0.18 1.44
-6.63 -0.15 1.48
-6.64 -0.14 1.48
-6.52 -0.12 1.49
-6.61 -0.10 1.48
-11.49 -0.15 0.99
-7.04 -0.07 1.44
-6.76 -0.05 1.47
-11.17 -0.06 1.02
-6.62 -0.02 1.48
-7.44 0.19 1.11
-12.76 0.95 0.77
-12.87 1.09 0.75
-12.50 1.09 0.79
-12.61 1.13 0.78
-1.01 -1.36 1.80
-10.18 -0.41 0.81
-14.24 -0.50 0.37
-10.11 -0.35 0.82
-6.56 -0.10 1.21
-14.08 -0.03 0.38
-10.64 0.02 0.93
-10.52 0.04 0.94
-11.32 0.10 0.85
-11.09 0.13 0.88
-11.10 0.15 0.87
-8.51 0.14 1.17
-7.29 0.23 1.31
-7.67 0.26 1.27
-7.76 0.28 1.25
-8.11 0.32 1.21
-7.83 0.33 1.25
-7.83 0.34 1.25
-8.83 0.41 1.13
-8.26 0.40 1.20
-9.11 0.46 1.10
-8.22 0.44 1.20
-8.15 0.46 1.21
-8.27 0.49 1.20
-8.33 0.51 1.19
-12.26 0.77 0.74
-8.17 0.54 1.21
-8.28 0.57 1.19
-8.43 0.60 1.17
-8.27 0.63 1.19
-8.31 0.65 1.19
-9.62 0.78 1.04
-9.71 0.81 1.03
-10.00 0.85 0.99
-9.88 0.87 1.01
-9.92 0.90 1.00
-9.73 0.91 1.02
-8.49 0.81 1.17
-8.45 0.83 1.17
-9.86 0.99 1.01
-10.35 1.06 0.95
-8.52 0.90 1.16
-10.06 1.16 0.98
-14.30 1.67 0.49
-10.68 1.31 0.91
-13.64 1.69 0.56
-9.52 1.34 1.04
-1.72 -1.29 1.70
-2.41 -1.34 1.62
-5.44 -1.28 1.27
-7.67 -1.62 1.01
-5.29 -1.20 1.29
-8.00 -1.35 0.97
-7.26 -1.23 1.06
-7.24 -1.05 1.06
-6.00 -0.77 1.21
-5.52 -0.54 1.27
-10.64 -0.58 0.93
-10.18 -0.53 0.98
-10.37 -0.49 0.96
-15.22 -0.64 0.41
-6.97 -0.28 1.35
-14.98 -0.56 0.43
-6.33 -0.23 1.42
-6.22 -0.16 1.44
-6.51 -0.15 1.40
-11.24 -0.17 0.86
-11.22 -0.15 0.86
-7.08 -0.06 1.34
-10.85 -0.06 0.90
-6.63 0.00 1.08
-6.94 0.03 1.04
-7.30 0.05 1.26
-10.69 0.10 0.85
-7.62 0.11 1.22
-7.86 0.13 1.19
-7.55 0.14 1.23
-7.47 0.16 1.24
-7.63 0.18 1.22
-7.75 0.21 1.20
-7.61 0.22 1.22
-7.57 0.24 1.23
-7.59 0.26 1.22
-7.76 0.28 1.20
-7.85 0.30 1.19
-7.90 0.33 1.19
-9.09 0.40 1.04
-8.36 0.39 1.13
-9.48 0.46 0.99
-8.52 0.43 1.11
-8.41 0.45 1.12
-8.36 0.47 1.13
-8.53 0.50 1.11
-8.06 0.49 1.16
-12.37 0.77 0.64
-8.24 0.54 1.14
-8.13 0.56 1.15
-8.33 0.59 1.13
-8.42 0.62 1.12
-8.95 0.68 1.05
-8.52 0.67 1.11
-9.06 0.73 1.04
-8.49 0.71 1.11
-10.25 0.87 0.89
-9.90 0.87 0.94
-8.83 0.80 1.07
-9.90 0.92 0.94
-8.85 0.85 1.06
-4.29 0.44 1.62
-4.42 0.46 1.60
-9.99 1.03 0.92
-8.72 0.94 1.08
-8.52 0.94 1.10
-9.80 1.11 0.94
-13.59 1.58 0.48
-10.43 1.28 0.86
-10.46 1.31 0.86
-7.46 -1.21 0.97
-7.47 -0.93 0.97
-5.83 -0.50 1.18
-5.70 -0.47 1.19
-5.66 -0.45 1.20
-6.00 -0.45 1.16
-5.80 -0.40 1.18
-6.28 -0.41 1.12
-10.64 -0.49 0.59
-6.80 -0.32 1.06
-10.47 -0.39 0.61
-6.84 -0.26 1.05
-6.76 -0.24 1.06
-6.57 -0.19 1.09
-6.83 -0.17 1.05
-6.36 -0.14 1.11
-6.59 -0.12 1.08
-6.45 -0.10 1.10
-6.54 -0.08 1.09
-6.68 -0.06 1.07
-6.77 -0.04 1.06
-6.78 -0.02 1.06
-7.50 0.01 1.18
-7.48 0.03 1.18
-7.59 0.05 1.17
-7.63 0.07 1.16
-7.81 0.09 1.14
-7.36 0.10 1.20
-7.34 0.12 1.20
-7.58 0.14 1.17
-7.11 0.15 1.23
-7.47 0.18 1.18
-7.39 0.20 1.19
-7.51 0.22 1.18
-7.47 0.24 1.18
-7.55 0.26 1.17
-7.54 0.28 1.17
-7.55 0.29 1.17
-7.70 0.32 1.15
-7.79 0.34 1.14
-7.92 0.37 1.12
-7.84 0.38 1.13
-8.57 0.44 1.04
-8.37 0.45 1.06
-8.42 0.47 1.06
-8.02 0.47 1.11
-8.01 0.49 1.11
-8.23 0.52 1.08
-8.22 0.54 1.08
-8.05 0.55 1.10
-8.26 0.59 1.08
-4.49 0.34 1.56
-4.62 0.36 1.54
-4.56 0.37 1.55
-4.49 0.38 1.56
-4.76 0.41 1.52
-9.78 0.83 0.88
-4.58 0.42 1.55
-8.62 0.78 1.03
-8.65 0.81 1.02
-4.32 0.43 1.58
-4.43 0.45 1.57
-4.35 0.46 1.58
-8.82 0.91 1.00
-8.40 0.89 1.05
-4.22 0.48 1.59
-10.46 1.15 0.78
-8.86 1.00 0.99
-8.78 1.02 1.00
-4.29 0.53 1.58
-4.33 0.55 1.58
-8.77 1.08 1.00
-8.69 1.09 1.01
-8.95 1.15 0.98
-8.65 1.13 1.02
-10.97 1.45 0.71
-8.64 1.17 1.02
-10.37 1.43 0.79
-9.53 1.39 0.90
-7.69 -1.48 0.87
-7.82 -1.45 0.85
-6.12 -0.96 1.08
-6.48 -0.94 1.03
-6.91 -0.96 0.97
-7.07 -0.96 0.95
-7.15 -0.95 0.94
-5.94 -0.69 1.10
-7.23 -0.72 0.93
-6.19 -0.63 1.07
-5.47 -0.54 1.16
-5.63 -0.53 1.14
-5.42 -0.50 1.17
-5.60 -0.49 1.15
-6.14 -0.48 1.08
-6.18 -0.46 1.07
-5.71 -0.42 1.13
-5.62 -0.40 1.14
-5.38 -0.37 1.17
-5.56 -0.36 1.15
-6.10 -0.34 1.08
-6.45 -0.31 1.04
-6.43 -0.29 1.04
-10.39 -0.36 0.52
-6.50 -0.23 1.03
-6.62 -0.21 1.01
-6.35 -0.18 1.05
-6.45 -0.16 1.04
-6.38 -0.14 1.05
-6.34 -0.08 1.33
-10.68 -0.11 0.77
-10.76 -0.09 0.76
-7.32 -0.04 1.20
-7.01 -0.02 1.24
-6.81 -0.00 1.27
-6.96 0.00 0.90
-6.79 0.02 0.93
-6.84 0.05 0.92
-6.62 0.09 0.95
-6.85 0.11 0.92
-6.75 0.13 0.93
-6.64 0.15 0.95
-6.80 0.18 0.92
-6.74 0.20 0.93
-6.97 0.23 0.90
-7.53 0.22 1.12
-7.55 0.26 1.12
-7.70 0.28 1.10
-7.74 0.30 1.09
-7.75 0.32 1.09
-7.89 0.34 1.07
-8.10 0.37 1.04
-7.96 0.41 1.06
-8.57 0.46 0.97
-8.30 0.47 1.01
-4.48 0.27 1.53
-8.04 0.49 1.05
-7.83 0.50 1.07
-4.60 0.31 1.51
-4.47 0.33 1.53
-4.57 0.35 1.52
-8.35 0.63 1.00
-4.30 0.35 1.55
-8.44 0.68 0.99
-8.85 0.76 0.93
-8.67 0.76 0.96
-4.27 0.40 1.56
-8.34 0.78 1.00
-4.37 0.43 1.54
-4.38 0.45 1.54
-8.92 0.90 0.92
-8.51 0.88 0.98
-9.16 0.97 0.89
-8.67 0.94 0.95
-8.44 0.94 0.98
-8.67 0.98 0.95
-8.51 0.98 0.97
-9.47 1.12 0.84
-4.20 0.53 1.56
-9.36 1.15 0.86
-8.81 1.11 0.93
-9.03 1.16 0.90
-9.01 1.18 0.90
-9.26 1.23 0.87
-8.84 1.20 0.92
-8.81 1.22 0.93
-9.79 1.37 0.79
-9.02 1.29 0.90
-9.33 1.36 0.85
-9.65 1.57 0.81
-10.01 1.68 0.75
-1.35 -1.15 1.66
-7.37 -1.53 0.84
-5.77 -1.23 1.06
-8.94 -1.45 0.63
-7.23 -1.00 0.86
-7.34 -0.94 0.85
-7.68 -0.78 0.80
-7.86 -0.77 0.78
-5.48 -0.57 1.11
-7.47 -0.69 0.83
-5.39 -0.51 1.12
-5.56 -0.48 1.10
-5.60 -0.47 1.09
-5.73 -0.46 1.07
-5.64 -0.43 1.08
-5.70 -0.42 1.08
-5.64 -0.38 1.08
-6.19 -0.36 1.01
-6.43 -0.35 0.98
-10.44 -0.48 0.43
-6.50 -0.31 0.97
-4.81 -0.24 1.20
-6.49 -0.25 0.97
-6.56 -0.23 0.96
-6.41 -0.21 0.98
-6.68 -0.19 0.94
-6.50 -0.17 0.97
-6.50 -0.14 0.97
-6.55 -0.12 0.96
-6.41 -0.08 0.98
-9.86 -0.05 0.50
-6.93 -0.02 0.91
-10.48 0.02 0.64
-9.15 0.04 0.83
-7.74 0.05 1.03
-7.43 0.07 1.07
-7.59 0.09 1.05
-7.42 0.11 1.07
-7.50 0.12 1.06
-7.19 0.14 1.11
-7.32 0.16 1.09
-7.49 0.18 1.06
-7.28 0.19 1.09
-7.58 0.22 1.05
-7.59 0.24 1.05
-7.78 0.26 1.02
-7.62 0.28 1.04
-7.57 0.29 1.05
-7.71 0.32 1.03
-7.52 0.33 1.06
-7.75 0.36 1.02
-7.77 0.38 1.02
-7.88 0.40 1.00
-5.36 0.29 1.37
-4.44 0.26 1.50
-4.84 0.29 1.44
-4.58 0.29 1.48
-5.16 0.34 1.39
-4.62 0.32 1.47
-4.51 0.32 1.49
-4.48 0.33 1.49
-8.00 0.59 0.98
-8.07 0.61 0.97
-7.94 0.62 0.99
-5.15 0.43 1.39
-4.59 0.40 1.47
-8.09 0.70 0.97
-5.13 0.47 1.40
-8.30 0.76 0.94
-8.22 0.77 0.95
-8.11 0.78 0.96
-4.41 0.45 1.50
-8.27 0.83 0.94
-4.35 0.47 1.51
-8.48 0.90 0.91
-9.44 1.02 0.77
-4.61 0.53 1.47
-8.73 0.99 0.87
-8.60 1.00 0.89
-4.29 0.53 1.51
-8.70 1.05 0.87
-8.62 1.06 0.89
-8.72 1.10 0.87
-8.58 1.10 0.89
-8.64 1.13 0.88
-8.60 1.15 0.89
-8.57 1.17 0.89
-8.52 1.18 0.90
-8.53 1.20 0.89
-8.66 1.24 0.88
-8.74 1.28 0.86
-9.30 1.38 0.78
-9.39 1.42 0.77
-9.13 1.40 0.81
-9.38 1.46 0.77
-9.31 1.47 0.78
-9.43 1.52 0.76
-9.25 1.51 0.78
-9.25 1.54 0.78
-9.32 1.57 0.77
-9.46 1.62 0.75
-9.46 1.64 0.75
-1.57 -1.18 1.60
-2.29 -1.21 1.50
-5.75 -1.20 1.00
-6.43 -1.27 0.90
-5.90 -1.14 0.98
-5.34 -1.04 1.06
-6.44 -1.11 0.90
-5.71 -0.94 1.01
-7.20 -0.88 0.79
-5.34 -0.67 1.06
-6.62 -0.76 0.88
-5.50 -0.65 1.04
-5.48 -0.63 1.04
-5.44 -0.61 1.05
-5.66 -0.61 1.02
-5.29 -0.56 1.07
-5.48 -0.56 1.04
-5.31 -0.53 1.07
-5.34 -0.51 1.07
-5.36 -0.49 1.06
-5.42 -0.48 1.05
-5.47 -0.46 1.05
-5.66 -0.45 1.02
-5.26 -0.42 1.08
-5.27 -0.40 1.08
-5.25 -0.38 1.08
-5.18 -0.36 1.09
-5.65 -0.36 1.02
-6.60 -0.38 0.88
-6.52 -0.36 0.90
-4.71 -0.27 1.16
-10.14 -0.44 0.37
-6.25 -0.21 1.24
-8.58 -0.26 0.91
-8.74 -0.24 0.89
-7.11 -0.16 1.12
-10.53 -0.22 0.63
-10.68 -0.19 0.61
-8.16 -0.13 0.97
-10.76 -0.14 0.60
-8.50 -0.09 0.92
-10.20 -0.08 0.68
-10.83 -0.06 0.59
-7.58 -0.03 1.05
-10.62 -0.01 0.62
-9.73 0.01 0.34
-8.91 0.06 0.46
-6.33 0.38 0.85
-7.63 0.45 0.98
-4.12 0.27 1.51
-4.07 0.30 1.52
-8.33 0.71 0.87
-8.39 0.76 0.86
-8.13 0.76 0.90
-8.24 0.91 0.88
-9.93 1.14 0.62
-8.66 1.07 0.81
-8.38 1.12 0.85
-8.31 1.13 0.86
-9.49 1.59 0.67
-3.41 0.85 1.60
-10.63 -0.49 0.20
-10.44 -0.45 0.23
-9.98 -0.11 0.30
-9.95 -0.05 0.30
-9.69 -0.02 0.34
-10.33 0.02 0.49
-10.09 0.04 0.53
-10.50 0.07 0.46
-9.80 0.11 0.58
-7.43 0.11 0.95
-7.30 0.12 0.97
-7.74 0.17 0.90
-7.31 0.18 0.97
-7.20 0.19 0.99
-7.47 0.22 0.94
-7.44 0.23 0.95
-7.20 0.25 0.99
-3.99 0.15 1.50
-7.35 0.29 0.96
-4.38 0.19 1.43
-4.11 0.19 1.48
-7.49 0.35 0.94
-4.21 0.21 1.46
-7.59 0.39 0.92
-7.49 0.40 0.94
-4.41 0.26 1.43
-4.31 0.26 1.44
-4.19 0.27 1.46
-4.45 0.31 1.42
-4.49 0.32 1.41
-4.18 0.31 1.46
-4.27 0.33 1.45
-4.30 0.34 1.44
-4.28 0.35 1.45
-4.25 0.36 1.45
-4.48 0.40 1.41
-7.72 0.69 0.90
-4.20 0.40 1.46
-4.53 0.44 1.40
-4.63 0.46 1.39
-8.18 0.81 0.82
-4.31 0.47 1.44
-8.12 0.86 0.83
-8.07 0.88 0.84
-8.04 0.90 0.84
-4.25 0.50 1.45
-8.39 0.97 0.78
-8.39 1.00 0.78
-9.24 1.11 0.65
-4.52 0.58 1.40
-8.37 1.06 0.78
-8.49 1.09 0.76
-8.61 1.13 0.74
-8.79 1.17 0.72
-8.28 1.13 0.80
-8.76 1.24 0.72
-8.91 1.28 0.69
-8.70 1.27 0.73
-8.97 1.35 0.68
-9.22 1.42 0.64
-9.35 1.46 0.62
-9.36 1.48 0.62
-9.41 1.51 0.61
-9.62 1.57 0.57
-9.41 1.56 0.61
-9.48 1.60 0.59
-9.48 1.62 0.59
-9.68 1.68 0.56
-9.54 1.68 0.58
-6.33 -1.32 0.78
-5.61 -1.19 0.90
-6.17 -1.22 0.81
-6.08 -1.16 0.82
-6.49 -1.20 0.76
-6.19 -1.14 0.80
-6.43 -1.15 0.77
-6.35 -1.03 0.78
-6.75 -1.06 0.72
-9.15 -1.25 0.33
-7.64 -1.04 0.57
-7.34 -0.99 0.62
-7.82 -1.01 0.54
-7.24 -0.91 0.64
-7.29 -0.89 0.63
-7.22 -0.86 0.64
-5.53 -0.62 0.91
-5.77 -0.60 0.88
-5.38 -0.53 0.94
-5.56 -0.53 0.91
-5.29 -0.47 0.95
-5.23 -0.45 0.96
-4.78 -0.39 1.04
-11.55 -0.60 0.30
-11.16 -0.31 0.36
-10.46 -0.27 0.47
-7.57 -0.17 0.93
-10.57 -0.22 0.46
-7.46 -0.13 0.95
-10.41 -0.14 0.48
-10.35 -0.08 0.49
-10.46 -0.06 0.47
-10.34 -0.03 0.49
-5.47 0.00 0.86
-5.62 0.02 0.84
-5.38 0.04 0.88
-7.64 0.07 0.86
-7.26 0.08 0.92
-7.41 0.11 0.89
-7.25 0.12 0.92
-4.15 0.08 1.44
-3.98 0.09 1.47
-8.10 0.19 0.78
-7.22 0.19 0.93
-3.96 0.12 1.47
-4.22 0.14 1.43
-4.13 0.15 1.44
-3.98 0.15 1.47
-4.23 0.17 1.42
-4.03 0.17 1.46
-4.17 0.19 1.43
-4.24 0.20 1.42
-4.26 0.22 1.42
-4.29 0.23 1.41
-4.23 0.24 1.42
-4.31 0.25 1.41
-4.23 0.26 1.42
-4.42 0.28 1.39
-4.28 0.28 1.41
-4.41 0.30 1.39
-4.25 0.30 1.42
-4.40 0.32 1.39
-4.22 0.32 1.42
-4.40 0.35 1.39
-4.41 0.36 1.39
-4.34 0.37 1.40
-4.41 0.38 1.39
-4.26 0.38 1.41
-4.61 0.42 1.35
-4.39 0.41 1.39
-4.26 0.42 1.41
-4.33 0.43 1.40
-4.31 0.44 1.40
-4.34 0.46 1.40
-4.59 0.49 1.36
-4.47 0.49 1.37
-4.46 0.50 1.38
-4.44 0.51 1.38
-4.39 0.52 1.39
-4.45 0.53 1.38
-8.57 1.01 0.69
-8.51 1.03 0.69
-3.90 0.50 1.47
-8.49 1.07 0.70
-8.44 1.08 0.70
-8.68 1.13 0.66
-8.54 1.14 0.69
-8.74 1.19 0.65
-8.73 1.21 0.65
-8.62 1.21 0.67
-8.61 1.23 0.67
-8.51 1.24 0.69
-8.56 1.27 0.68
-8.58 1.30 0.67
-8.93 1.37 0.62
-8.84 1.38 0.63
-8.84 1.40 0.63
-8.96 1.44 0.61
-9.33 1.52 0.54
-9.49 1.57 0.52
-9.41 1.58 0.53
-9.65 1.65 0.49
-9.52 1.65 0.51
-9.32 1.64 0.54
-1.58 -1.33 1.50
-1.46 -1.22 1.52
-1.37 -1.17 1.54
-1.40 -1.17 1.54
-1.59 -1.21 1.50
-1.74 -1.21 1.48
-1.92 -1.21 1.45
-1.66 -1.12 1.49
-1.88 -1.13 1.46
-2.15 -1.20 1.41
-2.09 -1.15 1.42
-2.17 -1.01 1.41
-2.23 -0.98 1.40
-1.88 -0.71 1.47
-1.87 -0.67 1.47
-5.63 -1.23 0.83
-5.26 -1.16 0.89
-5.50 -1.18 0.85
-5.53 -1.14 0.85
-5.77 -1.16 0.81
-5.91 -1.16 0.78
-6.20 -1.16 0.74
-5.79 -1.08 0.81
-5.87 -1.07 0.79
-4.12 -0.83 1.09
-7.06 -1.12 0.59
-6.95 -1.06 0.61
-7.40 -1.06 0.54
-3.99 -0.68 1.11
-4.28 -0.69 1.06
-7.45 -0.93 0.53
-7.13 -0.88 0.58
-7.24 -0.84 0.56
-7.58 -0.80 0.51
-6.54 -0.67 0.68
-5.38 -0.57 0.88
-5.39 -0.53 0.88
-5.10 -0.49 0.93
-5.14 -0.48 0.92
-5.08 -0.46 0.93
-5.13 -0.44 0.92
-5.10 -0.42 0.93
-4.91 -0.39 0.96
-5.00 -0.38 0.94
-4.94 -0.36 0.95
-4.63 -0.33 1.01
-4.88 -0.32 0.96
-4.76 -0.30 0.98
-5.38 -0.31 0.88
-5.19 -0.29 0.91
-5.90 -0.29 0.79
-4.72 -0.23 0.99
-4.82 -0.22 0.97
-4.76 -0.20 0.98
-4.49 -0.18 1.03
-4.46 -0.16 1.03
-5.07 -0.16 0.93
-4.93 -0.14 0.95
-5.21 -0.12 0.91
-5.59 -0.11 0.84
-5.25 -0.09 0.90
-5.28 -0.07 0.89
-5.56 -0.05 0.85
-5.56 -0.04 0.85
-5.66 -0.02 0.83
-7.08 0.01 0.89
-7.55 0.03 0.81
-7.60 0.05 0.80
-7.32 0.07 0.85
-7.17 0.08 0.87
-7.11 0.10 0.88
-6.90 0.12 0.92
-7.18 0.14 0.87
-7.02 0.15 0.90
-6.75 0.16 0.94
-7.94 0.21 0.74
-6.83 0.20 0.93
-7.12 0.22 0.88
-7.28 0.25 0.85
-4.16 0.16 1.40
-7.22 0.28 0.86
-7.34 0.30 0.84
-4.51 0.21 1.34
-4.24 0.21 1.38
-4.58 0.23 1.32
-4.10 0.22 1.41
-4.18 0.23 1.39
-7.23 0.41 0.86
-7.29 0.43 0.85
-4.65 0.29 1.31
-4.93 0.32 1.26
-7.30 0.48 0.84
-7.61 0.52 0.79
-7.41 0.53 0.82
-7.58 0.56 0.79
-7.40 0.57 0.82
-4.42 0.36 1.35
-4.56 0.38 1.32
-4.63 0.40 1.31
-4.54 0.40 1.33
-4.83 0.44 1.27
-7.45 0.68 0.81
-7.79 0.73 0.75
-4.53 0.45 1.33
-4.63 0.47 1.31
-5.04 0.52 1.23
-7.88 0.82 0.73
-4.75 0.52 1.28
-8.00 0.87 0.71
-4.91 0.56 1.26
-8.15 0.92 0.69
-4.60 0.55 1.31
-4.50 0.55 1.33
-4.75 0.59 1.28
-8.18 1.01 0.68
-8.53 1.07 0.62
-8.13 1.05 0.68
-8.02 1.05 0.70
-8.26 1.11 0.66
-8.25 1.12 0.66
-8.45 1.17 0.63
-8.39 1.18 0.64
-8.66 1.24 0.59
-8.58 1.25 0.60
-8.66 1.29 0.59
-8.66 1.31 0.59
-8.64 1.33 0.59
-8.78 1.37 0.56
-8.72 1.38 0.57
-8.99 1.45 0.52
-9.13 1.49 0.50
-9.05 1.50 0.51
-9.10 1.53 0.50
-8.84 1.51 0.55
-9.20 1.60 0.48
-9.17 1.62 0.49
-9.10 1.63 0.50
-2.77 -1.54 1.25
-2.69 -1.42 1.27
-2.35 -1.21 1.34
-2.88 -1.32 1.24
-4.86 -1.20 0.90
-5.15 -1.21 0.85
-5.05 -1.18 0.87
-5.08 -1.17 0.86
-5.04 -1.14 0.87
-5.01 -1.12 0.87
-5.37 -1.16 0.81
-5.28 -1.13 0.82
-4.99 -1.07 0.88
-5.18 -1.08 0.84
-5.02 -1.03 0.87
-5.11 -1.03 0.86
-5.56 -1.07 0.78
-5.50 -1.04 0.79
-5.85 -1.07 0.73
-5.70 -1.03 0.75
-5.62 -1.00 0.77
-5.81 -1.01 0.73
-6.19 -1.03 0.67
-6.56 -1.06 0.60
-7.27 -1.12 0.48
-7.28 -1.07 0.47
-7.52 -1.05 0.43
-6.83 -0.96 0.55
-4.65 -0.71 0.94
-7.49 -0.98 0.44
-4.39 -0.66 0.99
-4.49 -0.65 0.97
-5.20 -0.68 0.85
-5.25 -0.65 0.84
-4.86 -0.60 0.91
-4.84 -0.53 0.91
-5.13 -0.53 0.86
-5.39 -0.53 0.81
-4.71 -0.47 0.93
-4.82 -0.46 0.91
-4.89 -0.45 0.90
-5.00 -0.43 0.88
-5.09 -0.42 0.87
-4.92 -0.40 0.89
-4.62 -0.36 0.95
-4.58 -0.34 0.96
-4.79 -0.34 0.92
-4.74 -0.32 0.93
-4.59 -0.30 0.95
-4.50 -0.28 0.97
-4.38 -0.25 0.99
-4.77 -0.25 0.92
-5.16 -0.25 0.85
-4.99 -0.23 0.88
-5.53 -0.22 0.79
-4.47 -0.18 0.98
-4.41 -0.16 0.99
-4.94 -0.15 0.89
-4.76 -0.13 0.92
-4.73 -0.12 0.93
-7.49 -0.10 0.82
-6.94 -0.07 0.91
-7.14 -0.06 0.88
-7.17 -0.04 0.87
-6.92 -0.02 0.92
-6.66 -0.00 0.96
-1.53 0.00 1.46
-4.97 0.02 0.82
-2.23 0.02 1.33
-4.98 0.05 0.82
-5.02 0.07 0.81
-5.30 0.09 0.76
-4.94 0.11 0.83
-5.96 0.16 0.64
-5.51 0.17 0.72
-5.63 0.19 0.70
-6.01 0.22 0.63
-4.06 0.13 1.38
-4.02 0.14 1.39
-4.07 0.15 1.38
-4.05 0.17 1.38
-4.09 0.19 1.37
-4.04 0.20 1.38
-4.08 0.21 1.37
-4.31 0.23 1.33
-4.31 0.24 1.33
-4.16 0.25 1.36
-4.21 0.27 1.35
-4.14 0.27 1.36
-4.23 0.29 1.34
-4.42 0.31 1.31
-4.18 0.31 1.35
-4.09 0.31 1.37
-7.55 0.59 0.73
-4.39 0.37 1.31
-4.47 0.38 1.30
-4.40 0.39 1.31
-7.66 0.68 0.71
-4.29 0.41 1.33
-4.53 0.44 1.28
-4.45 0.45 1.30
-7.86 0.79 0.67
-4.31 0.46 1.32
-4.28 0.47 1.33
-9.67 1.04 0.33
-4.26 0.49 1.33
-4.54 0.53 1.28
-7.98 0.95 0.64
-4.56 0.57 1.28
-4.43 0.57 1.30
-8.10 1.02 0.62
-7.91 1.02 0.65
-7.98 1.05 0.64
-8.22 1.10 0.59
-3.71 0.54 1.43
-8.61 1.21 0.52
-8.41 1.21 0.55
-8.41 1.23 0.55
-8.30 1.23 0.57
-8.24 1.25 0.58
-8.68 1.33 0.50
-8.57 1.36 0.52
-9.08 1.46 0.42
-8.95 1.46 0.45
-8.97 1.49 0.44
-8.98 1.51 0.44
-9.53 1.62 0.34
-9.50 1.64 0.34
-9.19 1.64 0.40
-9.33 1.69 0.37
-9.20 1.69 0.39
-1.10 -1.43 1.51
-0.75 -1.28 1.58
-2.02 -1.55 1.34
-2.05 -1.55 1.34
-2.00 -1.48 1.35
-1.26 -1.19 1.50
-1.94 -1.36 1.37
-2.01 -1.35 1.35
-2.18 -1.26 1.33
-2.13 -1.22 1.34
-2.17 -1.22 1.33
-2.18 -1.20 1.33
-2.13 -1.16 1.34
-2.06 -1.13 1.35
-1.71 -1.03 1.42
-4.95 -1.18 0.82
-5.17 -1.18 0.78
-5.13 -1.14 0.79
-5.10 -1.11 0.79
-5.13 -1.10 0.79
-5.09 -1.08 0.79
-4.93 -1.04 0.82
-4.99 -1.03 0.81
-5.30 -1.05 0.76
-5.52 -1.06 0.72
-5.21 -0.99 0.78
-5.72 -1.03 0.68
-5.58 -1.00 0.71
-5.52 -0.97 0.72
-5.69 -0.97 0.69
-6.53 -1.01 0.53
-7.37 -1.08 0.37
-5.53 -0.86 0.72
-7.66 -1.02 0.32
-7.28 -0.87 0.39
-6.10 -0.74 0.61
-6.13 -0.72 0.61
-4.59 -0.48 0.89
-4.74 -0.45 0.87
-4.88 -0.43 0.84
-5.03 -0.40 0.81
-4.94 -0.38 0.83
-4.70 -0.35 0.87
-4.75 -0.34 0.86
-4.55 -0.31 0.90
-4.61 -0.30 0.89
-4.35 -0.25 0.94
-4.51 -0.24 0.91
-4.76 -0.24 0.86
-4.55 -0.21 0.90
-4.88 -0.20 0.84
-5.26 -0.20 0.77
-4.63 -0.16 0.89
-5.20 -0.16 0.78
-5.10 -0.12 0.80
-5.77 -0.11 0.67
-5.39 -0.09 0.75
-5.42 -0.07 0.74
-5.17 -0.05 0.78
-5.07 -0.03 0.80
-7.16 0.01 0.74
-7.01 0.03 0.77
-6.76 0.04 0.82
-6.85 0.06 0.80
-6.79 0.08 0.81
-6.72 0.09 0.83
-6.99 0.12 0.78
-6.83 0.15 0.80
-6.77 0.16 0.82
-6.71 0.18 0.83
-6.94 0.20 0.78
-7.14 0.23 0.74
-6.99 0.24 0.77
-7.00 0.26 0.77
-6.94 0.27 0.78
-7.06 0.29 0.76
-6.92 0.30 0.79
-7.04 0.33 0.76
-7.09 0.35 0.75
-7.10 0.37 0.75
-7.30 0.39 0.71
-7.27 0.41 0.72
-4.48 0.28 1.25
-7.08 0.45 0.75
-7.25 0.48 0.72
-7.34 0.50 0.70
-4.79 0.35 1.19
-4.85 0.37 1.18
-7.32 0.56 0.70
-7.20 0.57 0.73
-7.10 0.58 0.75
-4.80 0.43 1.19
-7.52 0.67 0.66
-5.07 0.47 1.14
-5.13 0.51 1.12
-8.07 0.82 0.55
-8.04 0.85 0.56
-7.41 0.81 0.68
-8.00 0.89 0.56
-7.73 0.90 0.61
-7.81 0.93 0.60
-7.95 0.96 0.57
-8.06 1.02 0.55
-8.27 1.06 0.51
-8.07 1.06 0.55
-8.19 1.12 0.52
-8.21 1.14 0.52
-8.26 1.17 0.51
-8.27 1.21 0.50
-8.35 1.24 0.49
-8.52 1.29 0.45
-8.50 1.31 0.46
-8.47 1.32 0.46
-8.61 1.39 0.43
-8.32 1.39 0.49
-9.25 1.56 0.30
-9.00 1.54 0.35
-8.99 1.59 0.35
-2.50 -1.28 1.22
-2.64 -1.12 1.20
-3.39 -1.18 1.05
-5.33 -1.23 0.68
-5.06 -1.17 0.73
-5.08 -1.15 0.73
-5.23 -1.16 0.70
-4.99 -1.10 0.75
-4.98 -1.08 0.75
-5.03 -1.07 0.74
-5.17 -1.07 0.71
-5.12 -1.05 0.72
-5.15 -1.03 0.72
-5.15 -1.02 0.72
-5.34 -1.03 0.68
-5.23 -0.99 0.70
-5.25 -0.98 0.70
-5.16 -0.95 0.72
-5.10 -0.92 0.73
-5.40 -0.94 0.67
-4.99 -0.87 0.75
-5.04 -0.86 0.74
-4.87 -0.82 0.77
-4.88 -0.81 0.77
-6.64 -0.98 0.43
-4.75 -0.76 0.80
-6.29 -0.90 0.50
-6.54 -0.91 0.45
-6.73 -0.90 0.41
-6.04 -0.82 0.55
-5.16 -0.71 0.72
-6.18 -0.77 0.52
-7.32 -0.85 0.30
-6.41 -0.71 0.48
-5.63 -0.62 0.63
-6.07 -0.64 0.54
-6.17 -0.62 0.52
-6.03 -0.60 0.55
-5.61 -0.55 0.63
-5.33 -0.51 0.69
-5.27 -0.49 0.70
-4.93 -0.45 0.77
-4.89 -0.43 0.77
-4.45 -0.39 0.86
-4.82 -0.39 0.79
-4.83 -0.38 0.78
-4.56 -0.34 0.84
-4.61 -0.33 0.83
-4.93 -0.33 0.77
-5.33 -0.33 0.69
-5.44 -0.31 0.67
-5.33 -0.29 0.69
-8.37 -0.30 0.51
-7.16 -0.24 0.75
-6.23 -0.19 0.92
-6.33 -0.18 0.91
-5.93 -0.15 0.98
-6.27 -0.15 0.92
-8.23 -0.17 0.54
-7.69 -0.14 0.64
-6.91 -0.11 0.79
-7.11 -0.09 0.75
-6.97 -0.08 0.78
-6.95 -0.06 0.79
-7.32 -0.04 0.71
-7.48 -0.03 0.68
-7.21 -0.01 0.73
-4.72 0.05 0.75
-4.83 0.07 0.72
-2.30 0.20 1.23
-1.91 0.19 1.31
-4.17 0.22 1.28
-4.33 0.29 1.25
-4.28 0.30 1.26
-6.64 0.49 0.78
-4.47 0.38 1.21
-7.96 0.68 0.51
-7.54 0.72 0.59
-7.91 0.82 0.52
-8.08 0.85 0.48
-7.40 0.80 0.62
-7.50 0.83 0.60
-7.68 0.87 0.56
-7.68 0.89 0.56
-8.06 1.01 0.48
-8.16 1.05 0.46
-7.93 1.08 0.50
-8.46 1.19 0.39
-8.59 1.23 0.37
-8.68 1.26 0.35
-8.57 1.27 0.37
-8.69 1.31 0.34
-8.96 1.37 0.29
-8.80 1.37 0.32
-9.18 1.45 0.24
-8.75 1.43 0.33
-8.87 1.52 0.30
-8.98 1.63 0.27
-1.87 -1.24 1.31
-2.16 -1.17 1.25
-2.01 -1.12 1.29
-1.90 -1.06 1.31
-1.71 -0.98 1.35
-1.66 -0.95 1.36
-2.15 -0.98 1.26
-4.75 -0.89 0.74
-4.56 -0.83 0.78
-4.18 -0.28 0.86
-4.74 -0.12 0.74
-0.88 -0.02 1.53
-1.27 -0.01 1.45
-5.91 0.01 0.87
-5.89 0.02 0.88
-6.01 0.04 0.85
-5.87 0.05 0.88
-6.04 0.07 0.84
-6.14 0.09 0.82
-6.48 0.11 0.75
-6.52 0.12 0.74
-6.57 0.14 0.73
-6.82 0.16 0.68
-6.62 0.18 0.72
-6.66 0.19 0.71
-3.93 0.13 1.28
-6.40 0.22 0.76
-6.70 0.25 0.70
-6.67 0.26 0.71
-6.51 0.27 0.74
-6.29 0.28 0.79
-6.73 0.31 0.69
-7.20 0.35 0.59
-6.85 0.35 0.67
-6.78 0.37 0.68
-7.05 0.40 0.62
-6.96 0.41 0.64
-4.66 0.29 1.13
-4.59 0.30 1.14
-4.76 0.33 1.10
-4.58 0.33 1.14
-4.55 0.34 1.15
-4.96 0.38 1.06
-4.60 0.36 1.14
-4.74 0.38 1.11
-4.68 0.39 1.12
-4.69 0.41 1.12
-4.57 0.41 1.14
-4.68 0.43 1.12
-4.62 0.44 1.13
-7.04 0.66 0.62
-7.23 0.70 0.58
-4.97 0.50 1.06
-7.23 0.73 0.58
-7.28 0.76 0.57
-7.37 0.78 0.55
-7.42 0.81 0.53
-7.51 0.84 0.51
-7.59 0.87 0.50
-7.65 0.89 0.48
-7.75 0.92 0.46
-7.86 0.95 0.44
-7.70 0.96 0.47
-8.03 1.01 0.40
-8.20 1.05 0.36
-7.85 1.03 0.44
-8.25 1.10 0.35
-8.04 1.10 0.40
-8.29 1.15 0.34
-8.37 1.18 0.32
-8.32 1.20 0.33
-8.46 1.24 0.30
-8.63 1.28 0.27
-8.44 1.28 0.31
-8.53 1.31 0.29
-8.49 1.33 0.29
-8.47 1.35 0.30
-8.53 1.38 0.28
-8.64 1.42 0.26
-8.66 1.44 0.25
-8.62 1.46 0.26
-2.51 -1.23 1.13
-2.92 -1.26 1.04
-3.01 -1.26 1.02
-3.30 -1.32 0.96
-2.70 -1.15 1.09
-2.68 -1.13 1.10
-2.99 -1.19 1.03
-2.83 -1.14 1.06
-3.10 -1.19 1.01
-3.11 -1.18 1.01
-3.05 -1.15 1.02
-3.41 -1.21 0.94
-3.39 -1.20 0.95
-3.38 -1.15 0.95
-3.27 -1.12 0.97
-3.57 -1.15 0.91
-3.35 -1.09 0.96
-3.81 -1.16 0.86
-3.77 -1.14 0.87
-3.42 -1.06 0.94
-4.13 -1.10 0.79
-3.85 -1.02 0.85
-4.87 -1.12 0.64
-4.78 -1.09 0.66
-4.61 -1.04 0.69
-5.23 -1.12 0.56
-4.44 -0.99 0.73
-5.86 -1.17 0.43
-5.01 -1.04 0.61
-5.34 -1.06 0.54
-5.66 -1.09 0.47
-4.98 -0.98 0.62
-4.29 -0.87 0.76
-5.08 -0.96 0.60
-5.05 -0.93 0.60
-4.72 -0.88 0.67
-5.24 -0.92 0.56
-4.20 -0.78 0.78
-4.38 -0.78 0.75
-5.09 -0.85 0.59
-6.56 -1.00 0.28
-6.39 -0.96 0.32
-6.16 -0.91 0.37
-6.31 -0.88 0.34
-4.66 -0.70 0.69
-3.83 -0.60 0.86
-4.37 -0.62 0.75
-4.89 -0.65 0.64
-5.76 -0.71 0.46
-3.79 -0.53 0.87
-3.86 -0.52 0.86
-3.61 -0.48 0.91
-5.61 -0.62 0.49
-3.54 -0.45 0.93
-5.94 -0.61 0.42
-5.86 -0.58 0.43
-5.64 -0.55 0.48
-5.07 -0.49 0.60
-4.22 -0.42 0.78
-4.35 -0.41 0.76
-4.61 -0.41 0.70
-4.42 -0.39 0.74
-6.74 -0.38 0.70
-6.73 -0.36 0.70
-6.62 -0.33 0.72
-6.66 -0.32 0.72
-6.41 -0.29 0.77
-6.63 -0.29 0.72
-5.85 -0.22 0.89
-7.08 -0.25 0.63
-7.09 -0.24 0.62
-5.95 -0.18 0.86
-5.61 -0.16 0.93
-5.85 -0.15 0.88
-6.08 -0.14 0.84
-6.32 -0.13 0.79
-6.16 -0.11 0.82
-7.23 -0.11 0.59
-5.87 -0.08 0.88
-5.79 -0.06 0.90
-5.93 -0.05 0.87
-5.98 -0.04 0.86
-5.80 -0.02 0.89
-5.94 -0.00 0.86
-1.78 0.00 1.26
-4.94 0.02 0.56
-2.07 0.02 1.20
-6.03 0.06 0.79
-5.97 0.07 0.80
-6.11 0.09 0.77
-6.19 0.10 0.75
-6.31 0.12 0.73
-4.17 0.09 1.19
-4.04 0.10 1.22
-3.86 0.11 1.26
-4.06 0.12 1.22
-3.97 0.13 1.24
-3.90 0.14 1.25
-3.99 0.15 1.23
-3.99 0.16 1.23
-6.33 0.26 0.72
-3.94 0.18 1.24
-4.23 0.20 1.18
-6.67 0.33 0.64
-6.37 0.33 0.71
-6.57 0.36 0.66
-4.76 0.27 1.06
-4.82 0.29 1.05
-4.76 0.30 1.06
-4.40 0.29 1.14
-4.21 0.29 1.18
-4.41 0.31 1.14
-4.59 0.34 1.10
-4.49 0.34 1.12
-4.63 0.36 1.09
-4.55 0.37 1.10
-4.57 0.38 1.10
-4.56 0.39 1.10
-4.30 0.38 1.16
-4.55 0.42 1.10
-4.85 0.45 1.03
-4.42 0.43 1.13
-6.99 0.67 0.56
-4.82 0.49 1.04
-4.92 0.51 1.02
-7.49 0.78 0.45
-7.51 0.80 0.44
-7.40 0.80 0.47
-4.21 0.49 1.17
-7.70 0.88 0.40
-7.82 0.91 0.37
-3.53 0.44 1.32
-7.79 0.94 0.38
-3.45 0.45 1.34
-3.88 0.51 1.24
-4.03 0.54 1.21
-4.49 0.61 1.11
-4.38 0.61 1.13
-3.22 -1.18 0.93
-3.16 -1.16 0.95
-3.17 -1.15 0.94
-3.37 -1.17 0.90
-3.11 -1.11 0.96
-3.11 -1.09 0.96
-3.09 -1.08 0.96
-3.25 -1.10 0.93
-3.18 -1.07 0.94
-3.22 -1.06 0.94
-3.21 -1.05 0.94
-3.19 -1.03 0.94
-3.25 -1.03 0.93
-3.24 -1.01 0.93
-3.10 -0.97 0.96
-2.76 -0.90 1.04
-2.88 -0.91 1.01
-3.17 -0.95 0.95
-3.15 -0.93 0.95
-3.13 -0.91 0.96
-3.19 -0.89 0.95
-4.31 -1.05 0.69
-3.96 -0.98 0.77
-4.16 -0.99 0.73
-3.80 -0.91 0.81
-4.12 -0.94 0.74
-4.22 -0.94 0.72
-4.08 -0.90 0.75
-5.20 -1.04 0.50
-5.43 -1.05 0.45
-5.68 -1.07 0.39
-5.45 -1.02 0.44
-5.65 -1.03 0.40
-4.96 -0.92 0.55
-4.54 -0.85 0.65
-4.59 -0.84 0.64
-4.26 -0.78 0.71
-6.08 -0.90 0.31
-5.64 -0.83 0.41
-4.10 -0.66 0.75
-5.83 -0.81 0.36
-5.60 -0.77 0.42
-5.66 -0.76 0.40
-5.68 -0.74 0.40
-3.16 -0.50 0.96
-3.22 -0.49 0.94
-3.32 -0.48 0.92
-3.19 -0.46 0.95
-3.43 -0.46 0.90
-5.73 -0.63 0.39
-5.69 -0.61 0.40
-3.88 -0.46 0.80
-5.72 -0.57 0.39
-5.41 -0.53 0.46
-4.27 -0.44 0.71
-4.69 -0.45 0.62
-4.28 -0.41 0.71
-4.45 -0.40 0.67
-3.63 -0.34 0.85
-4.10 -0.35 0.75
-4.38 -0.35 0.69
-4.38 -0.33 0.69
-5.55 -0.37 0.43
-4.64 -0.31 0.63
-4.60 -0.29 0.64
-4.31 -0.27 0.70
-4.65 -0.27 0.63
-4.62 -0.25 0.63
-4.21 -0.22 0.73
-4.47 -0.21 0.67
-4.57 -0.20 0.64
-4.53 -0.18 0.65
-4.61 -0.16 0.63
-4.68 -0.15 0.62
-4.70 -0.13 0.62
-4.69 -0.12 0.62
-4.83 -0.10 0.59
-4.56 -0.08 0.65
-4.92 -0.02 0.57
-5.90 0.05 0.75
-6.24 0.07 0.67
-6.00 0.08 0.73
-6.28 0.10 0.66
-6.26 0.12 0.67
-6.26 0.14 0.67
-6.30 0.15 0.66
-6.31 0.17 0.66
-6.34 0.18 0.65
-6.26 0.20 0.67
-6.52 0.22 0.61
-6.49 0.24 0.61
-6.49 0.25 0.61
-6.42 0.27 0.63
-6.52 0.29 0.61
-6.60 0.31 0.59
-6.78 0.33 0.55
-6.66 0.34 0.57
-6.56 0.35 0.59
-6.73 0.38 0.56
-6.56 0.39 0.59
-6.79 0.42 0.54
-6.81 0.44 0.53
-6.81 0.45 0.53
-6.99 0.48 0.49
-6.86 0.49 0.52
-7.24 0.53 0.43
-7.29 0.56 0.42
-7.22 0.57 0.44
-7.20 0.59 0.44
-7.05 0.59 0.48
-7.06 0.61 0.47
-7.06 0.63 0.47
-7.25 0.66 0.43
-7.38 0.69 0.40
-7.18 0.69 0.44
-7.24 0.72 0.43
-7.29 0.74 0.42
-7.42 0.77 0.39
-4.41 0.64 1.07
-4.31 0.63 1.10
-3.59 -1.02 0.79
-4.49 -1.08 0.59
-4.61 -1.06 0.56
-4.46 -1.02 0.59
-4.66 -1.03 0.55
-4.78 -1.00 0.52
-5.50 -0.97 0.35
-5.32 -0.91 0.40
-5.48 -0.91 0.36
-5.67 -0.88 0.32
-5.64 -0.83 0.32
-5.66 -0.70 0.32
-5.61 -0.64 0.33
-5.69 -0.61 0.31
-5.66 -0.59 0.32
-5.65 -0.53 0.32
-4.68 -0.45 0.55
-4.72 -0.40 0.54
-5.79 -0.39 0.29
-5.41 -0.35 0.38
-5.42 -0.33 0.38
-5.10 -0.30 0.45
-5.22 -0.29 0.42
-4.98 -0.26 0.48
-4.55 -0.23 0.58
-4.60 -0.21 0.57
-5.06 -0.21 0.46
-5.20 -0.20 0.43
-4.89 -0.17 0.50
-4.98 -0.16 0.48
-4.92 -0.14 0.49
-4.80 -0.12 0.52
-5.87 -0.06 0.76
-1.22 -1.68 1.14
-1.30 -0.68 0.52
-3.34 0.13 0.51
-3.38 0.04 0.49
-3.07 0.59 0.49
-3.52 0.04 0.46
-3.26 0.25 0.46
-3.52 0.04 0.44
-3.12 0.77 0.44
-1.26 -1.23 0.46
-3.21 0.36 0.40
-3.25 0.17 0.29
-2.45 0.95 0.33
-3.35 0.08 0.26
-3.29 0.12 0.26
-2.71 0.81 0.26
-2.33 0.31 0.31
-2.26 0.31 0.32
-2.86 0.52 0.24
-2.24 1.03 0.28
-2.62 0.22 0.26
-2.48 0.35 0.28
-2.77 0.46 0.23
-2.39 0.37 0.29
-2.35 0.37 0.29
-2.34 0.41 0.29
-2.47 0.50 0.27
-2.43 0.50 0.28
-2.73 0.31 0.23
-2.88 0.38 0.20
-2.55 0.32 0.25
-2.47 0.34 0.26
-2.60 0.40 0.24
-2.44 0.37 0.27
-2.77 0.48 0.22
-2.37 0.39 0.28
-2.30 0.42 0.28
-2.29 0.46 0.28
-2.74 0.31 0.21
-2.55 0.32 0.24
-2.49 0.32 0.25
-2.51 0.34 0.24
-2.47 0.35 0.25
-2.42 0.35 0.26
-2.44 0.37 0.25
-2.38 0.36 0.26
-2.34 0.37 0.27
-2.33 0.40 0.27
-2.30 0.42 0.27
-2.27 0.44 0.28
-2.24 0.45 0.28
-2.23 0.50 0.28
-2.61 0.29 0.21
-2.53 0.32 0.23
-2.47 0.32 0.24
-2.64 0.39 0.20
-2.42 0.35 0.24
-2.34 0.36 0.26
-2.54 0.46 0.22
-2.33 0.40 0.26
-2.30 0.42 0.26
-2.28 0.45 0.26
-2.26 0.47 0.26
-2.12 0.53 0.28
-2.28 0.74 0.24
-2.32 0.82 0.23
-2.48 0.32 0.22
-2.44 0.32 0.23
-2.37 0.39 0.24
-2.33 0.40 0.24
-2.32 0.43 0.24
-2.28 0.46 0.25
-2.25 0.47 0.25
-2.28 0.58 0.24
-2.16 0.62 0.25
-2.50 0.12 0.21
-2.32 0.39 0.23
-2.31 0.42 0.23
-2.29 0.46 0.23
-2.24 0.45 0.24
-2.30 0.59 0.22
-2.02 0.92 0.23
-2.38 0.36 0.21
-2.28 0.44 0.22
-2.28 0.45 0.22
-2.24 0.59 0.22
-2.19 0.59 0.22
-2.30 0.42 0.21
-2.28 0.45 0.21
-2.25 0.45 0.21
-2.11 0.49 0.24
-2.21 0.62 0.20
-2.17 0.62 0.21
-2.00 0.65 0.24
-1.91 0.89 0.22
-2.21 0.48 0.21
-2.19 0.50 0.21
-2.15 0.50 0.22
-1.81 0.96 0.21
-2.14 0.49 0.21
-2.11 0.51 0.21
-2.08 0.53 0.20
-1.89 0.78 0.21
-2.01 0.55 0.21
-1.57 0.69 0.26
-0.76 -0.83 0.26
-1.89 0.56 0.22
-0.79 -0.70 0.25
-0.92 -0.71 0.26
-0.62 -0.07 0.31
-0.83 -0.79 0.21
-0.88 -0.61 0.25
-0.80 -0.50 0.27
-0.87 -0.56 0.26
-0.87 -0.60 0.24
-0.97 -0.70 0.22
-0.91 -0.54 0.23
