# .PCD v0.7 - Point Cloud Data file format
VERSION 0.7
FIELDS x y z
SIZE 4 4 4
TYPE F F F
COUNT 1 1 1
WIDTH 1567
HEIGHT 1
VIEWPOINT 0 0 0 1 0 0 0
POINTS 1567
DATA ASCII
-2.62 -0.53 2.31
-7.04 -1.37 2.33
-2.37 -1.08 2.23
-1.86 -0.59 2.22
-6.80 -1.22 2.27
-2.56 -0.54 2.23
-12.81 0.68 2.23
-12.87 0.68 2.19
-7.48 -0.24 2.17
-12.16 0.89 2.12
-3.87 0.06 2.15
-4.60 0.47 2.14
-2.44 -0.89 2.15
-3.78 0.04 2.14
-5.81 0.37 2.08
-4.79 0.42 2.04
-3.23 -0.41 2.03
-11.64 0.77 1.78
-12.02 1.58 1.76
-11.94 1.66 1.77
-11.12 1.58 1.79
-5.76 -0.93 1.92
-6.72 -0.58 1.89
-5.57 -0.32 1.93
-2.63 0.07 2.01
-11.28 1.66 1.74
-2.20 -1.21 2.02
-4.22 0.03 1.99
-11.92 0.85 1.68
-4.97 0.47 1.96
-10.96 1.56 1.71
-11.24 1.63 1.70
-7.11 -0.85 1.81
-2.87 0.06 1.96
-2.25 0.11 1.99
-2.13 0.14 1.99
-10.77 1.53 1.67
-11.21 1.68 1.65
-4.10 0.72 1.97
-2.90 -0.29 1.96
-2.75 -0.11 1.97
-4.10 0.00 1.95
-4.15 0.01 1.95
-4.11 0.03 1.95
-4.54 0.05 1.93
-4.76 0.12 1.92
-4.39 0.12 1.94
-4.42 0.15 1.94
-4.58 0.18 1.93
-4.73 0.19 1.92
-5.19 0.23 1.90
-13.41 0.58 1.50
-4.28 0.23 1.94
-6.65 0.37 1.83
-4.69 0.30 1.92
-4.61 0.30 1.93
-4.49 0.32 1.93
-4.65 0.36 1.93
-4.51 0.42 1.93
-4.38 0.44 1.94
-4.81 0.49 1.92
-4.57 0.49 1.93
-4.40 0.61 1.94
-4.44 0.66 1.93
-11.34 1.64 1.59
-11.28 1.66 1.60
-11.06 1.69 1.61
-2.33 -1.31 1.96
-2.13 -1.24 1.97
-2.49 -1.15 1.95
-2.50 -1.04 1.96
-2.54 -0.85 1.95
-2.93 -0.85 1.94
-2.64 -0.78 1.95
-3.70 -0.80 1.90
-3.64 -0.78 1.90
-3.17 -0.70 1.92
-3.46 -0.71 1.91
-3.62 -0.72 1.90
-3.19 -0.54 1.92
-3.06 -0.49 1.93
-2.99 -0.46 1.93
-3.60 -0.49 1.90
-3.49 -0.43 1.91
-3.68 -0.44 1.90
-3.02 -0.36 1.93
-3.21 -0.36 1.92
-3.88 -0.39 1.89
-3.08 -0.29 1.93
-5.20 -0.27 1.90
-4.86 -0.20 1.92
-5.03 -0.18 1.91
-4.93 -0.17 1.91
-4.72 -0.15 1.93
-4.23 -0.11 1.95
-4.63 -0.08 1.93
-4.45 -0.07 1.94
-4.34 -0.02 1.94
-4.06 -0.01 1.96
-3.02 0.22 1.99
-4.38 0.64 1.91
-11.07 1.60 1.55
-10.94 1.61 1.56
-11.31 1.69 1.54
-2.59 -0.58 1.93
-2.81 -0.37 1.92
-2.63 -0.33 1.93
-3.06 -0.22 1.91
-2.55 -0.16 1.93
-3.08 -0.16 1.91
-2.45 -0.13 1.94
-4.45 0.05 1.89
-4.65 0.17 1.88
-2.94 0.22 1.98
-4.56 0.42 1.88
-4.85 0.49 1.87
-10.91 1.42 1.51
-10.74 1.56 1.52
-11.08 1.63 1.50
-10.95 1.64 1.50
-6.20 -1.38 1.70
-7.54 -1.16 1.62
-7.27 -0.93 1.64
-4.35 -0.32 1.81
-5.10 -0.23 1.76
-12.63 -0.30 1.33
-10.90 0.05 1.37
-10.66 1.44 1.47
-3.26 0.78 1.93
-12.85 -0.73 1.24
-2.36 -0.17 1.90
-3.41 -0.15 1.84
-11.03 -0.05 1.36
-7.39 0.10 1.64
-4.34 0.09 1.85
-4.96 0.11 1.81
-9.95 0.44 1.47
-11.40 0.52 1.37
-4.45 0.29 1.84
-11.73 1.25 1.34
-11.15 1.67 1.38
-11.02 1.68 1.39
-7.08 -1.02 1.56
-3.78 -0.50 1.78
-3.03 -0.37 1.83
-4.58 -0.09 1.83
-7.96 -0.07 1.61
-10.51 0.52 1.26
-2.74 0.90 1.93
-2.08 -0.42 1.88
-7.29 0.04 1.56
-11.99 0.13 1.20
-7.25 0.12 1.57
-11.51 0.21 1.23
-11.23 0.26 1.25
-4.82 0.15 1.76
-4.97 0.16 1.75
-4.64 0.17 1.77
-4.58 0.18 1.78
-4.76 0.20 1.76
-4.73 0.21 1.76
-4.50 0.21 1.78
-4.69 0.23 1.77
-4.63 0.24 1.77
-4.26 0.28 1.80
-11.48 0.93 1.23
-11.43 1.13 1.23
-11.58 1.17 1.22
-3.89 0.53 1.83
-3.94 0.60 1.82
-10.76 1.51 1.28
-10.91 1.56 1.27
-4.49 0.72 1.78
-4.17 0.69 1.80
-3.27 -0.82 1.76
-2.39 -0.64 1.83
-2.80 -0.56 1.80
-3.59 -0.48 1.73
-3.47 -0.37 1.74
-4.10 -0.39 1.69
-3.74 -0.36 1.72
-3.63 -0.31 1.73
-8.25 -0.41 1.49
-5.08 -0.25 1.74
-5.17 -0.24 1.73
-4.89 -0.22 1.75
-5.77 -0.24 1.68
-4.79 -0.15 1.76
-15.17 -0.40 0.95
-4.76 -0.12 1.76
-4.58 -0.11 1.78
-4.25 -0.09 1.80
-4.05 -0.05 1.82
-3.90 -0.04 1.83
-4.67 -0.02 1.77
-11.13 0.15 1.20
-10.95 0.26 1.22
-4.41 0.19 1.76
-11.43 0.81 1.18
-4.81 0.43 1.73
-3.74 0.48 1.82
-11.95 1.45 1.12
-2.52 -0.67 1.79
-3.91 -0.44 1.68
-2.74 -0.20 1.78
-3.60 -0.22 1.70
-3.19 -0.20 1.74
-7.21 -0.30 1.40
-3.50 -0.12 1.71
-6.70 -0.03 1.44
-7.15 0.08 1.49
-5.30 0.08 1.65
-10.90 0.23 1.15
-4.69 0.12 1.71
-4.50 0.12 1.72
-11.42 0.32 1.10
-11.52 0.38 1.09
-10.85 0.39 1.15
-4.59 0.19 1.72
-9.54 0.39 1.27
-6.47 0.32 1.55
-4.65 0.25 1.71
-4.64 0.28 1.71
-13.10 0.79 0.95
-4.87 0.37 1.69
-4.00 0.32 1.77
-11.46 0.90 1.09
-4.53 0.40 1.72
-4.33 0.60 1.73
-4.39 0.63 1.73
-4.59 0.67 1.71
-4.32 0.64 1.73
-4.95 0.75 1.68
-4.47 0.70 1.72
-10.19 1.56 1.20
-10.50 1.63 1.17
-10.26 1.62 1.19
-10.37 1.67 1.18
-10.18 1.67 1.20
-5.24 0.92 1.65
-4.60 0.83 1.71
-4.52 0.86 1.71
-5.28 1.00 1.64
-4.65 0.91 1.70
-2.88 -0.97 1.73
-2.73 -0.92 1.74
-3.70 -0.85 1.66
-2.46 -0.66 1.77
-6.68 -1.19 1.39
-4.03 -0.46 1.63
-4.14 -0.44 1.62
-4.48 -0.45 1.59
-3.85 -0.35 1.65
-3.62 -0.25 1.67
-3.22 -0.22 1.70
-3.44 -0.22 1.68
-3.58 -0.17 1.67
-10.21 -0.12 1.21
-7.49 -0.03 1.46
-10.43 -0.02 1.19
-7.05 0.01 1.31
-2.82 0.03 1.71
-6.09 0.14 1.40
-6.07 0.18 1.40
-10.62 0.33 1.11
-10.56 0.41 1.12
-10.86 0.61 1.09
-11.21 0.66 1.05
-10.62 0.73 1.11
-11.41 0.87 1.03
-11.21 0.96 1.05
-11.55 1.05 1.02
-11.58 1.11 1.01
-3.64 0.54 1.77
-4.12 0.63 1.73
-4.04 0.63 1.73
-10.81 1.62 1.08
-10.35 1.58 1.12
-10.19 1.59 1.14
-10.12 1.60 1.14
-9.91 1.60 1.16
-9.95 1.63 1.16
-10.01 1.66 1.15
-9.91 1.67 1.16
-3.28 0.81 1.80
-3.26 1.46 1.78
-2.26 -1.36 1.75
-6.53 -1.12 1.35
-3.02 -0.42 1.69
-2.36 -0.35 1.76
-2.61 -0.31 1.73
-2.46 -0.20 1.75
-2.92 -0.19 1.70
-3.02 -0.18 1.69
-3.60 -0.17 1.64
-6.87 -0.23 1.32
-2.58 -0.10 1.73
-2.25 -0.07 1.77
-6.70 -0.12 1.34
-6.88 -0.10 1.32
-6.76 -0.08 1.33
-6.85 -0.05 1.32
-2.86 -0.02 1.71
-6.47 -0.01 1.36
-7.14 0.00 1.40
-5.10 0.02 1.60
-4.83 0.03 1.63
-4.73 0.04 1.64
-4.84 0.06 1.63
-4.92 0.07 1.62
-4.52 0.08 1.66
-7.07 0.13 1.40
-4.52 0.10 1.66
-10.67 0.25 1.03
-4.73 0.13 1.64
-4.76 0.14 1.64
-10.65 0.33 1.04
-4.52 0.16 1.66
-4.50 0.17 1.66
-9.93 0.38 1.11
-5.00 0.22 1.61
-6.65 0.35 1.44
-6.39 0.35 1.47
-6.49 0.38 1.46
-6.11 0.37 1.50
-5.03 0.34 1.61
-6.46 0.44 1.46
-6.02 0.43 1.51
-10.98 0.81 1.00
-5.87 0.50 1.52
-4.85 0.48 1.62
-11.66 1.21 0.93
-4.03 0.53 1.71
-4.37 0.58 1.67
-4.43 0.60 1.66
-4.30 0.59 1.68
-4.71 0.68 1.63
-4.18 0.63 1.69
-10.36 1.45 1.05
-4.44 0.68 1.66
-4.47 0.70 1.66
-4.71 0.75 1.63
-4.58 0.74 1.65
-10.17 1.56 1.07
-10.54 1.64 1.03
-10.13 1.61 1.07
-4.47 0.78 1.66
-10.08 1.65 1.08
-10.10 1.68 1.08
-9.88 1.67 1.10
-4.54 0.84 1.65
-4.72 0.95 1.63
-2.76 -0.92 1.68
-3.73 -0.99 1.58
-6.50 -1.29 1.30
-3.52 -0.81 1.61
-6.93 -1.29 1.25
-3.01 -0.66 1.66
-3.50 -0.62 1.61
-3.58 -0.58 1.60
-2.88 -0.49 1.67
-3.44 -0.48 1.62
-3.17 -0.36 1.64
-4.17 -0.41 1.54
-3.58 -0.35 1.60
-4.01 -0.36 1.56
-3.82 -0.29 1.58
-3.74 -0.27 1.58
-3.77 -0.26 1.58
-3.58 -0.24 1.60
-4.25 -0.25 1.53
-3.32 -0.19 1.63
-5.49 -0.20 1.56
-7.74 -0.25 1.34
-4.55 -0.14 1.66
-7.91 -0.16 1.32
-4.84 -0.09 1.63
-10.15 -0.14 1.09
-5.18 -0.06 1.59
-11.36 -0.08 0.97
-5.48 -0.03 1.56
-8.88 0.40 0.99
-9.09 0.49 0.96
-10.07 1.57 1.01
-2.13 1.66 1.82
-4.27 0.00 1.62
-4.08 0.01 1.64
-7.58 0.04 1.24
-7.37 0.06 1.27
-9.45 0.13 1.03
-7.45 0.12 1.26
-8.70 0.21 1.11
-7.03 0.19 1.30
-9.99 0.29 0.96
-9.78 0.30 0.99
-4.98 0.18 1.54
-5.32 0.20 1.50
-4.77 0.20 1.56
-5.26 0.23 1.51
-5.70 0.26 1.45
-9.39 0.44 1.03
-9.40 0.46 1.03
-4.91 0.27 1.55
-5.59 0.31 1.47
-5.06 0.33 1.53
-5.10 0.35 1.52
-4.97 0.43 1.54
-4.25 0.49 1.62
-4.24 0.50 1.62
-4.26 0.53 1.62
-3.98 0.52 1.65
-3.86 0.52 1.66
-4.11 0.56 1.63
-4.18 0.59 1.62
-4.29 0.62 1.61
-4.17 0.64 1.62
-9.99 1.46 0.95
-4.23 0.68 1.62
-4.15 0.68 1.62
-10.10 1.55 0.93
-10.15 1.58 0.93
-10.39 1.64 0.90
-10.22 1.65 0.92
-3.93 0.71 1.65
-10.05 1.67 0.94
-2.37 -0.68 1.66
-6.87 -1.08 1.14
-6.55 -1.02 1.18
-4.08 -0.23 1.64
-5.29 -0.26 1.51
-12.78 -0.53 0.64
-7.80 -0.27 1.22
-12.65 -0.37 0.66
-8.06 -0.12 1.19
-8.20 -0.10 1.17
-7.42 -0.07 1.26
-7.40 -0.03 1.26
-4.34 -0.01 1.61
-7.76 0.07 1.17
-8.44 0.09 1.08
-10.11 0.21 0.88
-9.18 0.26 0.99
-5.26 0.21 1.47
-5.06 0.29 1.49
-9.47 0.58 0.95
-4.71 0.32 1.53
-4.76 0.35 1.53
-4.13 0.49 1.60
-4.09 0.50 1.60
-4.01 0.52 1.61
-4.01 0.57 1.61
-4.31 0.62 1.58
-10.53 1.42 0.81
-9.95 1.42 0.88
-10.35 1.50 0.83
-10.11 1.52 0.86
-10.23 1.57 0.84
-10.26 1.60 0.84
-10.04 1.62 0.87
-10.22 1.67 0.84
-9.97 1.66 0.87
-2.33 -0.61 1.64
-2.39 -0.58 1.63
-6.78 -1.07 1.09
-6.64 -0.97 1.11
-6.50 -0.91 1.13
-6.08 -0.81 1.18
-2.92 -0.25 1.57
-3.12 -0.23 1.54
-3.18 -0.22 1.54
-3.37 -0.22 1.51
-2.93 -0.15 1.57
-3.41 -0.15 1.51
-2.56 -0.12 1.61
-2.76 -0.11 1.59
-5.83 -0.16 1.21
-5.71 -0.14 1.23
-5.80 -0.12 1.22
-6.43 -0.11 1.14
-7.65 -0.11 0.99
-3.06 -0.04 1.55
-2.17 -0.03 1.66
-3.55 -0.02 1.49
-7.89 0.01 1.09
-7.74 0.03 1.11
-8.09 0.05 1.06
-7.84 0.07 1.09
-7.54 0.08 1.13
-7.53 0.10 1.13
-5.49 0.09 1.40
-4.97 0.10 1.46
-5.44 0.12 1.40
-6.10 0.15 1.32
-7.23 0.19 1.17
-9.04 0.26 0.94
-6.81 0.22 1.23
-5.01 0.18 1.46
-7.00 0.26 1.20
-6.96 0.27 1.21
-5.22 0.23 1.43
-6.77 0.30 1.23
-6.67 0.32 1.24
-6.24 0.31 1.30
-6.22 0.33 1.30
-6.65 0.37 1.24
-5.82 0.34 1.35
-6.86 0.41 1.22
-6.76 0.43 1.23
-5.21 0.36 1.43
-5.18 0.38 1.43
-6.28 0.46 1.29
-6.43 0.49 1.27
-6.36 0.50 1.28
-5.31 0.44 1.42
-5.51 0.47 1.39
-5.69 0.50 1.37
-6.39 0.57 1.27
-4.97 0.47 1.46
-4.86 0.47 1.47
-4.69 0.47 1.49
-4.85 0.50 1.47
-4.52 0.48 1.52
-5.28 0.57 1.42
-4.67 0.54 1.50
-4.62 0.54 1.50
-4.66 0.56 1.50
-4.55 0.56 1.51
-4.58 0.58 1.51
-4.26 0.55 1.55
-4.53 0.61 1.51
-4.68 0.64 1.49
-4.37 0.61 1.53
-4.28 0.62 1.54
-10.26 1.39 0.76
-10.39 1.43 0.75
-10.25 1.44 0.76
-4.53 0.70 1.51
-10.38 1.51 0.75
-10.30 1.52 0.76
-10.49 1.58 0.73
-10.30 1.58 0.76
-4.30 0.73 1.54
-4.39 0.75 1.53
-4.66 0.80 1.49
-4.47 0.79 1.52
-4.55 0.82 1.50
-4.55 0.85 1.50
-4.51 0.86 1.51
-4.24 0.84 1.54
-4.74 0.95 1.48
-4.92 1.01 1.45
-4.52 0.95 1.50
-6.35 -1.63 1.07
-6.61 -1.64 1.04
-6.68 -1.25 1.04
-6.38 -0.98 1.08
-6.47 -0.89 1.07
-6.39 -0.86 1.08
-6.14 -0.80 1.11
-6.50 -0.81 1.07
-6.32 -0.77 1.09
-6.58 -0.76 1.06
-12.98 -0.70 0.23
-3.47 -0.25 1.46
-5.89 -0.22 1.15
-5.84 -0.20 1.15
-5.63 -0.18 1.18
-5.89 -0.16 1.15
-6.03 -0.15 1.13
-5.65 -0.12 1.18
-9.26 -0.13 0.91
-7.38 -0.09 1.15
-7.28 -0.07 1.17
-7.26 -0.05 1.17
-7.60 -0.03 1.13
-7.88 -0.01 1.09
-3.28 0.00 1.45
-3.14 0.02 1.46
-2.94 0.03 1.49
-3.40 0.04 1.43
-3.75 0.06 1.38
-3.47 0.07 1.42
-3.17 0.08 1.46
-3.48 0.10 1.42
-3.41 0.11 1.43
-3.38 0.12 1.43
-3.45 0.14 1.42
-3.28 0.14 1.44
-7.35 0.23 1.10
-7.56 0.26 1.07
-5.20 0.24 1.39
-5.06 0.26 1.41
-5.06 0.27 1.41
-11.11 0.59 0.58
-6.61 0.38 1.20
-11.29 0.66 0.56
-11.40 0.69 0.54
-11.46 0.75 0.53
-6.72 0.53 1.18
-5.98 0.49 1.28
-4.78 0.42 1.45
-5.38 0.52 1.36
-4.72 0.47 1.45
-11.61 1.11 0.51
-4.53 0.48 1.48
-4.47 0.49 1.49
-4.58 0.51 1.47
-4.34 0.50 1.50
-4.32 0.51 1.51
-4.29 0.52 1.51
-4.15 0.52 1.53
-4.16 0.53 1.53
-4.39 0.57 1.50
-4.30 0.57 1.51
-4.32 0.58 1.50
-4.33 0.59 1.50
-4.39 0.61 1.49
-4.32 0.62 1.50
-10.17 1.37 0.70
-4.24 0.63 1.51
-10.19 1.43 0.69
-4.36 0.67 1.50
-10.06 1.46 0.71
-4.41 0.70 1.49
-4.53 0.73 1.47
-4.31 0.71 1.50
-10.33 1.61 0.67
-10.42 1.65 0.66
-4.43 0.77 1.49
-4.06 0.72 1.54
-4.15 0.83 1.52
-4.43 0.89 1.48
-2.59 -1.27 1.53
-2.48 -0.71 1.55
-6.52 -1.18 1.00
-2.23 -0.57 1.59
-2.42 -0.59 1.56
-6.67 -1.06 0.98
-6.60 -1.01 0.99
-6.43 -0.91 1.01
-2.82 -0.51 1.51
-6.17 -0.84 1.05
-6.15 -0.82 1.05
-6.22 -0.78 1.04
-6.53 -0.79 1.00
-6.20 -0.74 1.05
-6.49 -0.75 1.01
-6.02 -0.67 1.07
-3.05 -0.40 1.48
-5.96 -0.61 1.08
-5.75 -0.51 1.11
-2.64 -0.27 1.53
-5.96 -0.43 1.08
-2.94 -0.26 1.49
-3.16 -0.25 1.46
-2.94 -0.22 1.49
-2.90 -0.20 1.50
-5.72 -0.25 1.11
-3.12 -0.16 1.47
-5.66 -0.21 1.12
-5.91 -0.20 1.09
-5.25 -0.17 1.18
-2.97 -0.10 1.49
-5.56 -0.14 1.13
-5.62 -0.12 1.13
-5.34 -0.10 1.16
-5.34 -0.08 1.16
-5.66 -0.07 1.12
-3.07 -0.03 1.47
-7.17 -0.03 0.91
-3.19 -0.01 1.46
-8.07 0.01 0.94
-7.40 0.02 1.03
-7.84 0.05 0.97
-7.77 0.07 0.98
-7.84 0.09 0.97
-7.37 0.10 1.04
-7.67 0.12 0.99
-7.33 0.14 1.04
-7.36 0.18 1.04
-7.33 0.19 1.04
-4.29 0.13 1.48
-7.50 0.24 1.02
-4.50 0.16 1.45
-4.94 0.19 1.38
-7.36 0.29 1.04
-7.02 0.30 1.08
-7.31 0.33 1.04
-6.97 0.33 1.09
-7.97 0.39 0.95
-6.88 0.36 1.10
-7.08 0.39 1.07
-6.92 0.40 1.10
-6.53 0.40 1.15
-6.32 0.40 1.18
-6.08 0.40 1.22
-6.35 0.44 1.18
-6.27 0.45 1.19
-6.13 0.46 1.21
-6.40 0.49 1.17
-6.42 0.51 1.17
-6.57 0.54 1.14
-6.48 0.55 1.16
-6.56 0.57 1.15
-4.41 0.41 1.46
-4.66 0.45 1.42
-6.35 0.60 1.17
-4.65 0.47 1.42
-4.85 0.50 1.39
-4.59 0.49 1.43
-4.61 0.50 1.43
-4.27 0.48 1.47
-4.56 0.52 1.43
-4.37 0.52 1.46
-4.60 0.55 1.43
-4.44 0.55 1.45
-4.53 0.57 1.43
-4.56 0.59 1.43
-4.47 0.59 1.44
-4.73 0.63 1.41
-4.88 0.66 1.38
-4.70 0.66 1.41
-4.51 0.64 1.44
-4.50 0.66 1.44
-4.60 0.68 1.42
-4.41 0.67 1.45
-4.55 0.70 1.43
-4.52 0.71 1.43
-10.24 1.52 0.60
-4.57 0.74 1.43
-4.56 0.75 1.43
-10.61 1.65 0.55
-4.65 0.79 1.41
-9.92 1.60 0.65
-4.70 0.82 1.40
-4.45 0.81 1.44
-4.56 0.92 1.42
-5.03 1.04 1.35
-4.98 1.10 1.36
-4.75 1.07 1.39
-4.81 1.12 1.38
-6.89 -1.15 0.88
-6.83 -1.12 0.89
-6.35 -0.88 0.96
-6.26 -0.85 0.97
-6.69 -0.87 0.91
-6.59 -0.84 0.92
-6.57 -0.82 0.93
-6.13 -0.72 0.99
-6.12 -0.68 0.99
-6.34 -0.68 0.96
-6.15 -0.62 0.99
-6.07 -0.60 1.00
-5.70 -0.55 1.05
-5.80 -0.54 1.04
-6.15 -0.54 0.99
-5.72 -0.50 1.05
-6.03 -0.50 1.01
-6.01 -0.46 1.01
-5.94 -0.41 1.02
-5.93 -0.30 1.02
-6.06 -0.26 1.00
-6.85 -0.22 1.11
-6.69 -0.20 1.13
-6.48 -0.18 1.16
-6.50 -0.16 1.16
-6.56 -0.15 1.15
-4.33 -0.09 1.47
-6.74 -0.12 1.13
-6.45 -0.08 1.17
-7.64 -0.07 1.00
-7.73 -0.05 0.98
-7.60 -0.03 1.00
-7.53 -0.01 1.01
-3.89 0.35 1.50
-4.26 0.44 1.44
-4.18 0.51 1.45
-4.01 0.51 1.48
-3.89 0.51 1.50
-4.09 0.56 1.46
-10.28 1.46 0.51
-10.30 1.60 0.51
-2.11 -0.28 1.54
-7.41 0.02 0.90
-8.09 0.07 0.80
-7.53 0.08 0.89
-3.70 0.07 1.49
-7.74 0.14 0.85
-7.39 0.16 0.91
-7.75 0.20 0.85
-4.24 0.13 1.41
-7.09 0.24 0.95
-4.11 0.16 1.43
-7.32 0.31 0.92
-8.35 0.39 0.75
-6.00 0.33 1.13
-6.03 0.35 1.12
-6.13 0.38 1.10
-6.81 0.45 1.00
-5.93 0.41 1.14
-5.89 0.42 1.14
-5.97 0.44 1.13
-5.40 0.42 1.22
-6.23 0.51 1.09
-4.66 0.41 1.34
-4.19 0.38 1.41
-4.36 0.42 1.38
-4.29 0.43 1.40
-4.32 0.44 1.39
-4.38 0.46 1.38
-4.12 0.45 1.42
-4.21 0.47 1.41
-4.41 0.50 1.38
-4.55 0.52 1.35
-4.40 0.52 1.38
-4.33 0.52 1.39
-4.25 0.53 1.40
-4.20 0.54 1.41
-4.25 0.55 1.40
-4.07 0.54 1.43
-4.31 0.58 1.39
-4.33 0.60 1.39
-4.16 0.59 1.41
-4.16 0.61 1.41
-10.18 1.40 0.44
-4.46 0.68 1.36
-4.20 0.65 1.40
-10.22 1.49 0.43
-4.35 0.70 1.38
-10.39 1.56 0.41
-10.27 1.57 0.42
-10.06 1.57 0.46
-4.32 0.74 1.38
-4.49 0.78 1.35
-4.41 0.83 1.36
-4.55 0.99 1.34
-6.71 -1.34 0.76
-6.76 -1.33 0.76
-6.47 -1.20 0.80
-6.64 -0.99 0.78
-7.15 -0.94 0.70
-7.08 -0.91 0.71
-6.92 -0.87 0.74
-6.45 -0.77 0.81
-6.35 -0.74 0.83
-7.00 -0.77 0.72
-6.06 -0.56 0.88
-5.95 -0.49 0.89
-6.10 -0.48 0.87
-5.56 -0.43 0.95
-6.07 -0.44 0.87
-6.23 -0.24 1.09
-6.35 -0.23 1.08
-6.63 -0.22 1.03
-6.33 -0.16 1.08
-6.41 -0.14 1.07
-6.55 -0.10 1.04
-7.02 -0.03 0.97
-10.45 -0.02 0.42
-2.88 0.00 1.34
-5.08 0.02 0.98
-3.60 0.03 1.22
-3.43 0.04 1.25
-7.51 0.08 0.83
-3.81 0.05 1.44
-4.11 0.07 1.39
-4.50 0.09 1.33
-4.32 0.10 1.36
-4.01 0.10 1.41
-4.13 0.12 1.39
-7.46 0.22 0.83
-4.07 0.14 1.40
-4.85 0.19 1.27
-5.28 0.23 1.20
-4.07 0.20 1.40
-3.90 0.21 1.43
-5.55 0.30 1.15
-6.98 0.38 0.91
-4.10 0.25 1.39
-6.79 0.41 0.94
-5.27 0.34 1.20
-5.23 0.35 1.20
-5.15 0.36 1.22
-5.33 0.39 1.19
-5.41 0.41 1.17
-5.30 0.41 1.19
-5.13 0.41 1.22
-5.43 0.45 1.17
-5.63 0.48 1.13
-5.00 0.45 1.24
-4.75 0.44 1.28
-4.90 0.46 1.26
-4.71 0.46 1.29
-4.50 0.45 1.32
-4.64 0.48 1.30
-4.55 0.48 1.31
-4.64 0.50 1.30
-4.44 0.50 1.33
-4.55 0.52 1.31
-4.57 0.54 1.31
-4.37 0.53 1.34
-4.22 0.52 1.37
-4.24 0.54 1.36
-4.35 0.56 1.35
-4.30 0.57 1.35
-4.41 0.59 1.33
-4.34 0.60 1.35
-4.32 0.61 1.35
-4.40 0.63 1.33
-4.32 0.63 1.35
-4.36 0.65 1.34
-4.27 0.65 1.35
-4.30 0.66 1.35
-4.07 0.64 1.39
-10.48 1.55 0.30
-4.41 0.72 1.33
-4.33 0.72 1.34
-4.42 0.74 1.33
-4.63 0.79 1.29
-4.55 0.79 1.30
-4.53 0.80 1.31
-4.33 0.78 1.34
-4.47 0.81 1.32
-4.49 0.83 1.31
-4.52 0.84 1.31
-4.40 0.84 1.33
-4.50 0.87 1.31
-4.76 0.94 1.26
-4.49 0.93 1.31
-4.55 0.95 1.30
-3.27 1.35 1.48
-2.35 -1.41 1.41
-6.39 -1.52 0.74
-6.11 -1.43 0.79
-6.82 -1.44 0.67
-6.98 -1.38 0.65
-6.82 -1.33 0.67
-6.63 -1.20 0.71
-6.83 -1.21 0.68
-7.10 -1.18 0.63
-7.23 -1.13 0.61
-2.85 -0.59 1.35
-7.50 -1.11 0.57
-7.33 -1.07 0.59
-7.16 -1.03 0.62
-7.52 -1.05 0.56
-7.32 -0.98 0.60
-7.25 -0.95 0.61
-7.21 -0.92 0.62
-6.94 -0.87 0.66
-7.25 -0.88 0.61
-6.83 -0.82 0.68
-7.12 -0.83 0.63
-7.42 -0.83 0.58
-7.21 -0.79 0.62
-7.21 -0.77 0.62
-6.67 -0.70 0.71
-6.40 -0.66 0.75
-6.92 -0.68 0.67
-6.55 -0.63 0.73
-7.06 -0.65 0.64
-6.50 -0.58 0.74
-2.81 -0.32 1.36
-6.03 -0.51 0.82
-5.96 -0.49 0.83
-6.05 -0.48 0.81
-5.71 -0.42 0.87
-5.99 -0.42 0.82
-5.74 -0.38 0.87
-5.88 -0.37 0.84
-5.72 -0.35 0.87
-6.14 -0.34 0.80
-5.73 -0.31 0.87
-5.50 -0.28 0.91
-5.59 -0.27 0.89
-2.52 -0.15 1.40
-3.05 -0.16 1.32
-2.99 -0.13 1.33
-2.80 -0.11 1.36
-2.81 -0.10 1.36
-2.77 -0.09 1.36
-2.49 -0.07 1.41
-3.13 -0.07 1.30
-2.67 -0.05 1.38
-2.97 -0.02 1.33
-6.00 0.00 1.02
-7.59 0.02 0.74
-6.23 0.04 0.98
-6.04 0.05 1.02
-6.83 0.08 0.88
-7.31 0.10 0.79
-7.59 0.12 0.74
-7.80 0.14 0.71
-7.68 0.16 0.73
-7.36 0.17 0.78
-7.69 0.20 0.72
-7.40 0.21 0.78
-8.04 0.27 0.66
-6.05 0.23 1.01
-7.38 0.29 0.78
-5.71 0.24 1.07
-6.94 0.31 0.86
-5.96 0.29 1.03
-5.47 0.28 1.11
-5.88 0.31 1.04
-5.46 0.31 1.12
-6.93 0.42 0.86
-5.27 0.34 1.15
-5.44 0.36 1.12
-5.42 0.38 1.12
-5.26 0.38 1.15
-5.30 0.40 1.14
-5.41 0.42 1.12
-5.24 0.42 1.15
-5.27 0.44 1.15
-5.37 0.46 1.13
-5.01 0.45 1.19
-4.99 0.46 1.19
-5.14 0.48 1.17
-4.83 0.48 1.22
-4.92 0.50 1.20
-4.74 0.50 1.24
-4.27 0.47 1.32
-5.03 0.56 1.18
-4.83 0.55 1.22
-4.76 0.56 1.23
-4.76 0.57 1.23
-4.73 0.58 1.24
-4.53 0.57 1.27
-4.59 0.59 1.26
-4.68 0.61 1.24
-4.81 0.64 1.22
-4.50 0.62 1.27
-4.42 0.62 1.29
-4.59 0.65 1.26
-4.94 0.71 1.20
-4.71 0.69 1.23
-4.71 0.71 1.23
-4.77 0.73 1.22
-4.61 0.72 1.25
-4.43 0.71 1.28
-10.12 1.52 0.27
-4.36 0.72 1.30
-4.37 0.74 1.29
-4.54 0.77 1.26
-4.44 0.77 1.28
-4.55 0.80 1.26
-4.51 0.81 1.27
-4.66 0.84 1.24
-4.45 0.82 1.28
-4.55 0.85 1.26
-4.59 0.88 1.25
-4.63 0.90 1.24
-4.66 0.92 1.24
-5.30 1.05 1.12
-4.90 1.07 1.19
-4.78 1.06 1.21
-6.38 -1.41 0.68
-6.80 -1.44 0.60
-6.90 -1.43 0.58
-6.71 -1.36 0.62
-7.08 -1.35 0.55
-7.05 -1.33 0.56
-6.86 -1.28 0.59
-6.99 -1.27 0.57
-7.07 -1.26 0.56
-6.95 -1.22 0.58
-6.81 -1.18 0.60
-7.13 -1.20 0.55
-7.22 -1.19 0.53
-6.96 -1.14 0.58
-6.76 -1.09 0.61
-6.99 -1.10 0.57
-7.01 -1.08 0.57
-7.17 -1.07 0.54
-7.21 -1.06 0.54
-7.23 -1.04 0.53
-7.25 -1.02 0.53
-7.42 -1.01 0.50
-7.36 -0.94 0.51
-7.87 -0.96 0.42
-7.15 -0.87 0.55
-7.34 -0.87 0.52
-7.14 -0.83 0.55
-7.09 -0.80 0.56
-7.37 -0.80 0.51
-6.48 -0.71 0.67
-6.50 -0.69 0.67
-6.75 -0.69 0.62
-6.65 -0.66 0.64
-7.13 -0.67 0.55
-5.99 -0.57 0.76
-5.93 -0.55 0.77
-5.86 -0.52 0.78
-5.84 -0.50 0.78
-5.83 -0.48 0.78
-5.52 -0.45 0.84
-5.73 -0.44 0.80
-5.69 -0.42 0.81
-5.77 -0.41 0.79
-5.55 -0.38 0.83
-5.77 -0.37 0.79
-5.36 -0.33 0.87
-5.75 -0.33 0.80
-5.50 -0.30 0.84
-5.46 -0.28 0.85
-5.50 -0.27 0.84
-5.46 -0.24 0.85
-5.22 -0.22 0.89
-5.37 -0.21 0.87
-5.28 -0.19 0.88
-5.17 -0.17 0.90
-5.15 -0.15 0.90
-5.12 -0.13 0.91
-5.30 -0.12 0.88
-6.70 -0.10 0.90
-8.46 -0.10 0.59
-6.98 -0.07 0.85
-9.65 -0.07 0.38
-6.31 -0.01 0.97
-4.46 0.00 0.97
-4.48 0.02 0.96
-4.60 0.04 0.94
-4.69 0.05 0.92
-3.00 0.05 1.24
-3.03 0.06 1.23
-4.75 0.10 0.91
-4.23 0.11 1.01
-4.01 0.17 1.05
-3.99 0.13 1.33
-3.94 0.14 1.35
-4.03 0.16 1.33
-3.94 0.18 1.34
-4.23 0.20 1.29
-4.39 0.22 1.26
-3.92 0.21 1.35
-4.94 0.27 1.16
-3.88 0.23 1.35
-4.08 0.25 1.32
-3.88 0.25 1.35
-4.03 0.27 1.33
-4.86 0.33 1.17
-4.25 0.30 1.28
-4.35 0.32 1.27
-5.05 0.38 1.14
-5.22 0.41 1.10
-4.97 0.40 1.15
-5.01 0.42 1.14
-4.76 0.41 1.19
-4.67 0.42 1.20
-4.47 0.42 1.24
-4.69 0.45 1.20
-4.68 0.46 1.20
-4.48 0.45 1.24
-4.46 0.46 1.24
-4.40 0.47 1.25
-4.49 0.49 1.24
-4.27 0.48 1.28
-4.36 0.50 1.26
-4.05 0.48 1.32
-4.39 0.53 1.25
-4.13 0.51 1.30
-4.38 0.55 1.25
-4.20 0.54 1.29
-4.28 0.56 1.27
-4.40 0.59 1.25
-4.89 0.66 1.16
-4.60 0.64 1.21
-4.44 0.63 1.24
-4.26 0.62 1.27
-4.49 0.66 1.23
-4.36 0.66 1.25
-4.39 0.67 1.25
-4.52 0.70 1.22
-4.53 0.72 1.22
-4.36 0.71 1.25
-4.42 0.73 1.24
-4.41 0.76 1.24
-4.41 0.78 1.24
-4.47 0.80 1.23
-4.36 0.79 1.25
-4.48 0.83 1.23
-4.15 0.81 1.29
-4.28 0.84 1.26
-2.32 -1.32 1.34
-1.50 -0.85 1.51
-6.85 -1.34 0.51
-6.91 -1.32 0.51
-7.15 -1.34 0.46
-7.09 -1.31 0.47
-7.13 -1.29 0.46
-6.77 -1.22 0.53
-7.00 -1.23 0.49
-6.87 -1.19 0.51
-6.77 -1.16 0.53
-7.02 -1.17 0.49
-6.72 -1.11 0.54
-7.09 -1.13 0.48
-7.26 -1.13 0.44
-7.53 -1.12 0.39
-7.37 -1.07 0.43
-7.04 -1.01 0.49
-6.91 -0.98 0.51
-7.08 -0.95 0.48
-7.80 -1.00 0.35
-7.22 -0.81 0.45
-6.71 -0.75 0.55
-6.43 -0.70 0.60
-6.77 -0.71 0.54
-6.65 -0.68 0.56
-7.83 -0.75 0.34
-5.94 -0.57 0.69
-5.97 -0.55 0.69
-6.06 -0.52 0.67
-5.92 -0.49 0.70
-5.76 -0.46 0.73
-5.76 -0.44 0.73
-5.85 -0.43 0.71
-5.64 -0.40 0.75
-5.79 -0.39 0.72
-5.75 -0.37 0.73
-6.11 -0.36 0.66
-5.65 -0.32 0.75
-5.26 -0.29 0.82
-5.78 -0.29 0.72
-5.47 -0.21 0.78
-3.09 -0.13 1.22
-3.48 -0.13 1.15
-5.73 -0.12 0.73
-5.25 -0.10 0.82
-2.96 -0.06 1.24
-5.60 -0.05 0.76
-3.50 -0.01 1.14
-7.87 0.02 0.55
-7.72 0.04 0.58
-6.21 0.05 0.87
-7.75 0.10 0.57
-7.62 0.14 0.60
-7.49 0.18 0.62
-7.50 0.20 0.62
-7.53 0.22 0.61
-7.30 0.25 0.65
-6.97 0.28 0.72
-7.15 0.32 0.68
-7.28 0.36 0.66
-5.17 0.29 1.06
-5.35 0.33 1.03
-5.21 0.35 1.05
-5.32 0.37 1.03
-5.17 0.38 1.06
-5.15 0.40 1.07
-4.80 0.41 1.13
-5.01 0.45 1.09
-4.88 0.45 1.12
-5.10 0.48 1.07
-4.84 0.49 1.12
-4.75 0.50 1.14
-4.48 0.50 1.19
-4.65 0.53 1.16
-4.71 0.55 1.15
-4.53 0.56 1.18
-4.78 0.61 1.13
-4.64 0.62 1.16
-4.71 0.64 1.14
-4.69 0.65 1.15
-4.51 0.66 1.18
-4.66 0.70 1.15
-4.45 0.70 1.19
-4.59 0.73 1.16
-4.63 0.75 1.15
-4.52 0.76 1.17
-4.74 0.82 1.13
-4.59 0.82 1.16
-4.62 0.84 1.15
-4.72 0.87 1.13
-4.93 0.93 1.09
-4.44 0.87 1.19
-4.48 0.90 1.18
-5.01 1.12 1.07
-4.82 1.13 1.10
-5.99 -1.59 0.59
-6.02 -1.45 0.59
-6.36 -1.41 0.53
-7.02 -1.45 0.40
-6.50 -1.31 0.50
-6.75 -1.33 0.46
-6.85 -1.32 0.44
-6.80 -1.29 0.45
-6.93 -1.29 0.42
-6.90 -1.26 0.43
-7.11 -1.27 0.39
-7.19 -1.26 0.37
-6.89 -1.19 0.43
-6.88 -1.17 0.43
-6.92 -1.16 0.43
-6.82 -1.12 0.45
-6.90 -1.11 0.43
-7.08 -1.11 0.40
-7.45 -1.13 0.33
-7.22 -1.08 0.37
-6.98 -0.99 0.42
-6.63 -0.93 0.49
-6.58 -0.90 0.50
-6.76 -0.90 0.46
-6.69 -0.87 0.47
-6.83 -0.87 0.45
-7.31 -0.89 0.36
-7.21 -0.86 0.38
-7.19 -0.83 0.38
-7.17 -0.81 0.38
-6.53 -0.73 0.51
-6.76 -0.73 0.46
-6.29 -0.67 0.55
-3.44 -0.43 1.11
-6.10 -0.62 0.59
-6.67 -0.64 0.48
-6.25 -0.59 0.56
-6.05 -0.56 0.60
-5.95 -0.53 0.62
-5.97 -0.51 0.62
-6.18 -0.51 0.58
-5.75 -0.46 0.66
-5.76 -0.44 0.66
-5.93 -0.43 0.63
-5.96 -0.42 0.62
-6.17 -0.41 0.58
-6.00 -0.38 0.61
-5.83 -0.35 0.65
-5.79 -0.33 0.65
-5.73 -0.31 0.66
-5.66 -0.29 0.68
-5.76 -0.27 0.66
-6.50 -0.21 0.81
-6.31 -0.17 0.85
-6.53 -0.15 0.81
-6.38 -0.11 0.84
-6.01 -0.09 0.91
-6.39 -0.08 0.83
-6.37 -0.04 0.84
-6.03 -0.01 0.90
-2.76 0.00 1.20
-3.48 0.10 1.05
-4.24 0.28 1.20
-4.20 0.29 1.21
-4.14 0.31 1.22
-4.49 0.34 1.15
-4.10 0.33 1.23
-3.88 0.32 1.28
-4.18 0.36 1.21
-3.38 0.31 1.38
-4.02 0.37 1.25
-3.92 0.37 1.27
-4.12 0.40 1.23
-3.86 0.39 1.28
-4.14 0.43 1.22
-3.77 0.41 1.29
-3.73 0.42 1.30
-3.97 0.45 1.25
-4.02 0.48 1.24
-4.02 0.49 1.24
-4.12 0.51 1.22
-4.28 0.54 1.19
-3.97 0.53 1.25
-3.94 0.54 1.26
-4.22 0.65 1.20
-3.17 -0.02 1.12
-6.50 0.00 0.68
-5.78 0.02 0.83
-5.64 0.03 0.86
-7.50 0.06 0.47
-7.56 0.08 0.46
-5.48 0.08 0.90
-7.60 0.12 0.45
-5.50 0.10 0.89
-7.27 0.16 0.52
-5.10 0.12 0.98
-7.32 0.19 0.51
-5.06 0.15 0.98
-5.42 0.17 0.91
-4.96 0.18 1.00
-4.79 0.18 1.04
-5.37 0.22 0.92
-5.18 0.22 0.96
-4.97 0.23 1.00
-4.75 0.23 1.05
-4.61 0.24 1.08
-4.58 0.25 1.08
-4.46 0.26 1.11
-4.69 0.28 1.06
-4.84 0.30 1.03
-4.74 0.31 1.05
-4.84 0.33 1.03
-4.74 0.34 1.05
-4.68 0.34 1.06
-4.77 0.36 1.04
-4.86 0.38 1.02
-5.14 0.42 0.96
-4.91 0.41 1.01
-4.84 0.42 1.02
-4.75 0.43 1.04
-5.00 0.46 0.99
-4.97 0.47 0.99
-4.92 0.48 1.01
-4.66 0.47 1.06
-4.31 0.45 1.13
-4.41 0.47 1.11
-4.14 0.46 1.17
-4.13 0.47 1.17
-4.34 0.50 1.13
-4.65 0.54 1.06
-4.44 0.54 1.10
-4.28 0.53 1.14
-4.64 0.58 1.06
-4.54 0.58 1.08
-4.72 0.62 1.04
-4.54 0.61 1.08
-4.43 0.61 1.10
-4.73 0.66 1.04
-4.37 0.63 1.12
-4.30 0.63 1.13
-4.48 0.67 1.09
-4.20 0.64 1.15
-4.22 0.66 1.15
-4.43 0.70 1.10
-4.18 0.67 1.15
-4.54 0.74 1.08
-4.48 0.74 1.09
-4.19 0.71 1.15
-4.43 0.76 1.10
-4.21 0.74 1.15
-4.09 0.74 1.17
-4.47 0.83 1.09
-4.60 0.90 1.06
-4.86 0.97 1.00
-4.78 1.05 1.01
-5.81 -1.45 0.49
-6.21 -0.49 0.42
-6.09 -0.46 0.44
-6.34 -0.38 0.72
-6.11 -0.35 0.77
-6.54 -0.35 0.68
-6.34 -0.33 0.72
-6.35 -0.31 0.72
-6.11 -0.28 0.77
-6.46 -0.28 0.69
-6.21 -0.25 0.74
-6.32 -0.24 0.72
-6.62 -0.24 0.66
-6.63 -0.22 0.66
-6.91 -0.21 0.60
-6.21 -0.17 0.74
-6.56 -0.15 0.67
-7.79 -0.15 0.41
-6.46 -0.11 0.69
-5.89 -0.09 0.81
-6.08 -0.08 0.77
-6.43 -0.06 0.70
-6.76 -0.05 0.63
-6.25 -0.03 0.73
-5.62 -0.01 0.87
-5.60 0.01 0.47
-3.90 0.02 0.85
-3.43 0.03 0.95
-3.76 0.05 0.88
-7.03 0.08 0.50
-5.82 0.08 0.77
-5.44 0.09 0.85
-4.61 0.09 1.03
-4.86 0.11 0.98
-4.19 0.11 1.12
-4.27 0.12 1.11
-4.76 0.14 1.00
-4.68 0.15 1.01
-4.48 0.16 1.06
-4.59 0.18 1.03
-4.72 0.19 1.01
-4.85 0.21 0.98
-4.42 0.21 1.07
-4.53 0.22 1.05
-4.72 0.24 1.01
-4.53 0.25 1.05
-4.07 0.24 1.15
-3.96 0.24 1.17
-4.05 0.26 1.15
-4.02 0.27 1.16
-4.27 0.29 1.10
-3.94 0.28 1.18
-4.45 0.33 1.06
-5.21 0.39 0.89
-5.23 0.41 0.89
-4.58 0.37 1.03
-4.94 0.41 0.95
-4.95 0.43 0.95
-4.83 0.43 0.98
-5.00 0.46 0.94
-4.52 0.43 1.04
-4.54 0.45 1.04
-4.46 0.45 1.06
-4.49 0.47 1.05
-4.05 0.44 1.15
-4.23 0.46 1.11
-4.09 0.46 1.14
-4.43 0.51 1.06
-4.42 0.53 1.06
-4.19 0.53 1.11
-4.27 0.55 1.09
-4.29 0.57 1.09
-4.58 0.61 1.02
-4.34 0.60 1.08
-4.27 0.60 1.09
-4.00 0.58 1.15
-4.36 0.63 1.07
-4.04 0.61 1.14
-3.96 0.62 1.16
-4.29 0.67 1.08
-4.15 0.67 1.12
-4.15 0.69 1.12
-4.01 0.68 1.15
-3.60 0.69 1.23
-4.23 0.95 1.08
-2.43 -0.72 1.17
-2.05 -0.65 1.26
-6.02 -0.69 0.38
-5.89 -0.37 0.41
-6.01 -0.36 0.38
-5.58 -0.32 0.48
-6.03 -0.32 0.38
-6.08 -0.30 0.37
-6.06 -0.28 0.38
-5.90 -0.26 0.41
-3.68 -0.17 0.90
-4.08 -0.17 0.81
-5.53 -0.19 0.49
-3.95 -0.14 0.84
-4.09 -0.13 0.81
-5.75 -0.14 0.44
-5.75 0.09 0.72
-7.03 0.15 0.42
-6.96 0.17 0.44
-7.19 0.21 0.38
-7.32 0.25 0.35
-7.14 0.26 0.39
-7.28 0.29 0.36
-4.91 0.21 0.91
-7.26 0.34 0.36
-6.16 0.42 0.62
-6.07 0.43 0.64
-6.06 0.45 0.64
-5.98 0.46 0.66
-5.85 0.47 0.69
-5.79 0.48 0.70
-5.87 0.50 0.68
-5.59 0.49 0.74
-5.76 0.52 0.71
-5.79 0.54 0.70
-5.11 0.49 0.85
-2.02 1.37 1.45
-2.26 -0.89 0.64
-6.57 0.26 0.40
-3.00 0.11 0.41
-3.99 0.68 0.34
-2.21 0.01 0.32
-2.95 0.29 0.21
-2.31 -0.03 0.25
-2.14 0.74 0.22
-1.58 -0.81 0.27
-1.58 -0.81 0.20
