# .PCD v0.7 - Point Cloud Data file format
VERSION 0.7
FIELDS x y z
SIZE 4 4 4
TYPE F F F
COUNT 1 1 1
WIDTH 1363
HEIGHT 1
VIEWPOINT 0 0 0 1 0 0 0
POINTS 1363
DATA ASCII
-8.47 0.83 2.47
-8.47 -0.23 2.47
-4.29 0.30 2.31
-8.34 0.22 2.26
-8.71 0.30 2.26
-8.56 -0.41 2.26
-8.28 0.39 2.20
-8.84 -0.12 2.15
-8.45 0.79 2.12
-8.22 0.39 2.10
-8.38 0.46 2.10
-8.54 0.58 2.10
-4.47 0.37 2.13
-8.22 0.81 2.10
-8.45 0.85 2.10
-8.53 1.39 2.09
-2.20 -0.94 2.15
-3.45 -0.02 2.14
-2.00 -1.68 2.14
-11.68 0.36 1.96
-8.75 1.10 2.01
-5.25 0.92 2.07
-8.45 0.03 1.99
-8.85 0.05 1.98
-8.33 0.26 1.99
-9.04 0.33 1.98
-8.61 0.71 1.99
-8.51 0.81 1.99
-8.44 1.05 1.99
-9.00 1.46 1.97
-8.39 -0.29 1.99
-8.38 0.71 1.96
-8.84 0.77 1.95
-8.53 0.86 1.96
-8.59 0.23 1.93
-8.47 0.57 1.93
-6.06 0.47 2.00
-8.84 0.93 1.92
-8.66 0.94 1.93
-8.85 0.98 1.92
-8.60 1.02 1.93
-5.12 0.92 2.02
-5.13 1.05 2.02
-3.18 -1.57 2.05
-2.96 -1.06 2.06
-8.49 -0.25 1.94
-8.31 -0.14 1.94
-8.14 -0.09 1.94
-8.23 0.15 1.92
-3.66 0.23 2.05
-8.39 0.54 1.91
-8.16 -0.32 1.90
-8.73 0.27 1.86
-8.46 0.46 1.87
-8.85 0.62 1.86
-8.78 0.70 1.86
-9.27 0.98 1.84
-9.18 0.99 1.84
-8.32 -0.53 1.85
-7.80 -0.38 1.87
-3.67 -0.09 2.00
-7.86 0.25 1.83
-8.30 0.56 1.84
-8.97 0.95 1.81
-8.62 0.93 1.83
-8.60 0.95 1.83
-5.14 0.89 1.96
-8.60 1.47 1.83
-8.57 0.25 1.80
-8.71 0.27 1.79
-8.32 0.39 1.81
-8.24 0.51 1.81
-8.42 0.57 1.80
-8.65 0.65 1.79
-8.66 0.94 1.79
-8.75 1.11 1.79
-8.76 1.13 1.79
-8.63 1.25 1.79
-2.98 -1.15 1.98
-8.53 -0.30 1.80
-8.36 -0.27 1.81
-8.82 0.61 1.75
-8.49 0.94 1.76
-8.82 1.07 1.75
-7.94 0.21 1.75
-8.03 0.25 1.75
-8.02 0.28 1.75
-8.55 0.31 1.72
-8.19 0.32 1.74
-7.96 0.33 1.75
-8.15 0.45 1.74
-8.17 0.47 1.74
-8.01 0.50 1.75
-8.53 0.82 1.72
-8.48 0.86 1.72
-8.63 0.91 1.71
-8.63 0.94 1.71
-8.65 0.96 1.71
-8.66 0.98 1.71
-8.51 0.99 1.72
-8.71 1.03 1.71
-8.52 1.04 1.72
-8.62 1.07 1.71
-8.86 1.12 1.70
-8.51 1.17 1.72
-5.15 0.81 1.89
-4.94 0.82 1.90
-5.03 0.85 1.89
-4.71 0.87 1.91
-5.06 0.94 1.89
-5.42 1.01 1.87
-5.33 1.13 1.88
-4.66 1.06 1.91
-4.38 1.05 1.92
-4.13 1.05 1.94
-3.72 0.98 1.96
-5.67 1.45 1.85
-4.72 1.27 1.90
-5.45 1.46 1.87
-3.35 0.97 1.97
-3.70 1.08 1.96
-5.44 1.55 1.86
-4.41 1.35 1.92
-5.39 1.63 1.87
-4.61 1.54 1.90
-2.95 -1.63 1.93
-2.29 -0.99 1.97
-3.07 -1.10 1.93
-2.67 -1.00 1.95
-2.85 -1.02 1.94
-3.04 -0.61 1.94
-3.27 -0.61 1.92
-7.87 -0.67 1.70
-3.43 -0.33 1.92
-8.04 -0.46 1.75
-7.95 -0.44 1.75
-8.25 -0.43 1.74
-3.76 -0.19 1.96
-8.11 -0.37 1.75
-3.62 -0.17 1.97
-8.44 -0.34 1.73
-11.33 -0.27 1.58
-4.12 -0.10 1.95
-8.24 -0.16 1.74
-4.21 -0.06 1.94
-3.88 -0.02 1.96
-8.36 0.33 1.69
-8.68 0.94 1.67
-3.55 0.82 1.95
-2.62 -0.98 1.93
-7.86 0.05 1.68
-8.19 0.07 1.66
-7.74 0.23 1.69
-8.63 0.29 1.63
-8.33 0.31 1.65
-8.92 0.37 1.62
-8.05 0.36 1.67
-8.00 0.44 1.67
-8.05 0.48 1.67
-8.08 0.50 1.66
-8.58 0.84 1.63
-8.59 0.87 1.63
-8.72 0.97 1.62
-8.55 0.99 1.63
-8.49 1.01 1.64
-8.65 1.16 1.63
-8.48 1.27 1.63
-6.66 1.14 1.74
-5.70 1.09 1.80
-5.44 1.06 1.81
-5.56 1.09 1.81
-2.92 -1.00 1.89
-11.70 -0.73 1.39
-11.12 -0.64 1.43
-11.16 -0.58 1.42
-10.94 -0.38 1.44
-10.83 -0.35 1.44
-10.85 -0.22 1.44
-8.21 0.28 1.62
-7.99 0.29 1.63
-8.83 0.84 1.57
-8.68 0.94 1.58
-8.69 0.96 1.58
-8.67 1.00 1.58
-8.85 1.07 1.57
-8.94 1.15 1.56
-2.92 0.56 1.95
-3.60 0.88 1.90
-3.65 0.97 1.90
-3.07 0.94 1.94
-7.96 0.09 1.59
-8.24 0.30 1.57
-7.97 0.31 1.59
-8.16 0.34 1.58
-7.98 0.40 1.59
-9.52 0.71 1.48
-8.76 0.75 1.53
-8.89 0.78 1.52
-8.81 0.82 1.53
-8.80 0.93 1.53
-8.90 0.96 1.52
-8.69 0.99 1.53
-8.69 1.08 1.53
-8.42 1.15 1.55
-5.05 1.26 1.78
-5.68 1.59 1.73
-2.97 -1.19 1.84
-11.15 -0.51 1.30
-7.99 -0.26 1.59
-8.07 -0.20 1.58
-7.87 -0.15 1.60
-7.71 -0.11 1.61
-8.01 -0.09 1.59
-14.10 1.59 1.08
-2.89 0.96 1.91
-3.93 0.02 1.82
-7.19 0.12 1.56
-15.81 0.29 0.87
-7.14 0.17 1.56
-8.04 0.30 1.49
-7.93 0.31 1.50
-15.71 0.91 0.87
-8.93 0.60 1.42
-14.02 0.99 1.01
-14.02 1.06 1.01
-15.22 1.18 0.91
-8.56 0.73 1.45
-13.79 1.18 1.03
-14.07 1.34 1.00
-13.73 1.35 1.03
-13.45 1.42 1.05
-8.92 1.01 1.41
-13.84 1.57 1.02
-13.36 1.58 1.06
-13.62 1.65 1.03
-13.29 1.64 1.06
-13.31 1.68 1.06
-5.55 0.97 1.68
-4.12 0.78 1.79
-5.54 1.05 1.68
-5.63 1.08 1.67
-3.88 0.90 1.81
-4.90 1.20 1.73
-4.87 1.21 1.73
-3.85 1.05 1.81
-4.45 1.21 1.76
-5.34 1.46 1.69
-4.72 1.48 1.73
-4.56 1.52 1.74
-4.29 1.45 1.77
-3.89 1.42 1.80
-3.54 1.33 1.83
-2.17 -1.60 1.83
-2.78 -1.46 1.79
-2.91 -1.43 1.78
-2.76 -1.37 1.79
-3.13 -1.44 1.77
-2.86 -1.21 1.79
-3.13 -1.23 1.77
-2.89 -1.16 1.79
-2.46 -0.96 1.82
-2.18 -0.67 1.85
-2.69 -0.62 1.81
-2.99 -0.60 1.79
-2.46 -0.46 1.83
-3.21 -0.36 1.77
-11.33 -0.74 1.14
-11.84 -0.58 1.19
-11.31 -0.50 1.23
-11.96 -0.50 1.18
-7.46 -0.22 1.54
-11.46 -0.22 1.22
-8.34 -0.08 1.47
-7.68 0.10 1.48
-7.66 0.12 1.48
-7.20 0.13 1.52
-9.20 0.22 1.35
-7.95 0.33 1.45
-8.50 0.40 1.41
-15.63 0.98 0.80
-13.68 0.93 0.96
-13.83 0.97 0.95
-13.82 1.01 0.95
-13.90 1.05 0.94
-13.98 1.09 0.94
-8.84 0.73 1.38
-10.72 0.90 1.21
-13.99 1.19 0.93
-13.91 1.22 0.94
-13.89 1.26 0.94
-14.11 1.31 0.92
-13.72 1.31 0.96
-14.02 1.37 0.93
-13.72 1.38 0.96
-13.98 1.44 0.93
-14.05 1.48 0.93
-13.60 1.47 0.96
-13.74 1.52 0.95
-13.60 1.68 0.96
-13.27 1.67 0.99
-5.33 0.85 1.67
-4.41 1.05 1.74
-4.05 0.99 1.77
-4.74 1.15 1.71
-2.53 -1.58 1.78
-2.55 -0.92 1.79
-7.55 -0.19 1.38
-7.80 0.07 1.41
-4.30 0.05 1.73
-7.95 0.11 1.40
-7.53 0.12 1.44
-7.71 0.17 1.42
-8.11 0.19 1.38
-7.42 0.26 1.45
-8.16 0.32 1.38
-7.18 0.41 1.47
-7.05 0.43 1.48
-7.38 0.46 1.45
-13.80 1.04 0.86
-13.68 1.07 0.87
-8.74 0.72 1.32
-14.03 1.16 0.84
-13.76 1.18 0.86
-13.97 1.51 0.84
-12.97 1.47 0.93
-13.78 1.63 0.86
-13.05 1.61 0.92
-13.24 1.67 0.90
-5.44 0.82 1.62
-5.63 0.88 1.60
-5.55 0.89 1.61
-5.85 1.21 1.58
-6.35 1.34 1.53
-5.97 1.36 1.56
-6.06 1.40 1.55
-5.11 1.22 1.64
-4.84 1.19 1.67
-5.53 1.35 1.60
-5.81 1.48 1.57
-5.36 1.40 1.62
-5.92 1.63 1.56
-5.13 1.63 1.63
-4.47 1.49 1.69
-4.95 1.67 1.64
-2.58 -1.65 1.75
-2.97 -1.52 1.72
-2.73 -1.30 1.74
-2.85 -1.11 1.73
-3.09 -1.15 1.71
-2.52 -0.62 1.77
-6.85 -0.62 1.38
-7.01 -0.48 1.37
-11.04 -0.67 1.01
-10.60 -0.40 1.05
-10.37 -0.36 1.07
-3.12 -0.13 1.72
-9.86 -0.24 1.12
-11.64 -0.02 1.06
-7.00 0.06 1.32
-6.24 0.13 1.39
-6.47 0.20 1.37
-7.94 0.31 1.35
-9.15 0.57 1.23
-8.24 0.53 1.32
-7.61 0.54 1.38
-14.52 1.06 0.71
-13.95 1.09 0.76
-8.73 0.72 1.27
-14.33 1.19 0.73
-7.21 0.66 1.42
-8.59 0.82 1.28
-13.79 1.59 0.77
-13.70 1.62 0.78
-13.48 1.63 0.80
-13.55 1.67 0.80
-13.20 1.66 0.83
-5.69 0.81 1.56
-3.29 0.54 1.80
-3.55 0.59 1.77
-3.39 0.62 1.79
-3.54 0.84 1.77
-4.10 0.98 1.71
-4.09 1.02 1.71
-3.72 0.98 1.75
-4.42 1.42 1.67
-3.29 1.11 1.78
-2.08 -1.54 1.77
-2.37 -1.61 1.74
-2.23 -1.54 1.76
-2.48 -1.41 1.74
-2.35 -1.29 1.75
-2.27 -1.22 1.76
-2.30 -1.20 1.76
-2.50 -1.18 1.74
-2.35 -0.87 1.76
-2.28 -0.84 1.76
-2.01 -0.78 1.79
-10.86 -0.44 0.95
-9.14 0.03 1.18
-7.59 0.05 1.34
-7.75 0.07 1.32
-9.19 0.12 1.17
-8.60 0.14 1.23
-7.06 0.19 1.39
-7.16 0.23 1.38
-6.91 0.24 1.40
-7.23 0.27 1.37
-7.84 0.37 1.31
-7.91 0.39 1.30
-7.30 0.38 1.36
-7.46 0.41 1.35
-7.32 0.42 1.36
-8.58 0.51 1.23
-7.32 0.48 1.36
-7.23 0.49 1.37
-7.37 0.52 1.35
-7.42 0.56 1.35
-7.12 0.56 1.38
-14.34 1.12 0.63
-7.36 0.65 1.35
-7.26 0.66 1.36
-13.98 1.26 0.67
-13.70 1.27 0.69
-8.45 0.83 1.24
-13.82 1.35 0.68
-6.16 0.70 1.48
-13.60 1.50 0.70
-6.33 0.75 1.46
-13.58 1.57 0.70
-13.53 1.60 0.71
-13.37 1.65 0.72
-13.35 1.68 0.73
-5.42 0.77 1.55
-7.12 1.10 1.37
-5.49 0.88 1.54
-5.36 0.88 1.55
-5.20 0.87 1.57
-3.73 0.69 1.72
-5.49 1.10 1.54
-5.87 1.18 1.50
-5.74 1.17 1.51
-6.04 1.26 1.48
-5.97 1.27 1.48
-5.02 1.14 1.58
-4.89 1.13 1.60
-5.46 1.28 1.53
-5.08 1.21 1.57
-5.02 1.25 1.58
-5.14 1.33 1.57
-5.41 1.40 1.54
-4.25 1.16 1.66
-5.99 1.63 1.47
-5.98 1.65 1.47
-5.17 1.52 1.56
-4.67 1.42 1.61
-5.21 1.58 1.55
-5.45 1.66 1.53
-4.81 1.53 1.59
-4.66 1.53 1.61
-4.84 1.64 1.59
-3.80 1.57 1.69
-2.57 -1.61 1.69
-2.86 -1.69 1.66
-2.63 -1.60 1.69
-2.77 -1.59 1.67
-2.62 -1.51 1.69
-2.49 -1.42 1.70
-2.54 -1.34 1.70
-2.90 -1.43 1.66
-2.64 -1.34 1.69
-2.76 -1.31 1.68
-2.90 -1.33 1.67
-2.77 -1.29 1.68
-3.05 -1.33 1.65
-2.97 -1.28 1.66
-2.44 -1.12 1.71
-3.66 -1.34 1.59
-3.13 -1.17 1.65
-3.05 -1.14 1.65
-2.84 -0.70 1.68
-3.08 -0.71 1.66
-12.33 -1.21 0.72
-12.54 -1.20 0.70
-12.61 -1.10 0.69
-12.38 -1.04 0.72
-12.60 -1.03 0.69
-12.26 -0.93 0.73
-11.29 -0.77 0.83
-10.86 -0.72 0.87
-10.80 -0.66 0.88
-10.62 -0.61 0.90
-11.07 -0.60 0.85
-10.05 -0.44 0.95
-10.46 -0.43 0.91
-11.00 -0.38 0.98
-10.85 -0.34 1.00
-10.90 -0.32 0.99
-8.26 -0.20 1.27
-8.27 -0.18 1.27
-8.08 -0.07 1.28
-8.72 -0.06 1.22
-8.95 -0.01 1.19
-14.20 1.07 0.55
-13.76 1.38 0.59
-13.41 1.55 0.63
-13.01 1.60 0.67
-3.37 0.70 1.73
-1.90 -0.76 1.75
-11.05 -0.23 0.77
-9.51 0.06 1.00
-9.65 0.08 0.99
-9.80 0.11 0.97
-9.72 0.16 0.98
-3.44 0.09 1.71
-7.07 0.21 1.28
-7.12 0.26 1.28
-7.13 0.28 1.28
-6.91 0.29 1.30
-7.05 0.32 1.29
-7.14 0.34 1.28
-7.36 0.37 1.25
-7.26 0.38 1.26
-14.11 0.82 0.46
-7.42 0.49 1.24
-14.02 1.06 0.47
-13.91 1.08 0.48
-14.01 1.13 0.47
-14.16 1.17 0.45
-14.35 1.22 0.43
-13.63 1.20 0.51
-13.66 1.24 0.51
-13.45 1.32 0.53
-13.59 1.37 0.51
-13.85 1.43 0.48
-13.35 1.41 0.54
-13.52 1.46 0.52
-13.79 1.53 0.49
-13.39 1.55 0.54
-13.61 1.61 0.51
-3.54 0.48 1.69
-13.30 1.64 0.54
-3.75 0.67 1.66
-4.01 0.88 1.63
-3.88 0.89 1.64
-3.88 0.90 1.64
-4.08 0.99 1.62
-3.57 0.92 1.68
-3.72 1.05 1.65
-4.14 1.17 1.60
-3.97 1.17 1.62
-3.52 1.20 1.67
-3.86 1.31 1.63
-4.26 1.50 1.58
-2.41 -1.56 1.64
-2.18 -1.31 1.68
-2.40 -1.28 1.65
-2.37 -1.26 1.66
-2.28 -1.21 1.67
-2.45 -1.25 1.65
-2.38 -1.11 1.66
-2.32 -1.05 1.67
-3.12 -0.96 1.58
-12.43 -1.08 0.52
-11.80 -0.97 0.59
-11.13 -0.60 0.81
-11.49 -0.59 0.77
-11.00 -0.54 0.83
-11.49 -0.51 0.77
-11.22 -0.44 0.80
-7.68 -0.27 1.22
-11.19 -0.35 0.81
-7.62 -0.17 1.22
-8.19 -0.10 1.16
-9.44 -0.01 1.01
-9.48 0.10 0.94
-9.54 0.13 0.93
-6.91 0.24 1.25
-7.67 0.28 1.16
-7.18 0.28 1.22
-7.20 0.30 1.22
-7.17 0.32 1.22
-7.13 0.34 1.23
-7.37 0.37 1.20
-7.13 0.38 1.23
-13.85 0.73 0.40
-9.62 0.57 0.92
-14.09 0.85 0.36
-6.56 0.43 1.29
-6.66 0.46 1.28
-6.96 0.49 1.24
-6.97 0.51 1.24
-7.09 0.54 1.23
-13.88 1.08 0.39
-9.71 0.79 0.90
-7.44 0.64 1.18
-14.06 1.20 0.36
-14.42 1.26 0.32
-9.64 0.89 0.91
-14.05 1.30 0.36
-13.16 1.29 0.47
-13.08 1.32 0.48
-13.35 1.38 0.45
-13.49 1.42 0.43
-13.44 1.45 0.44
-13.43 1.48 0.44
-13.77 1.56 0.39
-13.46 1.56 0.43
-13.19 1.56 0.47
-12.86 1.55 0.51
-13.68 1.68 0.40
-12.86 1.65 0.50
-3.45 0.58 1.67
-3.21 0.56 1.70
-6.18 1.05 1.33
-3.56 0.78 1.65
-3.87 0.86 1.61
-3.91 0.88 1.61
-3.88 0.89 1.61
-3.86 0.91 1.61
-4.02 0.96 1.59
-3.69 0.91 1.63
-3.74 0.95 1.63
-3.67 0.94 1.64
-4.01 1.03 1.59
-4.34 1.13 1.55
-3.92 1.06 1.60
-3.83 1.07 1.61
-3.98 1.13 1.59
-3.95 1.24 1.59
-3.20 1.07 1.69
-3.98 1.43 1.58
-1.56 -1.58 1.71
-1.56 -1.42 1.72
-1.74 -1.37 1.70
-2.57 -1.55 1.60
-2.34 -1.40 1.63
-2.42 -1.42 1.62
-2.21 -1.34 1.64
-2.17 -1.32 1.65
-2.19 -1.30 1.65
-2.20 -1.27 1.65
-2.33 -1.29 1.63
-2.46 -1.30 1.62
-2.55 -1.31 1.61
-2.53 -1.21 1.61
-2.27 -1.10 1.64
-1.91 -0.66 1.69
-2.34 -0.72 1.64
-1.78 -0.60 1.71
-2.11 -0.59 1.67
-12.43 -1.12 0.42
-7.60 -0.38 1.01
-10.82 -0.41 0.62
-8.27 -0.08 0.92
-7.38 -0.05 1.03
-7.34 0.00 1.14
-4.23 0.03 1.55
-8.41 0.07 1.00
-7.92 0.09 1.07
-4.57 0.07 1.51
-7.75 0.13 1.09
-9.13 0.17 0.91
-9.63 0.20 0.84
-7.36 0.18 1.14
-9.49 0.25 0.86
-8.93 0.26 0.93
-7.02 0.22 1.18
-7.22 0.25 1.16
-7.04 0.26 1.18
-7.15 0.28 1.17
-7.12 0.30 1.17
-7.12 0.32 1.17
-7.10 0.34 1.17
-7.01 0.35 1.18
-6.86 0.36 1.20
-6.68 0.37 1.23
-7.05 0.41 1.18
-6.68 0.41 1.23
-6.65 0.44 1.23
-7.20 0.49 1.16
-14.00 0.95 0.27
-7.31 0.53 1.14
-6.94 0.53 1.19
-6.67 0.53 1.23
-14.03 1.09 0.26
-13.67 1.13 0.31
-6.80 0.61 1.21
-14.08 1.24 0.25
-14.26 1.29 0.23
-13.94 1.29 0.27
-6.97 0.70 1.18
-13.27 1.30 0.36
-13.63 1.37 0.31
-13.40 1.38 0.34
-13.69 1.44 0.30
-13.65 1.47 0.31
-13.84 1.53 0.28
-13.26 1.50 0.36
-13.00 1.51 0.39
-13.19 1.56 0.36
-12.86 1.56 0.41
-6.44 0.83 1.25
-6.49 0.86 1.24
-5.63 0.77 1.36
-6.16 0.85 1.29
-6.12 0.88 1.29
-6.05 0.95 1.30
-6.07 0.97 1.30
-5.95 0.97 1.31
-5.60 0.95 1.36
-6.04 1.03 1.30
-5.99 1.09 1.30
-6.40 1.19 1.25
-6.17 1.17 1.28
-6.45 1.29 1.24
-6.16 1.37 1.27
-4.45 1.04 1.50
-4.30 1.02 1.52
-4.29 1.13 1.52
-4.36 1.16 1.51
-6.44 1.66 1.23
-4.35 1.20 1.51
-3.99 1.34 1.55
-4.11 1.42 1.53
-4.32 1.50 1.50
-4.37 1.52 1.49
-2.35 -1.49 1.59
-2.39 -1.29 1.59
-2.58 -1.32 1.57
-2.60 -0.87 1.57
-1.38 -0.56 1.73
-12.74 -1.57 0.27
-12.81 -1.36 0.26
-4.82 -0.60 1.29
-12.70 -1.24 0.28
-6.76 -0.49 1.04
-11.73 -0.44 0.41
-11.54 -0.40 0.43
-3.83 -0.09 1.42
-7.34 -0.09 1.14
-7.75 -0.05 1.09
-7.72 -0.03 1.09
-8.68 -0.01 0.97
-6.89 0.01 0.96
-10.20 0.22 0.51
-6.90 0.21 0.96
-9.14 0.28 0.84
-6.87 0.24 1.15
-9.17 0.33 0.83
-6.71 0.27 1.17
-9.92 0.43 0.73
-5.81 0.31 1.30
-6.42 0.36 1.21
-6.75 0.44 1.16
-7.16 0.49 1.11
-9.72 0.67 0.75
-7.35 0.56 1.08
-7.96 0.62 1.00
-7.55 0.67 1.05
-9.71 0.87 0.75
-5.18 0.52 1.38
-13.25 1.37 0.26
-6.11 0.71 1.25
-5.71 0.69 1.30
-13.04 1.51 0.29
-13.09 1.55 0.28
-13.15 1.59 0.27
-13.23 1.66 0.26
-3.39 0.55 1.62
-5.99 0.94 1.26
-3.58 0.80 1.59
-3.45 0.78 1.61
-3.58 0.82 1.59
-3.65 0.84 1.58
-3.65 0.86 1.58
-3.63 0.87 1.58
-4.08 0.99 1.51
-3.57 0.90 1.59
-3.43 0.91 1.60
-4.11 1.12 1.51
-3.35 1.00 1.61
-3.56 1.07 1.58
-3.80 1.14 1.55
-3.60 1.11 1.57
-4.77 1.46 1.41
-3.44 1.11 1.60
-3.55 1.19 1.58
-2.21 -1.48 1.58
-2.29 -1.50 1.56
-2.16 -1.43 1.58
-2.33 -1.47 1.56
-2.26 -1.40 1.57
-1.93 -1.28 1.62
-1.97 -1.27 1.61
-1.89 -1.16 1.63
-2.35 -1.28 1.56
-2.05 -1.18 1.61
-2.31 -1.18 1.57
-2.36 -1.14 1.57
-2.14 -1.07 1.60
-2.15 -0.90 1.60
-2.21 -0.87 1.59
-2.30 -0.83 1.58
-7.00 -0.76 0.95
-6.78 -0.73 0.98
-6.99 -0.55 0.95
-8.43 -0.51 0.75
-6.76 -0.39 0.98
-6.61 -0.23 1.00
-11.08 -0.32 0.39
-7.74 -0.08 0.85
-7.31 0.12 1.03
-4.86 0.10 1.39
-9.31 0.20 0.74
-7.57 0.20 0.99
-9.29 0.27 0.74
-9.32 0.29 0.74
-9.25 0.31 0.75
-6.81 0.25 1.10
-9.13 0.38 0.76
-9.58 0.44 0.70
-6.83 0.34 1.10
-6.97 0.37 1.08
-6.34 0.35 1.17
-5.72 0.34 1.26
-5.52 0.34 1.29
-5.71 0.37 1.26
-9.33 0.60 0.73
-6.43 0.44 1.15
-7.32 0.52 1.02
-7.64 0.58 0.98
-7.39 0.58 1.01
-6.31 0.52 1.17
-6.26 0.53 1.18
-9.78 0.83 0.66
-5.56 0.51 1.28
-9.61 0.86 0.69
-7.86 0.74 0.94
-9.69 0.92 0.68
-6.41 0.64 1.15
-6.14 0.64 1.19
-6.42 0.68 1.15
-6.47 0.70 1.14
-6.77 0.78 1.10
-6.91 0.83 1.08
-5.62 0.71 1.27
-5.94 0.76 1.22
-5.58 0.75 1.27
-5.81 0.85 1.23
-5.96 0.89 1.21
-5.78 0.93 1.24
-5.86 0.97 1.22
-5.84 1.00 1.23
-3.93 0.83 1.50
-4.26 0.91 1.45
-4.28 1.22 1.44
-4.02 1.32 1.47
-4.32 1.46 1.42
-4.29 1.51 1.42
-4.36 1.59 1.41
-2.30 -1.68 1.52
-2.38 -1.49 1.52
-2.86 -1.30 1.46
-2.69 -1.15 1.48
-2.52 -1.05 1.51
-2.59 -1.04 1.50
-2.79 -1.07 1.47
-2.65 -1.03 1.49
-2.76 -1.01 1.48
-3.07 -1.04 1.43
-3.04 -0.93 1.44
-8.54 -0.30 0.85
-8.40 -0.27 0.87
-11.90 -0.35 0.36
-8.41 -0.23 0.87
-7.71 -0.17 0.97
-7.64 -0.15 0.98
-7.79 -0.11 0.96
-7.75 -0.07 0.97
-8.19 -0.05 0.90
-8.50 -0.04 0.86
-2.90 0.96 1.62
-1.81 -0.96 1.58
-2.00 -0.94 1.56
-2.04 -0.92 1.55
-2.02 -0.90 1.55
-2.19 -0.93 1.53
-1.39 -0.53 1.66
-7.57 -0.12 0.72
-9.11 0.10 0.62
-9.08 0.15 0.62
-8.68 0.16 0.69
-8.24 0.18 0.76
-5.01 0.18 1.27
-4.86 0.20 1.30
-5.56 0.24 1.19
-4.75 0.23 1.32
-5.08 0.28 1.26
-5.09 0.29 1.26
-5.21 0.32 1.24
-5.19 0.34 1.24
-5.31 0.37 1.22
-5.25 0.38 1.23
-10.09 0.85 0.45
-5.68 0.52 1.16
-6.01 0.59 1.11
-5.69 0.67 1.16
-2.97 1.58 1.54
-2.28 -1.25 1.47
-2.09 -1.10 1.50
-2.37 -1.15 1.46
-2.06 -1.06 1.51
-2.27 -1.04 1.48
-2.10 -0.92 1.50
-2.35 -0.97 1.46
-2.55 -1.00 1.43
-3.57 -0.07 1.51
-8.09 -0.12 0.78
-8.11 -0.10 0.78
-8.40 -0.08 0.73
-8.03 0.01 0.49
-3.53 0.02 1.24
-5.73 0.09 1.11
-4.72 0.22 1.28
-4.92 0.25 1.24
-4.94 0.28 1.24
-5.54 0.36 1.14
-5.50 0.37 1.15
-5.87 0.45 1.08
-10.22 0.81 0.35
-5.79 0.49 1.09
-5.69 0.50 1.11
-5.41 0.51 1.16
-5.63 0.57 1.12
-5.88 0.61 1.08
-5.30 0.58 1.18
-5.27 0.61 1.18
-6.05 0.75 1.05
-5.82 0.75 1.08
-6.07 0.79 1.04
-3.36 0.53 1.50
-6.10 0.91 1.03
-6.07 0.92 1.04
-3.86 0.84 1.41
-4.68 1.02 1.26
-3.79 0.87 1.42
-3.62 0.91 1.44
-3.75 0.95 1.42
-3.79 0.98 1.41
-3.65 0.97 1.44
-3.66 0.99 1.43
-3.49 1.00 1.46
-3.92 1.13 1.38
-4.16 1.21 1.34
-3.03 1.32 1.52
-3.69 1.57 1.40
-3.49 1.60 1.42
-2.92 1.46 1.52
-1.82 -1.42 1.50
-1.98 -1.45 1.47
-1.99 -1.44 1.47
-2.06 -1.31 1.47
-1.95 -1.27 1.48
-2.21 -1.28 1.44
-2.01 -1.19 1.48
-1.83 -1.12 1.51
-1.93 -1.13 1.49
-1.99 -1.13 1.48
-2.25 -1.18 1.44
-2.13 -1.11 1.46
-1.85 -1.03 1.51
-2.07 -1.08 1.47
-2.05 -1.04 1.48
-1.98 -1.01 1.49
-2.43 -1.12 1.41
-2.20 -1.05 1.45
-2.29 -1.06 1.44
-2.38 -1.07 1.42
-2.32 -1.04 1.43
-2.19 -1.00 1.46
-2.14 -0.98 1.46
-2.39 -1.03 1.42
-2.33 -1.00 1.43
-2.45 -1.01 1.41
-2.58 -1.03 1.39
-2.52 -1.00 1.40
-2.59 -1.00 1.39
-2.84 -1.04 1.35
-2.42 -0.94 1.42
-2.58 -0.96 1.39
-2.65 -0.96 1.38
-2.46 -0.90 1.41
-6.37 -1.37 0.76
-2.38 -0.65 1.43
-2.66 -0.18 1.39
-3.48 -0.19 1.25
-8.00 -0.11 0.50
-7.97 -0.08 0.50
-7.59 -0.05 0.57
-8.02 -0.03 0.49
-8.04 -0.01 0.49
-7.95 0.00 0.67
-8.12 0.03 0.64
-8.34 0.18 0.59
-7.83 0.19 0.68
-8.20 0.22 0.62
-8.26 0.24 0.61
-8.81 0.28 0.51
-8.96 0.30 0.48
-4.98 0.19 1.19
-8.29 0.34 0.60
-5.51 0.25 1.10
-8.14 0.38 0.63
-5.99 0.30 1.01
-7.57 0.40 0.73
-6.57 0.37 0.91
-6.37 0.37 0.94
-6.38 0.39 0.94
-7.99 0.50 0.65
-6.19 0.41 0.97
-6.11 0.44 0.99
-6.88 0.51 0.85
-5.80 0.45 1.04
-6.09 0.49 0.99
-6.20 0.51 0.97
-5.73 0.49 1.05
-6.22 0.54 0.96
-5.94 0.54 1.01
-6.38 0.59 0.94
-6.40 0.61 0.93
-6.28 0.68 0.95
-6.38 0.77 0.93
-7.33 0.94 0.76
-6.81 0.89 0.85
-7.11 0.95 0.80
-6.55 0.97 0.90
-6.39 0.98 0.92
-6.59 1.03 0.89
-6.04 1.00 0.98
-4.92 1.00 1.18
-5.00 1.02 1.16
-2.67 -1.24 1.33
-2.22 -1.04 1.41
-2.44 -1.03 1.38
-2.67 -1.01 1.33
-2.57 -0.98 1.35
-2.51 -0.95 1.37
-3.73 -0.44 1.16
-3.54 -0.40 1.19
-7.73 -0.11 0.71
-8.00 -0.10 0.66
-7.91 -0.07 0.67
-5.15 -0.04 1.16
-7.87 -0.03 0.68
-8.02 -0.01 0.65
-7.53 0.06 0.41
-3.54 0.07 1.14
-7.14 0.17 0.48
-3.22 0.11 1.20
-4.49 0.15 1.23
-4.56 0.16 1.22
-8.03 0.33 0.57
-5.95 0.36 0.96
-5.66 0.36 1.01
-5.71 0.38 1.00
-5.51 0.46 1.04
-5.89 0.53 0.97
-6.24 0.58 0.90
-6.47 0.61 0.86
-5.87 0.69 0.97
-5.77 0.69 0.98
-6.71 0.85 0.81
-8.59 1.44 0.44
-7.61 1.43 0.62
-4.70 0.97 1.17
-3.63 0.79 1.37
-3.62 0.88 1.37
-3.87 0.99 1.32
-3.82 0.99 1.33
-3.61 0.95 1.37
-3.58 0.96 1.37
-3.89 1.08 1.31
-3.78 1.09 1.33
-3.45 1.04 1.39
-3.33 1.10 1.41
-3.02 1.03 1.47
-3.51 1.20 1.37
-3.71 1.39 1.33
-3.34 1.30 1.39
-3.13 1.24 1.44
-3.63 1.41 1.34
-3.05 1.52 1.43
-1.68 -1.34 1.46
-2.06 -1.27 1.39
-1.71 -1.08 1.47
-1.98 -1.08 1.42
-2.85 -1.30 1.25
-1.88 -1.04 1.44
-1.92 -1.04 1.43
-1.99 -1.05 1.42
-1.96 -1.03 1.42
-1.83 -0.99 1.45
-2.03 -1.03 1.41
-2.08 -1.03 1.40
-1.72 -0.89 1.47
-2.28 -1.01 1.36
-2.17 -0.98 1.39
-2.18 -0.97 1.38
-2.10 -0.94 1.40
-2.34 -0.98 1.36
-2.54 -1.02 1.32
-2.57 -1.01 1.31
-2.20 -0.92 1.38
-2.51 -0.98 1.32
-2.76 -1.02 1.28
-2.52 -0.96 1.32
-2.56 -0.94 1.32
-3.84 -0.50 1.09
-3.48 -0.43 1.15
-2.84 -0.15 1.27
-7.71 -0.15 0.38
-7.93 -0.13 0.34
-4.33 0.00 1.22
-7.65 0.03 0.57
-7.42 0.04 0.62
-8.76 0.16 0.36
-8.42 0.18 0.42
-4.79 0.12 1.13
-8.56 0.22 0.40
-4.99 0.15 1.09
-8.60 0.27 0.39
-8.05 0.29 0.49
-6.78 0.27 0.74
-8.22 0.34 0.46
-7.99 0.35 0.50
-7.92 0.37 0.52
-7.94 0.39 0.51
-7.16 0.38 0.66
-6.13 0.34 0.87
-7.44 0.43 0.61
-6.98 0.42 0.70
-6.88 0.43 0.72
-6.82 0.45 0.73
-6.14 0.42 0.86
-6.19 0.44 0.85
-6.64 0.49 0.76
-6.57 0.50 0.78
-6.34 0.50 0.82
-6.04 0.50 0.88
-6.20 0.53 0.85
-6.30 0.55 0.83
-6.51 0.58 0.79
-6.23 0.58 0.84
-6.68 0.63 0.75
-6.99 0.68 0.69
-6.27 0.63 0.83
-6.87 0.70 0.71
-6.80 0.71 0.73
-6.50 0.70 0.79
-6.51 0.72 0.78
-6.29 0.72 0.83
-5.92 0.69 0.90
-6.47 0.77 0.79
-6.13 0.77 0.85
-5.85 0.75 0.91
-6.65 0.86 0.75
-6.97 0.92 0.69
-6.00 0.83 0.88
-6.12 0.86 0.85
-7.02 1.00 0.68
-5.74 0.84 0.93
-7.32 1.29 0.61
-7.40 1.36 0.59
-4.70 0.93 1.12
-7.78 1.51 0.51
-7.78 1.55 0.51
-8.07 1.62 0.45
-7.49 1.53 0.57
-4.44 1.06 1.17
-2.34 -0.98 1.31
-3.61 -0.51 1.08
-3.75 -0.49 1.05
-3.83 -0.49 1.04
-4.14 -0.48 0.98
-3.91 -0.45 1.02
-8.62 -0.08 0.39
-8.29 -0.06 0.45
-2.89 1.05 1.43
-1.40 -1.04 1.46
-1.76 -1.01 1.39
-1.81 -1.01 1.38
-1.89 -1.01 1.37
-1.74 -0.96 1.40
-1.85 -0.97 1.38
-1.78 -0.92 1.39
-1.56 -0.85 1.44
-4.21 0.02 1.15
-5.90 0.05 0.80
-5.91 0.07 0.79
-5.92 0.08 0.79
-6.74 0.11 0.62
-6.22 0.12 0.73
-6.64 0.14 0.64
-6.63 0.16 0.64
-4.76 0.13 1.04
-5.28 0.17 0.92
-6.86 0.24 0.59
-5.16 0.20 0.95
-6.62 0.26 0.64
-4.66 0.21 1.06
-7.17 0.32 0.52
-6.94 0.33 0.57
-7.14 0.36 0.53
-7.01 0.37 0.56
-6.95 0.38 0.57
-7.22 0.42 0.51
-6.44 0.41 0.67
-6.18 0.41 0.73
-6.20 0.43 0.73
-5.98 0.43 0.77
-6.08 0.45 0.75
-6.45 0.49 0.67
-6.33 0.50 0.70
-6.69 0.55 0.62
-6.16 0.52 0.73
-6.27 0.55 0.71
-6.16 0.55 0.73
-6.25 0.58 0.71
-6.20 0.59 0.72
-5.96 0.59 0.77
-6.19 0.62 0.72
-6.00 0.62 0.76
-6.02 0.64 0.76
-6.13 0.67 0.73
-5.92 0.66 0.78
-5.83 0.67 0.80
-5.66 0.67 0.83
-5.41 0.65 0.89
-5.72 0.70 0.82
-5.45 0.69 0.88
-5.62 0.72 0.84
-6.55 0.85 0.64
-6.31 0.84 0.69
-5.06 0.74 0.96
-4.98 0.76 0.97
-7.19 1.19 0.49
-7.33 1.23 0.46
-7.33 1.25 0.46
-7.43 1.29 0.44
-7.14 1.26 0.50
-7.36 1.31 0.45
-7.64 1.38 0.39
-7.49 1.37 0.42
-7.21 1.35 0.48
-7.24 1.37 0.48
-7.43 1.42 0.43
-7.35 1.43 0.45
-4.01 0.86 1.17
-3.97 0.86 1.18
-7.73 1.60 0.36
-7.55 1.63 0.40
-7.55 1.65 0.40
-7.39 1.64 0.43
-7.19 1.61 0.48
-3.44 0.89 1.29
-3.82 0.98 1.20
-2.15 -1.00 1.27
-1.95 -0.91 1.32
-2.36 -0.98 1.23
-3.06 -0.61 1.09
-4.07 -0.70 0.88
-4.50 -0.56 0.79
-4.44 -0.52 0.80
-4.47 -0.51 0.79
-4.21 -0.37 0.85
-3.88 -0.33 0.92
-5.86 -0.24 0.81
-5.43 -0.18 0.90
-7.94 -0.24 0.36
-5.82 -0.16 0.81
-7.87 -0.15 0.38
-4.13 -0.04 1.17
-7.88 -0.05 0.37
-6.12 -0.03 0.75
-3.46 0.02 0.96
-3.93 0.04 0.85
-3.01 0.04 1.05
-4.53 0.05 1.04
-4.58 0.06 1.03
-4.48 0.09 1.05
-4.95 0.12 0.94
-4.45 0.15 1.06
-4.90 0.17 0.96
-4.44 0.18 1.06
-4.56 0.21 1.03
-4.56 0.23 1.03
-5.09 0.28 0.91
-7.18 0.39 0.44
-6.48 0.39 0.60
-5.99 0.40 0.71
-5.97 0.41 0.71
-6.09 0.45 0.69
-5.79 0.45 0.75
-5.48 0.46 0.82
-6.01 0.53 0.70
-5.85 0.53 0.74
-6.24 0.59 0.65
-6.06 0.59 0.69
-6.39 0.66 0.61
-5.61 0.61 0.79
-5.78 0.65 0.75
-5.24 0.63 0.87
-4.00 0.79 1.13
-2.04 -0.86 1.26
-2.17 -0.86 1.23
-2.10 -0.83 1.25
-2.15 -0.81 1.24
-3.24 -0.81 1.00
-2.91 -0.75 1.07
-3.06 -0.72 1.04
-3.87 -0.56 0.86
-4.00 -0.56 0.83
-3.88 -0.46 0.86
-4.38 -0.49 0.75
-4.06 -0.39 0.82
-4.59 -0.41 0.71
-3.96 -0.34 0.85
-3.27 -0.27 1.00
-3.54 -0.22 0.94
-3.07 -0.19 1.04
-3.58 -0.20 0.93
-3.30 -0.16 0.99
-3.04 -0.12 1.05
-3.48 -0.07 0.95
-6.51 0.39 0.52
-6.48 0.41 0.53
-6.06 0.40 0.63
-6.28 0.43 0.58
-6.48 0.46 0.53
-6.55 0.48 0.51
-6.41 0.49 0.54
-6.63 0.52 0.49
-6.11 0.50 0.61
-6.76 0.57 0.46
-6.76 0.59 0.46
-6.60 0.59 0.50
-6.52 0.60 0.52
-6.23 0.59 0.58
-6.50 0.63 0.52
-6.19 0.62 0.59
-6.35 0.65 0.55
-6.45 0.68 0.53
-6.54 0.71 0.51
-6.65 0.73 0.48
-6.75 0.80 0.45
-6.12 0.81 0.60
-2.72 1.62 1.14
-1.09 -1.11 0.53
-1.30 -0.78 0.41
-2.06 -0.53 0.28
-2.07 -0.54 0.22
-1.59 -0.85 0.24
-1.56 -0.89 0.23
