# .PCD v0.7 - Point Cloud Data file format
VERSION 0.7
FIELDS x y z
SIZE 4 4 4
TYPE F F F
COUNT 1 1 1
WIDTH 312
HEIGHT 1
VIEWPOINT 0 0 0 1 0 0 0
POINTS 312
DATA ASCII
-2.21 -1.61 2.08
-1.51 -1.50 2.05
-15.47 1.10 1.39
-1.77 -1.50 1.97
-14.26 -0.05 1.32
-15.73 0.02 0.89
-14.51 0.53 0.99
-13.91 0.54 0.96
-12.34 -1.22 0.97
-15.16 0.29 0.76
-13.43 0.39 0.91
-13.85 0.67 0.87
-5.60 -1.65 1.48
-5.89 -1.60 1.45
-5.15 -1.08 1.53
-13.53 0.09 0.69
-13.89 0.57 0.79
-1.23 -1.45 1.85
-1.65 -1.25 1.81
-14.06 0.16 0.68
-13.92 0.33 0.70
-13.41 0.39 0.75
-14.64 1.11 0.61
-1.46 -1.66 1.77
-13.89 0.37 0.50
-14.17 0.72 0.47
-2.98 -1.60 1.58
-8.33 -1.28 0.97
-10.29 -0.14 0.92
-15.36 -0.02 0.34
-14.06 0.65 0.38
-11.91 0.97 0.64
-15.45 1.63 0.20
-5.79 -0.82 1.22
-8.42 -0.94 0.90
-5.96 -0.18 1.20
-13.81 0.40 0.31
-14.49 0.45 0.22
-7.38 0.30 1.14
-7.58 0.38 1.12
-7.57 0.40 1.12
-7.68 0.49 1.10
-12.22 1.55 0.50
-5.26 -1.69 1.22
-8.42 -1.29 0.82
-5.81 -0.78 1.16
-5.72 -0.75 1.17
-5.66 -0.73 1.18
-8.24 -0.90 0.84
-8.48 -0.90 0.81
-9.43 -0.40 0.69
-9.44 -0.38 0.69
-5.95 0.01 1.08
-6.15 0.08 1.06
-7.51 0.28 1.07
-7.84 0.32 1.02
-7.49 0.42 1.07
-13.11 1.26 0.29
-11.70 1.40 0.48
-11.73 1.46 0.48
-11.79 1.59 0.46
-11.89 1.63 0.45
-1.84 -1.69 1.61
-8.25 -1.12 0.77
-5.71 -0.70 1.12
-9.55 -0.40 0.59
-7.34 0.26 1.03
-7.11 0.47 1.06
-11.41 0.85 0.44
-11.44 1.26 0.43
-11.45 1.32 0.42
-11.67 1.40 0.39
-11.50 1.44 0.41
-11.16 1.43 0.46
-11.58 1.51 0.40
-11.40 1.54 0.43
-11.88 1.63 0.35
-3.72 0.82 1.54
-8.74 -1.44 0.61
-8.47 -1.33 0.65
-5.78 -0.71 1.05
-5.80 -0.69 1.04
-5.72 -0.66 1.05
-5.74 -0.63 1.05
-5.94 -0.62 1.02
-6.14 -0.62 0.99
-9.50 -0.76 0.51
-9.41 -0.73 0.52
-9.81 -0.50 0.46
-7.69 0.33 0.85
-7.79 0.35 0.83
-11.19 1.00 0.28
-11.20 1.09 0.28
-11.01 1.13 0.31
-11.36 1.36 0.25
-11.23 1.46 0.26
-8.67 -1.45 0.45
-8.84 -1.21 0.43
-5.95 -0.76 0.90
-6.50 -0.75 0.81
-9.59 -0.42 0.55
-9.56 -0.33 0.55
-7.66 0.17 0.79
-7.91 0.26 0.75
-7.48 0.40 0.82
-6.71 0.43 0.95
-10.23 1.60 0.33
-10.30 1.64 0.32
-10.02 1.65 0.36
-10.05 1.68 0.36
-9.90 1.68 0.38
-3.37 0.72 1.49
-1.38 -0.90 1.59
-8.56 -1.39 0.39
-8.58 -1.34 0.38
-8.53 -1.26 0.39
-5.96 -0.80 0.83
-8.85 -0.38 0.35
-8.20 -0.26 0.46
-7.95 0.01 0.67
-7.16 0.05 0.81
-7.90 0.11 0.68
-7.92 0.17 0.68
-6.75 0.17 0.88
-7.71 0.27 0.71
-7.49 0.32 0.75
-7.00 0.32 0.84
-6.03 0.30 1.00
-7.51 0.38 0.74
-6.92 0.37 0.85
-6.60 0.37 0.90
-7.41 0.47 0.76
-6.70 0.46 0.88
-6.69 0.48 0.89
-6.98 0.52 0.83
-9.86 1.52 0.31
-6.13 -0.79 0.73
-6.11 -0.77 0.74
-5.80 -0.50 0.79
-7.97 -0.52 0.41
-7.85 -0.46 0.43
-6.66 -0.08 0.90
-6.21 0.20 0.65
-7.33 0.28 0.71
-6.14 0.33 0.93
-6.66 0.38 0.83
-1.69 -1.69 1.44
-7.54 -0.08 0.40
-6.10 0.03 0.88
-6.45 0.04 0.81
-7.72 0.07 0.57
-6.52 0.08 0.80
-7.18 0.10 0.67
-6.84 0.14 0.74
-6.80 0.15 0.74
-5.85 0.15 0.93
-5.99 0.17 0.90
-6.62 0.20 0.78
-6.97 0.23 0.71
-6.04 0.22 0.89
-6.40 0.25 0.82
-7.42 0.30 0.62
-6.89 0.32 0.72
-7.23 0.35 0.66
-7.00 0.37 0.70
-6.49 0.37 0.80
-6.57 0.40 0.78
-6.73 0.43 0.75
-6.91 0.46 0.72
-7.05 0.49 0.69
-6.84 0.49 0.73
-4.46 0.47 1.19
-4.88 0.55 1.10
-4.92 0.62 1.09
-6.49 -1.26 0.51
-6.36 -1.12 0.54
-6.59 -0.82 0.50
-6.15 -0.76 0.58
-5.89 -0.68 0.64
-5.87 -0.66 0.64
-5.75 -0.63 0.66
-5.77 -0.50 0.66
-5.62 -0.45 0.69
-5.59 -0.42 0.70
-7.77 -0.17 0.56
-8.25 -0.14 0.46
-8.64 -0.12 0.39
-8.38 -0.10 0.44
-8.30 -0.03 0.45
-7.77 0.01 0.40
-5.87 0.04 0.80
-5.98 0.06 0.78
-6.51 0.08 0.67
-5.28 0.09 0.93
-5.38 0.11 0.91
-6.83 0.15 0.60
-5.52 0.16 0.88
-5.05 0.16 0.97
-6.32 0.21 0.71
-6.34 0.24 0.70
-5.35 0.24 0.91
-6.01 0.29 0.77
-6.16 0.32 0.74
-6.26 0.34 0.72
-5.64 0.34 0.85
-5.61 0.35 0.85
-5.97 0.39 0.78
-5.39 0.38 0.90
-5.17 0.38 0.95
-5.50 0.42 0.88
-4.93 0.41 1.00
-5.02 0.44 0.98
-4.88 0.46 1.01
-4.91 0.47 1.00
-4.85 0.48 1.01
-4.67 0.49 1.05
-5.12 0.55 0.95
-5.92 0.64 0.78
-4.63 0.56 1.05
-4.68 0.61 1.04
-4.84 0.64 1.01
-7.49 1.67 0.41
-3.19 -0.60 1.06
-3.32 -0.60 1.03
-5.40 -0.58 0.60
-5.79 -0.58 0.51
-5.66 -0.55 0.54
-6.17 -0.57 0.43
-6.16 -0.54 0.44
-4.11 -0.35 0.87
-7.91 -0.19 0.38
-7.81 -0.15 0.39
-7.68 -0.07 0.42
-5.64 0.00 0.47
-5.96 0.02 0.40
-7.43 0.11 0.40
-6.11 0.11 0.69
-5.88 0.16 0.74
-5.90 0.18 0.74
-5.55 0.19 0.81
-5.40 0.20 0.85
-5.67 0.22 0.78
-5.72 0.24 0.77
-5.62 0.25 0.80
-5.31 0.25 0.86
-5.11 0.25 0.91
-5.64 0.29 0.79
-4.89 0.27 0.96
-5.41 0.31 0.84
-5.34 0.32 0.86
-5.63 0.35 0.79
-5.37 0.35 0.85
-5.40 0.37 0.84
-5.47 0.39 0.83
-5.18 0.38 0.89
-5.30 0.40 0.86
-5.18 0.41 0.89
-4.86 0.40 0.96
-4.74 0.43 0.98
-4.78 0.47 0.98
-4.27 0.44 1.09
-4.79 0.50 0.97
-4.23 0.46 1.10
-5.03 0.55 0.92
-4.46 0.51 1.04
-4.35 0.51 1.07
-4.06 0.55 1.13
-3.17 -0.56 1.02
-5.99 -0.59 0.39
-5.74 -0.55 0.45
-5.40 -0.41 0.53
-4.70 -0.25 0.68
-5.80 -0.28 0.44
-5.61 -0.21 0.48
-5.00 -0.18 0.62
-5.70 -0.18 0.46
-5.57 -0.16 0.49
-6.08 -0.15 0.38
-5.90 -0.13 0.41
-6.63 0.13 0.50
-6.66 0.15 0.49
-6.16 0.19 0.61
-6.27 0.21 0.58
-7.10 0.25 0.39
-6.05 0.23 0.63
-6.44 0.26 0.54
-6.44 0.28 0.54
-6.00 0.28 0.64
-5.86 0.29 0.68
-6.37 0.33 0.56
-5.87 0.32 0.67
-6.01 0.34 0.64
-5.98 0.36 0.65
-5.89 0.37 0.67
-5.90 0.38 0.66
-5.55 0.42 0.74
-2.75 0.68 0.46
-2.15 0.80 0.36
-1.14 -0.77 0.38
-1.43 -0.76 0.35
-2.21 -0.30 0.24
-1.61 -0.81 0.24
-2.12 -0.57 0.18
-1.03 -0.99 0.12
-1.47 -0.86 0.13
-0.91 -0.85 0.13
-0.96 -0.83 0.13
-1.31 -0.80 0.13
-1.31 -0.79 0.12
-1.36 -0.79 0.12
-0.96 -0.73 0.14
-1.24 -0.67 0.14
