# .PCD v0.7 - Point Cloud Data file format
VERSION 0.7
FIELDS x y z
SIZE 4 4 4
TYPE F F F
COUNT 1 1 1
WIDTH 256
HEIGHT 1
VIEWPOINT 0 0 0 1 0 0 0
POINTS 256
DATA ASCII
-3.36 1.19 2.09
-5.75 -1.41 1.92
-3.85 0.77 1.96
-5.43 -1.65 1.81
-5.71 -1.66 1.79
-3.33 -0.33 1.92
-3.39 0.76 1.96
-5.71 -1.69 1.72
-2.90 1.69 1.93
-4.03 1.20 1.85
-6.38 1.14 1.62
-4.23 0.99 1.79
-5.59 -1.69 1.57
-5.94 -1.65 1.54
-10.56 0.52 1.17
-3.96 1.51 1.74
-6.45 -1.54 1.40
-13.95 1.20 0.78
-3.62 0.95 1.76
-3.95 0.67 1.71
-6.45 -1.48 1.30
-3.18 -0.48 1.64
-9.33 -0.75 1.01
-4.08 -0.32 1.55
-9.50 -0.57 1.00
-9.52 -0.04 1.15
-1.77 -0.56 1.76
-8.73 0.28 1.10
-7.84 0.80 1.20
-8.97 0.40 1.01
-8.03 0.48 1.12
-14.18 1.54 0.36
-13.65 1.55 0.42
-6.47 -1.48 1.13
-2.46 -0.34 1.63
-9.53 -0.59 0.76
-8.21 0.28 1.04
-8.46 0.42 1.00
-7.96 0.48 1.07
-7.89 0.50 1.08
-3.81 0.33 1.60
-7.48 0.69 1.13
-13.90 1.54 0.29
-7.47 1.20 1.12
-6.20 -1.52 1.10
-8.01 -1.43 0.87
-4.85 -0.55 1.28
-5.12 -0.51 1.25
-4.55 -0.40 1.32
-4.24 -0.37 1.36
-8.78 0.28 0.90
-3.58 0.16 1.61
-9.05 0.45 0.86
-8.45 0.44 0.94
-8.07 0.45 0.99
-8.00 0.46 1.00
-7.92 0.50 1.01
-7.78 0.51 1.03
-7.91 0.54 1.01
-7.67 0.62 1.04
-7.73 1.30 1.02
-5.30 -0.08 1.17
-8.71 0.10 0.83
-8.83 0.12 0.82
-8.22 0.16 0.90
-8.15 0.24 0.91
-8.19 0.26 0.91
-8.46 0.29 0.87
-8.58 0.45 0.85
-7.76 0.45 0.97
-7.90 0.48 0.95
-7.96 0.50 0.94
-6.04 -1.15 1.00
-4.96 -0.55 1.16
-4.80 -0.52 1.19
-9.43 -0.84 0.52
-5.58 -0.32 1.07
-5.07 -0.28 1.15
-6.02 -0.23 1.12
-7.66 0.27 0.79
-8.13 0.34 0.71
-8.50 0.40 0.65
-8.36 0.44 0.67
-8.86 0.48 0.59
-7.02 0.65 0.89
-7.08 0.69 0.88
-6.09 -1.06 0.80
-4.81 -0.57 1.02
-8.05 -0.67 0.48
-4.57 -0.15 1.06
-3.53 -0.12 1.24
-5.30 -0.03 0.94
-5.63 0.02 1.08
-8.79 0.08 0.52
-8.65 0.10 0.55
-7.53 0.26 0.74
-8.10 0.32 0.64
-7.79 0.39 0.70
-7.54 0.40 0.74
-8.08 0.47 0.64
-7.63 0.46 0.72
-7.15 0.49 0.81
-6.75 0.63 0.87
-6.10 0.87 0.98
-6.53 -1.68 0.64
-6.53 -1.66 0.65
-6.55 -0.42 0.66
-4.89 -0.26 0.95
-4.94 -0.24 0.94
-5.65 -0.20 0.82
-4.85 -0.14 0.96
-5.39 -0.06 1.12
-5.63 -0.04 1.08
-7.99 -0.01 0.66
-4.75 0.02 0.92
-5.77 0.10 0.73
-6.35 0.23 0.62
-7.24 0.23 0.72
-6.90 0.67 0.78
-5.42 -0.88 0.79
-3.97 -0.10 1.06
-4.18 -0.05 1.02
-5.05 -0.01 0.86
-5.75 0.01 0.95
-5.60 0.02 0.97
-5.68 0.04 0.96
-7.71 0.07 0.57
-5.84 0.10 0.93
-7.55 0.20 0.60
-7.09 0.23 0.69
-7.50 0.30 0.61
-7.28 0.31 0.65
-6.99 0.32 0.70
-7.81 0.43 0.54
-7.83 0.49 0.54
-7.39 0.49 0.62
-7.32 0.50 0.64
-7.25 0.61 0.65
-6.47 0.79 0.79
-6.36 1.16 0.80
-5.63 -1.49 0.67
-5.83 -1.03 0.64
-6.04 -0.94 0.60
-6.05 -0.90 0.60
-5.68 -0.73 0.68
-6.48 -0.58 0.52
-3.83 -0.28 1.04
-6.45 -0.38 0.53
-4.16 -0.23 0.97
-4.91 -0.24 0.83
-6.54 -0.21 0.79
-6.34 -0.19 0.83
-6.01 -0.13 0.90
-5.80 -0.12 0.94
-5.75 -0.10 0.95
-5.78 -0.08 0.94
-5.95 -0.07 0.91
-5.40 -0.04 1.01
-5.73 -0.01 0.95
-5.74 0.01 0.83
-5.65 0.04 0.85
-6.65 0.06 0.64
-7.20 0.08 0.52
-7.13 0.12 0.54
-6.68 0.13 0.63
-6.92 0.15 0.58
-7.26 0.18 0.51
-7.07 0.19 0.55
-6.95 0.23 0.57
-7.42 0.26 0.47
-7.27 0.27 0.51
-7.20 0.29 0.52
-7.49 0.34 0.46
-6.82 0.33 0.60
-6.51 0.43 0.66
-5.81 0.73 0.80
-5.80 0.78 0.80
-5.83 0.88 0.79
-6.01 -1.60 0.44
-6.22 -0.92 0.42
-6.38 -0.76 0.38
-3.28 -0.43 1.04
-3.90 -0.44 0.91
-6.48 -0.54 0.37
-3.94 -0.34 0.90
-7.84 -0.41 0.39
-6.61 -0.34 0.65
-5.61 -0.25 0.86
-6.19 -0.25 0.74
-6.56 -0.23 0.66
-6.21 -0.20 0.73
-6.49 -0.19 0.67
-6.43 -0.14 0.69
-6.02 -0.12 0.77
-6.40 -0.09 0.69
-5.86 -0.05 0.81
-5.81 -0.02 0.82
-5.98 -0.01 0.78
-7.33 0.08 0.42
-6.71 0.09 0.56
-6.76 0.17 0.55
-7.10 0.19 0.47
-4.23 0.13 1.10
-6.92 0.22 0.51
-7.08 0.25 0.47
-5.96 0.32 0.72
-4.50 0.30 1.04
-5.94 0.60 0.72
-5.96 0.80 0.71
-6.15 -0.78 0.36
-5.84 -0.67 0.43
-3.86 -0.47 0.87
-3.55 -0.44 0.93
-3.62 -0.43 0.92
-3.68 -0.42 0.91
-3.61 -0.40 0.92
-3.85 -0.40 0.87
-4.09 -0.41 0.81
-3.83 -0.37 0.87
-3.80 -0.36 0.88
-5.21 -0.43 0.57
-3.85 -0.33 0.87
-3.67 -0.31 0.91
-4.78 -0.34 0.66
-4.95 -0.33 0.62
-3.57 -0.25 0.93
-4.02 -0.26 0.83
-3.79 -0.23 0.88
-5.03 -0.27 0.61
-3.68 -0.20 0.91
-3.60 -0.18 0.92
-5.27 -0.22 0.55
-4.63 -0.19 0.70
-5.02 -0.18 0.61
-5.10 -0.17 0.59
-4.68 -0.14 0.68
-4.15 -0.11 0.80
-3.93 -0.10 0.85
-4.05 -0.08 0.82
-7.20 0.19 0.37
-7.14 0.30 0.38
-7.08 0.49 0.39
-6.39 1.00 0.53
-4.99 -0.38 0.54
-5.70 -0.25 0.38
-5.22 -0.22 0.49
-5.61 -0.21 0.40
-5.33 -0.19 0.46
-5.47 -0.17 0.43
-5.55 -0.16 0.41
-5.25 -0.13 0.48
-2.83 0.40 0.30
-1.04 -0.86 0.37
-1.90 0.66 0.26
-1.76 0.59 0.28
-1.73 0.79 0.25
