# .PCD v0.7 - Point Cloud Data file format
VERSION 0.7
FIELDS x y z
SIZE 4 4 4
TYPE F F F
COUNT 1 1 1
WIDTH 2855
HEIGHT 1
VIEWPOINT 0 0 0 1 0 0 0
POINTS 2855
DATA ASCII
-15.34 -0.43 2.05
-15.17 -0.39 2.05
-15.70 -0.36 2.04
-15.53 -0.32 2.05
-15.62 -0.29 2.04
-15.52 -0.25 2.05
-15.76 -0.21 2.04
-15.16 -0.17 2.05
-15.35 -0.10 2.05
-15.02 -0.06 2.05
-15.16 -0.02 2.05
-14.87 0.05 1.96
-14.80 0.12 1.96
-14.97 0.16 1.96
-15.51 -0.58 1.93
-14.77 -0.16 1.96
-15.06 -0.13 1.96
-15.02 -0.09 1.96
-15.12 -0.06 1.96
-15.09 -0.02 1.96
-14.85 0.01 1.96
-15.11 0.19 1.89
-14.66 0.35 1.90
-15.11 -0.48 1.89
-15.56 -0.45 1.88
-15.31 -0.32 1.89
-14.74 -0.27 1.90
-15.05 -0.23 1.89
-15.04 -0.15 1.89
-14.61 -0.10 1.90
-15.02 0.05 1.87
-14.82 0.09 1.87
-15.06 0.16 1.87
-14.70 0.19 1.88
-15.09 0.27 1.87
-15.20 0.38 1.87
-15.35 -0.54 1.86
-14.98 -0.49 1.87
-15.10 -0.46 1.87
-15.31 -0.39 1.87
-14.94 -0.35 1.87
-14.96 -0.31 1.87
-14.99 -0.13 1.87
-14.85 -0.09 1.87
-15.12 -0.06 1.87
-14.99 -0.02 1.87
-15.10 0.01 1.87
-15.16 -0.02 1.78
-15.51 0.11 1.77
-15.16 0.15 1.78
-15.30 0.19 1.78
-14.95 0.32 1.79
-14.78 0.35 1.79
-15.99 -0.38 1.76
-15.18 -0.19 1.78
-14.86 -0.14 1.79
-14.87 -0.06 1.79
-15.23 0.05 1.77
-14.93 0.09 1.78
-14.98 0.12 1.78
-15.06 0.16 1.78
-15.11 0.23 1.78
-15.09 0.27 1.78
-15.04 0.30 1.78
-15.12 0.34 1.78
-15.16 0.38 1.77
-15.07 -0.75 1.78
-15.36 -0.69 1.77
-15.44 -0.66 1.77
-15.18 -0.61 1.78
-15.40 -0.54 1.77
-15.86 -0.37 1.76
-15.70 -0.18 1.76
-14.89 -0.13 1.78
-14.91 -0.06 1.78
-15.41 -0.02 1.77
-15.23 0.01 1.77
-14.69 -0.02 1.69
-14.52 0.02 1.69
-14.67 0.06 1.69
-14.89 0.16 1.74
-14.94 0.19 1.74
-15.04 0.23 1.73
-15.11 0.27 1.73
-14.91 0.30 1.74
-15.04 0.34 1.73
-15.19 0.42 1.73
-14.79 -0.68 1.68
-15.86 -0.64 1.65
-14.65 -0.06 1.69
-15.77 0.05 1.65
-15.29 0.09 1.66
-15.16 0.12 1.67
-15.27 0.16 1.66
-15.12 0.20 1.67
-15.12 0.23 1.67
-15.09 0.27 1.67
-15.23 0.31 1.66
-15.12 0.34 1.67
-15.20 0.38 1.66
-14.73 -0.77 1.61
-15.21 -0.21 1.67
-15.20 -0.17 1.67
-15.87 -0.14 1.64
-15.45 -0.10 1.66
-15.78 -0.06 1.65
-15.66 -0.02 1.65
-15.68 0.01 1.65
-15.02 0.15 1.54
-15.45 0.19 1.52
-15.23 0.23 1.53
-15.36 0.28 1.52
-15.21 -0.74 1.53
-14.77 -0.52 1.55
-14.68 -0.10 1.55
-15.40 -0.06 1.52
-15.77 0.05 1.52
-15.59 0.09 1.53
-15.52 0.13 1.53
-15.17 0.16 1.55
-15.51 0.20 1.54
-15.68 0.24 1.53
-14.91 0.27 1.56
-14.91 0.30 1.56
-15.71 -0.81 1.44
-15.20 -0.50 1.55
-15.58 -0.47 1.53
-15.41 -0.40 1.54
-15.16 -0.35 1.55
-9.29 -0.20 1.79
-15.02 -0.28 1.56
-14.92 -0.24 1.56
-15.47 -0.21 1.54
-9.41 -0.11 1.79
-15.39 -0.13 1.54
-15.24 -0.10 1.55
-15.34 -0.06 1.54
-15.30 -0.02 1.54
-15.81 0.01 1.52
-9.63 -0.01 1.64
-9.38 0.02 1.65
-14.75 0.15 1.41
-9.02 0.13 1.67
-9.33 0.16 1.65
-9.23 0.19 1.66
-9.29 0.21 1.65
-9.23 0.24 1.65
-9.24 0.27 1.65
-15.71 -0.81 1.37
-15.05 -0.32 1.40
-15.18 -0.15 1.39
-14.66 -0.06 1.42
-9.90 0.03 1.68
-9.77 0.06 1.69
-9.81 0.08 1.68
-9.79 0.10 1.68
-10.09 0.13 1.67
-9.88 0.15 1.68
-9.82 0.18 1.68
-9.70 0.22 1.69
-9.90 0.30 1.68
-10.02 0.33 1.67
-9.89 0.35 1.68
-10.02 0.38 1.67
-9.80 0.42 1.68
-15.00 0.96 1.42
-15.23 -0.69 1.42
-14.98 -0.64 1.43
-15.87 -0.60 1.39
-15.48 -0.55 1.40
-14.79 -0.45 1.44
-14.78 -0.42 1.44
-9.84 -0.26 1.68
-9.45 -0.22 1.70
-9.61 -0.20 1.69
-9.84 -0.18 1.68
-9.67 -0.16 1.69
-9.86 -0.11 1.68
-9.70 -0.09 1.69
-9.87 -0.06 1.68
-9.88 -0.04 1.68
-15.32 -0.02 1.41
-9.73 0.01 1.69
-9.21 -0.01 1.55
-14.84 0.02 1.25
-9.62 0.08 1.65
-9.69 0.10 1.65
-9.60 0.13 1.65
-9.70 0.15 1.65
-9.73 0.18 1.64
-9.73 0.20 1.64
-9.54 0.22 1.65
-9.70 0.25 1.65
-9.79 0.27 1.64
-9.86 0.30 1.64
-9.88 0.32 1.64
-9.91 0.35 1.63
-9.84 0.37 1.64
-9.66 0.41 1.65
-14.49 1.21 1.38
-14.55 1.36 1.38
-15.91 -1.13 1.20
-8.31 -0.56 1.60
-8.45 -0.54 1.59
-8.34 -0.51 1.60
-8.43 -0.49 1.59
-8.24 -0.45 1.60
-8.20 -0.43 1.61
-8.29 -0.40 1.60
-15.37 -0.62 1.23
-8.82 -0.26 1.57
-9.01 -0.24 1.56
-9.01 -0.21 1.56
-14.95 -0.27 1.25
-15.05 -0.23 1.24
-9.30 -0.10 1.55
-9.55 -0.07 1.53
-9.59 0.03 1.60
-9.63 0.06 1.60
-9.63 0.08 1.60
-9.70 0.10 1.60
-9.68 0.13 1.60
-9.46 0.15 1.61
-9.55 0.17 1.61
-9.55 0.20 1.61
-9.54 0.22 1.61
-9.52 0.24 1.61
-9.59 0.27 1.60
-9.70 0.29 1.60
-9.79 0.32 1.59
-9.59 0.34 1.60
-9.80 0.37 1.59
-9.69 0.39 1.60
-9.73 0.41 1.59
-9.73 0.44 1.59
-10.03 0.47 1.58
-8.96 0.51 1.64
-14.39 1.13 1.32
-14.44 1.17 1.31
-9.66 -1.28 1.47
-9.73 -1.25 1.46
-9.02 -0.90 1.51
-8.77 -0.86 1.52
-9.15 -0.83 1.50
-15.84 -1.26 1.11
-8.58 -0.74 1.53
-15.90 -1.17 1.11
-8.34 -0.59 1.55
-8.31 -0.56 1.55
-8.38 -0.54 1.54
-8.34 -0.51 1.54
-8.34 -0.48 1.54
-8.20 -0.45 1.55
-8.34 -0.43 1.54
-8.41 -0.41 1.54
-6.75 -0.28 1.64
-10.12 -0.35 1.44
-15.35 -0.41 1.14
-15.11 -0.36 1.15
-14.98 -0.32 1.16
-10.03 -0.11 1.58
-9.82 -0.09 1.59
-9.80 -0.06 1.59
-9.56 -0.04 1.61
-9.75 -0.01 1.60
-9.64 0.01 1.60
-9.22 -0.01 1.44
-9.62 0.13 1.41
-13.31 0.21 1.18
-9.59 0.29 1.56
-9.66 0.32 1.55
-9.59 0.34 1.56
-9.68 0.36 1.55
-9.70 0.39 1.55
-9.69 0.41 1.55
-9.85 0.47 1.54
-11.98 0.68 1.41
-14.27 1.26 1.26
-14.52 1.32 1.24
-14.17 1.35 1.26
-13.62 1.37 1.30
-9.68 -1.34 1.41
-9.73 -1.28 1.41
-9.91 -1.27 1.40
-9.70 -1.22 1.41
-9.75 -1.20 1.41
-9.74 -1.14 1.41
-9.87 -1.09 1.40
-9.62 -1.04 1.41
-9.17 -0.92 1.44
-8.82 -0.83 1.46
-15.92 -1.30 1.02
-9.02 -0.79 1.45
-15.77 -1.21 1.03
-8.98 -0.73 1.45
-15.71 -1.11 1.03
-8.64 -0.63 1.48
-8.54 -0.60 1.48
-8.29 -0.56 1.50
-8.32 -0.54 1.50
-8.52 -0.52 1.48
-8.37 -0.48 1.49
-8.34 -0.46 1.49
-8.40 -0.43 1.49
-8.41 -0.41 1.49
-8.59 -0.39 1.48
-8.29 -0.35 1.50
-8.27 -0.32 1.50
-8.92 -0.26 1.46
-14.48 -0.18 1.11
-14.66 -0.14 1.10
-9.12 -0.04 1.45
-9.48 0.03 1.52
-9.60 0.06 1.51
-9.41 0.08 1.52
-9.59 0.10 1.51
-9.60 0.13 1.51
-9.47 0.15 1.52
-9.30 0.17 1.53
-9.47 0.19 1.52
-9.50 0.22 1.51
-9.56 0.24 1.51
-9.57 0.27 1.51
-9.69 0.29 1.50
-9.59 0.31 1.51
-9.67 0.34 1.50
-9.68 0.36 1.50
-9.80 0.39 1.49
-9.54 0.41 1.51
-9.72 0.44 1.50
-9.71 0.46 1.50
-10.23 0.53 1.46
-9.93 0.54 1.48
-11.80 0.67 1.36
-11.95 0.71 1.35
-12.08 0.75 1.34
-15.08 1.40 1.13
-13.94 1.40 1.21
-13.77 1.49 1.22
-13.52 1.50 1.23
-9.84 -1.48 1.34
-9.75 -1.44 1.34
-9.76 -1.41 1.34
-9.91 -1.40 1.33
-9.77 -1.35 1.34
-9.66 -1.31 1.35
-9.91 -1.31 1.33
-9.62 -1.25 1.35
-9.59 -1.21 1.35
-9.53 -1.18 1.36
-9.92 -1.19 1.33
-9.52 -1.12 1.36
-9.56 -1.09 1.36
-9.83 -1.09 1.34
-9.62 -1.04 1.35
-9.82 -1.03 1.34
-9.45 -0.97 1.36
-9.33 -0.93 1.37
-15.80 -1.39 0.94
-15.60 -1.33 0.95
-15.76 -1.30 0.94
-15.77 -1.25 0.94
-9.38 -0.79 1.37
-9.21 -0.75 1.38
-8.91 -0.70 1.40
-8.94 -0.68 1.40
-9.00 -0.65 1.39
-7.89 -0.57 1.47
-7.89 -0.54 1.47
-8.09 -0.53 1.46
-8.67 -0.53 1.42
-8.33 -0.48 1.44
-8.26 -0.46 1.44
-8.05 -0.42 1.46
-10.21 -0.26 1.47
-10.23 -0.22 1.47
-10.04 -0.19 1.48
-9.80 -0.16 1.50
-9.73 -0.13 1.50
-9.58 -0.11 1.51
-9.52 -0.08 1.51
-9.66 -0.06 1.51
-9.64 -0.04 1.51
-9.56 -0.01 1.51
-9.51 0.01 1.52
-14.45 -0.02 0.93
-8.85 0.01 1.34
-9.11 0.04 1.32
-9.92 0.08 1.26
-9.02 0.10 1.33
-10.23 0.14 1.24
-9.15 0.16 1.32
-9.07 0.18 1.33
-9.10 0.21 1.32
-8.76 0.23 1.35
-9.52 0.28 1.29
-9.84 0.40 1.27
-12.04 0.61 1.11
-12.02 0.65 1.11
-14.97 0.77 1.06
-12.06 0.69 1.27
-12.05 0.71 1.27
-11.94 0.74 1.28
-13.38 1.28 1.17
-14.48 1.42 1.09
-9.88 -1.51 1.27
-9.88 -1.48 1.27
-9.74 -1.43 1.28
-9.78 -1.41 1.27
-9.85 -1.39 1.27
-9.77 -1.35 1.27
-9.70 -1.31 1.28
-10.09 -1.32 1.25
-9.75 -1.26 1.28
-9.91 -1.24 1.27
-10.02 -1.22 1.26
-10.00 -1.19 1.26
-9.66 -1.13 1.28
-9.72 -1.10 1.28
-9.75 -1.08 1.28
-9.90 -1.06 1.27
-10.05 -1.01 1.26
-9.27 -0.89 1.31
-15.67 -1.33 0.85
-15.72 -1.29 0.84
-15.96 -1.26 0.82
-8.87 -0.73 1.34
-7.32 -0.56 1.46
-7.36 -0.51 1.45
-7.78 -0.51 1.42
-7.94 -0.47 1.41
-8.02 -0.44 1.40
-8.10 -0.42 1.40
-8.55 -0.41 1.36
-8.45 -0.38 1.37
-8.55 -0.36 1.37
-8.45 -0.33 1.37
-8.16 -0.30 1.39
-8.16 -0.27 1.39
-8.25 -0.25 1.39
-15.04 -0.32 0.89
-8.66 -0.12 1.36
-14.79 -0.15 0.91
-9.27 0.03 1.43
-9.42 0.05 1.42
-9.42 0.08 1.42
-9.52 0.10 1.41
-9.51 0.12 1.41
-9.73 0.15 1.39
-9.55 0.17 1.40
-9.56 0.20 1.40
-9.65 0.22 1.40
-9.57 0.24 1.40
-9.61 0.27 1.40
-9.74 0.29 1.39
-9.87 0.32 1.38
-9.66 0.34 1.39
-9.70 0.36 1.39
-10.00 0.40 1.37
-10.64 0.45 1.32
-10.09 0.45 1.36
-9.73 0.46 1.39
-9.73 0.49 1.39
-9.99 0.52 1.37
-9.80 0.54 1.38
-10.09 0.58 1.36
-12.22 0.72 1.19
-12.05 0.74 1.20
-9.93 0.64 1.37
-12.13 0.81 1.20
-10.16 0.71 1.35
-12.42 0.89 1.17
-12.63 0.93 1.15
-13.02 0.99 1.12
-12.93 1.05 1.13
-13.12 1.10 1.11
-12.83 1.11 1.14
-13.12 1.16 1.11
-14.84 1.38 0.98
-14.20 1.36 1.03
-13.54 1.33 1.08
-9.83 -1.63 1.20
-9.67 -1.58 1.21
-9.75 -1.56 1.20
-9.72 -1.52 1.21
-10.04 -1.53 1.18
-9.97 -1.50 1.19
-9.81 -1.45 1.20
-10.04 -1.44 1.18
-9.92 -1.40 1.19
-9.77 -1.35 1.20
-10.21 -1.37 1.17
-9.73 -1.29 1.21
-10.14 -1.30 1.17
-9.67 -1.22 1.21
-9.01 -1.13 1.26
-9.81 -1.18 1.20
-9.45 -1.11 1.23
-9.38 -1.08 1.24
-9.49 -1.06 1.23
-9.13 -1.00 1.25
-9.21 -0.98 1.25
-6.86 -0.76 1.43
-9.48 -0.94 1.23
-9.53 -0.92 1.22
-9.41 -0.88 1.23
-9.77 -0.88 1.21
-6.92 -0.65 1.43
-9.21 -0.78 1.25
-9.17 -0.75 1.25
-7.00 -0.59 1.42
-6.90 -0.56 1.43
-7.79 -0.40 1.54
-9.99 -0.48 1.37
-15.85 -0.64 0.91
-10.13 -0.39 1.36
-10.38 -0.37 1.34
-15.84 -0.52 0.91
-15.62 -0.48 0.92
-8.12 -0.23 1.52
-15.55 -0.40 0.93
-10.01 -0.24 1.37
-9.99 -0.21 1.37
-10.36 -0.19 1.34
-9.84 -0.16 1.38
-9.68 -0.13 1.39
-9.46 -0.11 1.41
-9.53 -0.08 1.41
-9.44 -0.06 1.41
-9.40 -0.04 1.42
-9.45 -0.01 1.41
-9.62 0.01 1.40
-8.54 -0.01 1.24
-8.61 0.04 1.24
-9.57 0.10 1.35
-9.55 0.13 1.35
-9.50 0.15 1.36
-9.48 0.17 1.36
-9.48 0.19 1.36
-9.60 0.22 1.35
-9.55 0.24 1.35
-9.70 0.27 1.34
-9.62 0.29 1.35
-9.58 0.31 1.35
-9.73 0.34 1.34
-9.98 0.37 1.32
-10.25 0.41 1.29
-10.14 0.43 1.30
-10.26 0.46 1.29
-12.80 0.60 1.08
-10.71 0.53 1.25
-10.78 0.56 1.25
-12.55 0.68 1.10
-12.39 0.70 1.11
-11.92 0.71 1.15
-12.45 0.77 1.11
-12.18 0.78 1.13
-10.34 0.69 1.29
-12.38 0.85 1.11
-12.34 0.88 1.12
-13.36 0.99 1.03
-12.91 0.98 1.07
-12.84 1.04 1.07
-13.10 1.09 1.05
-13.20 1.14 1.04
-13.48 1.19 1.02
-9.79 -1.68 1.14
-9.78 -1.65 1.14
-9.85 -1.63 1.13
-9.77 -1.59 1.14
-9.85 -1.57 1.13
-9.75 -1.52 1.14
-10.01 -1.53 1.12
-9.96 -1.49 1.12
-9.87 -1.45 1.13
-9.51 -1.35 1.16
-9.48 -1.32 1.17
-9.50 -1.29 1.16
-9.25 -1.24 1.19
-9.18 -1.20 1.19
-9.16 -1.17 1.19
-9.17 -1.14 1.19
-9.33 -1.13 1.18
-9.16 -1.08 1.19
-9.20 -1.06 1.19
-8.84 -0.97 1.22
-6.80 -0.78 1.39
-8.94 -0.93 1.21
-6.75 -0.71 1.39
-8.91 -0.84 1.21
-9.02 -0.82 1.21
-6.84 -0.65 1.39
-7.12 -0.64 1.36
-6.87 -0.60 1.38
-7.25 -0.60 1.35
-6.75 -0.55 1.39
-6.98 -0.54 1.38
-7.43 -0.54 1.34
-6.79 -0.48 1.39
-9.60 -0.60 1.16
-6.96 -0.45 1.38
-9.23 -0.52 1.19
-8.91 -0.48 1.21
-8.16 -0.43 1.28
-9.01 -0.43 1.21
-8.05 -0.37 1.29
-7.97 -0.34 1.29
-8.41 -0.33 1.26
-8.15 -0.30 1.28
-8.16 -0.27 1.28
-8.41 -0.25 1.26
-8.45 -0.22 1.25
-8.77 -0.20 1.23
-8.34 -0.17 1.26
-8.30 -0.12 1.26
-8.23 -0.09 1.27
-8.50 -0.04 1.25
-9.31 0.03 1.31
-9.54 0.06 1.29
-9.34 0.15 1.31
-9.45 0.17 1.30
-9.48 0.19 1.30
-9.55 0.22 1.29
-9.51 0.24 1.29
-9.49 0.26 1.30
-9.77 0.29 1.27
-9.89 0.32 1.26
-10.86 0.38 1.17
-10.80 0.40 1.18
-11.38 0.45 1.12
-12.78 0.54 1.00
-10.16 0.46 1.24
-12.97 0.61 0.98
-10.44 0.52 1.21
-10.58 0.55 1.20
-12.59 0.68 1.01
-12.40 0.70 1.03
-12.43 0.74 1.03
-11.09 0.69 1.15
-12.60 0.81 1.01
-12.88 0.86 0.99
-13.64 0.94 0.92
-12.48 0.89 1.02
-13.49 1.03 0.93
-13.25 1.04 0.95
-13.23 1.07 0.95
-13.05 1.09 0.97
-13.08 1.12 0.96
-13.05 1.15 0.97
-13.10 1.22 0.96
-14.25 1.40 0.86
-9.64 -1.66 1.07
-9.77 -1.65 1.06
-9.61 -1.60 1.07
-9.62 -1.57 1.07
-9.52 -1.53 1.08
-9.27 -1.47 1.11
-9.55 -1.47 1.08
-9.58 -1.45 1.08
-9.54 -1.38 1.08
-9.41 -1.34 1.09
-9.56 -1.33 1.08
-9.30 -1.27 1.10
-9.24 -1.24 1.11
-9.73 -1.26 1.07
-9.02 -1.16 1.13
-9.15 -1.14 1.12
-9.06 -1.10 1.12
-9.01 -1.04 1.13
-6.69 -0.57 1.34
-6.69 -0.52 1.34
-6.78 -0.51 1.33
-9.27 -0.58 1.11
-8.35 -0.51 1.19
-8.74 -0.50 1.16
-8.91 -0.48 1.14
-7.78 -0.41 1.24
-8.00 -0.39 1.22
-7.30 -0.34 1.28
-8.10 -0.35 1.21
-7.91 -0.32 1.23
-8.04 -0.29 1.22
-8.02 -0.27 1.22
-8.54 -0.25 1.17
-8.25 -0.22 1.20
-8.15 -0.19 1.21
-9.28 -0.11 1.32
-9.30 -0.08 1.32
-9.46 -0.06 1.30
-9.46 -0.04 1.30
-9.47 -0.01 1.30
-8.26 -0.01 1.14
-8.18 0.01 1.14
-8.04 0.04 1.16
-8.83 0.07 1.08
-8.96 0.10 1.07
-8.88 0.12 1.08
-8.85 0.15 1.08
-8.69 0.18 1.09
-8.95 0.21 1.07
-8.81 0.23 1.08
-8.76 0.26 1.09
-10.00 0.30 1.19
-10.14 0.33 1.18
-10.91 0.38 1.11
-10.54 0.42 1.14
-12.68 0.53 0.93
-11.18 0.50 1.08
-9.84 0.47 1.21
-12.80 0.63 0.92
-10.31 0.54 1.16
-10.47 0.62 1.15
-10.32 0.64 1.16
-10.93 0.70 1.10
-13.56 0.90 0.85
-9.70 0.67 1.22
-13.23 0.94 0.88
-14.11 1.04 0.79
-13.53 1.06 0.85
-13.98 1.17 0.80
-8.95 0.78 1.29
-13.30 1.18 0.87
-13.28 1.21 0.87
-14.20 1.32 0.78
-14.41 1.41 0.76
-14.36 1.44 0.76
-14.24 1.47 0.78
-14.30 1.51 0.77
-14.25 1.54 0.77
-14.16 1.56 0.78
-14.36 1.62 0.76
-14.33 1.69 0.76
-9.62 -1.66 1.00
-9.59 -1.62 1.01
-9.56 -1.59 1.01
-9.58 -1.56 1.01
-9.60 -1.54 1.01
-9.59 -1.50 1.01
-9.45 -1.46 1.02
-9.57 -1.44 1.01
-9.80 -1.44 0.99
-9.44 -1.37 1.02
-10.12 -1.42 0.96
-9.45 -1.31 1.02
-9.27 -1.27 1.04
-9.20 -1.23 1.05
-9.30 -1.21 1.04
-8.93 -1.15 1.07
-9.06 -1.13 1.06
-8.96 -1.07 1.07
-6.69 -0.77 1.29
-6.63 -0.61 1.29
-6.64 -0.48 1.29
-8.76 -0.56 1.09
-8.89 -0.54 1.08
-8.84 -0.51 1.08
-8.51 -0.47 1.11
-8.62 -0.44 1.10
-7.35 -0.37 1.23
-7.18 -0.34 1.24
-8.73 -0.37 1.09
-7.24 -0.29 1.24
-7.43 -0.28 1.22
-8.07 -0.27 1.16
-8.15 -0.24 1.15
-8.04 -0.22 1.16
-8.02 -0.19 1.16
-8.21 -0.17 1.14
-8.16 -0.14 1.15
-8.13 -0.12 1.15
-8.56 -0.09 1.11
-7.98 -0.06 1.16
-7.94 -0.04 1.17
-9.78 0.30 1.15
-12.62 0.47 0.86
-10.91 0.46 1.03
-9.43 0.42 1.18
-9.45 0.45 1.18
-9.92 0.52 1.13
-10.34 0.59 1.09
-9.70 0.60 1.15
-10.78 0.69 1.04
-13.45 0.93 0.77
-9.73 0.70 1.15
-6.75 0.51 1.46
-6.82 0.53 1.45
-11.03 0.87 1.02
-13.77 1.12 0.73
-13.86 1.16 0.72
-13.77 1.18 0.73
-9.26 0.83 1.20
-13.67 1.24 0.74
-13.87 1.29 0.72
-10.09 0.97 1.11
-14.15 1.39 0.69
-14.13 1.42 0.69
-10.40 1.08 1.08
-10.23 1.09 1.09
-10.34 1.13 1.08
-10.26 1.14 1.09
-10.38 1.18 1.08
-10.05 1.17 1.11
-10.15 1.21 1.10
-10.12 1.23 1.10
-9.66 -1.67 0.92
-9.77 -1.65 0.91
-9.61 -1.60 0.93
-9.73 -1.58 0.91
-9.53 -1.53 0.93
-9.36 -1.48 0.95
-9.30 -1.44 0.96
-9.05 -1.39 0.98
-9.14 -1.37 0.98
-8.99 -1.32 0.99
-9.09 -1.30 0.98
-9.07 -1.28 0.98
-8.84 -1.22 1.01
-8.85 -1.20 1.01
-8.55 -0.47 1.04
-6.66 -0.37 1.23
-9.41 -0.31 1.19
-9.76 -0.30 1.16
-9.46 -0.27 1.18
-9.22 -0.24 1.21
-9.44 -0.22 1.19
-9.30 -0.20 1.20
-9.29 -0.17 1.20
-9.20 -0.15 1.21
-9.23 -0.10 1.21
-9.19 -0.08 1.21
-9.20 -0.06 1.21
-9.21 -0.04 1.21
-9.21 -0.01 1.21
-9.25 0.01 1.21
-8.16 -0.01 1.01
-7.96 0.01 1.03
-8.29 0.04 0.99
-8.08 0.06 1.01
-8.23 0.09 1.00
-9.63 0.13 0.85
-8.13 0.14 1.01
-8.07 0.17 1.01
-8.49 0.20 0.97
-8.23 0.22 1.00
-8.46 0.25 0.97
-8.37 0.28 0.98
-8.39 0.30 0.98
-8.17 0.32 1.00
-8.30 0.35 0.99
-8.41 0.38 0.98
-11.32 0.52 0.66
-11.56 0.56 0.63
-11.54 0.59 0.64
-8.23 0.48 0.99
-9.66 0.50 1.10
-11.11 0.69 0.94
-13.87 0.89 0.63
-13.84 0.95 0.64
-13.84 1.02 0.64
-13.54 1.06 0.67
-14.06 1.14 0.61
-13.78 1.15 0.64
-13.88 1.22 0.63
-13.62 1.24 0.66
-13.51 1.26 0.67
-11.54 1.14 0.88
-13.88 1.39 0.63
-10.29 1.07 1.02
-14.67 1.58 0.54
-10.38 1.15 1.01
-10.22 1.16 1.03
-10.01 1.29 1.05
-10.13 1.33 1.03
-9.69 -1.66 0.84
-9.70 -1.63 0.84
-9.59 -1.59 0.85
-9.34 -1.53 0.88
-9.18 -1.48 0.89
-9.30 -1.47 0.88
-9.34 -1.44 0.88
-9.23 -1.40 0.89
-9.15 -1.37 0.90
-9.00 -1.32 0.91
-8.99 -1.29 0.92
-8.93 -1.26 0.92
-9.59 -1.30 0.85
-8.87 -1.19 0.93
-8.97 -1.18 0.92
-8.77 -1.13 0.94
-8.74 -1.10 0.94
-8.66 -1.06 0.95
-8.64 -1.04 0.95
-15.53 -1.58 0.21
-15.52 -1.49 0.21
-8.80 -0.89 0.94
-8.63 -0.66 0.96
-8.73 -0.61 0.95
-8.59 -0.58 0.96
-8.41 -0.51 0.98
-8.35 -0.48 0.99
-8.39 -0.46 0.98
-9.36 -0.41 0.88
-8.66 -0.31 0.95
-8.39 -0.28 0.98
-8.32 -0.25 0.99
-8.61 -0.23 0.96
-8.59 -0.20 0.96
-8.16 -0.17 1.01
-8.99 -0.15 0.92
-8.08 -0.11 1.02
-8.45 -0.09 0.98
-9.07 -0.07 0.91
-8.00 -0.04 1.02
-9.58 0.20 1.04
-9.72 0.22 1.02
-10.50 0.39 0.93
-10.52 0.42 0.93
-11.10 0.77 0.86
-11.43 0.82 0.82
-11.73 0.87 0.78
-11.61 0.89 0.80
-11.61 0.92 0.80
-9.77 0.80 1.01
-9.94 0.84 0.99
-11.77 1.02 0.78
-9.80 0.88 1.00
-13.44 1.22 0.58
-11.81 1.11 0.77
-10.27 0.99 0.95
-12.12 1.19 0.73
-13.14 1.32 0.61
-10.49 1.09 0.92
-10.16 1.08 0.96
-10.50 1.14 0.92
-10.25 1.14 0.95
-10.16 1.16 0.96
-10.19 1.19 0.96
-10.20 1.21 0.95
-9.98 1.21 0.98
-10.19 1.26 0.95
-10.22 1.29 0.95
-10.18 1.31 0.95
-10.21 1.34 0.95
-10.27 1.38 0.94
-9.78 -1.68 0.74
-9.78 -1.65 0.74
-9.48 -1.58 0.77
-9.92 -1.61 0.72
-9.09 -1.48 0.82
-9.22 -1.46 0.81
-8.95 -1.40 0.84
-9.07 -1.39 0.82
-8.94 -1.35 0.84
-8.95 -1.32 0.84
-9.03 -1.27 0.83
-9.02 -1.24 0.83
-9.02 -1.21 0.83
-8.48 -0.97 0.89
-8.76 -0.46 1.14
-8.67 -0.44 1.15
-8.67 -0.42 1.15
-8.70 -0.40 1.14
-8.75 -0.38 1.14
-8.70 -0.35 1.14
-8.61 -0.33 1.15
-8.80 -0.32 1.13
-8.94 -0.30 1.12
-9.38 -0.29 1.06
-9.40 -0.27 1.06
-9.57 -0.25 1.04
-9.41 -0.22 1.06
-9.31 -0.20 1.07
-9.20 -0.17 1.08
-9.23 -0.13 1.08
-9.25 -0.11 1.08
-9.02 -0.08 1.11
-9.02 -0.06 1.11
-9.26 -0.04 1.08
-9.30 -0.02 1.07
-9.32 0.01 1.07
-7.68 -0.01 0.92
-7.92 0.01 0.89
-10.65 0.19 0.84
-10.65 0.22 0.84
-11.33 0.40 0.76
-11.45 0.71 0.74
-12.33 0.85 0.63
-6.64 0.48 1.33
-12.88 0.95 0.56
-11.52 0.88 0.73
-11.54 0.91 0.73
-11.25 0.92 0.76
-11.12 0.93 0.78
-11.20 0.97 0.77
-10.00 0.89 0.91
-13.14 1.19 0.53
-10.09 0.95 0.90
-9.88 0.95 0.93
-9.96 0.99 0.92
-10.10 1.02 0.90
-10.13 1.05 0.90
-10.12 1.08 0.90
-10.25 1.12 0.88
-10.20 1.13 0.89
-10.21 1.16 0.88
-10.18 1.18 0.89
-10.23 1.21 0.88
-9.98 1.21 0.91
-8.56 1.07 1.09
-8.38 1.06 1.11
-10.16 1.31 0.89
-10.30 1.35 0.87
-10.17 1.36 0.88
-9.22 -1.58 0.73
-9.34 -1.53 0.71
-8.95 -1.34 0.76
-9.01 -1.27 0.75
-9.23 -1.21 0.73
-8.05 -0.24 0.87
-8.02 -0.22 0.88
-8.05 -0.19 0.87
-7.96 -0.17 0.88
-8.02 -0.11 0.88
-7.72 -0.09 0.91
-7.80 -0.04 0.90
-6.45 0.47 1.30
-11.29 0.86 0.67
-11.16 0.91 0.69
-7.95 0.67 1.11
-6.53 0.58 1.29
-8.05 0.74 1.09
-9.77 0.92 0.87
-9.77 0.94 0.87
-7.87 0.79 1.12
-7.98 0.84 1.10
-9.74 1.04 0.87
-9.71 1.08 0.87
-10.01 1.14 0.83
-9.98 1.16 0.84
-10.10 1.23 0.82
-9.74 1.21 0.87
-10.16 1.28 0.81
-10.13 1.33 0.81
-10.06 1.35 0.82
-10.10 1.38 0.82
-9.97 1.41 0.83
-9.41 -1.69 0.61
-9.23 -1.63 0.64
-9.22 -1.60 0.64
-9.21 -1.57 0.64
-8.92 -1.51 0.68
-7.94 -0.47 0.81
-7.44 -0.21 0.87
-7.57 -0.18 0.86
-8.59 -0.10 1.03
-8.62 -0.06 1.03
-8.71 -0.04 1.02
-10.01 -0.02 0.85
-7.67 -0.01 0.77
-7.44 0.01 0.80
-7.58 0.04 0.78
-7.68 0.06 0.77
-7.74 0.09 0.76
-7.73 0.11 0.76
-7.70 0.14 0.76
-7.56 0.16 0.78
-8.00 0.22 0.72
-6.72 0.47 1.22
-11.59 0.83 0.55
-7.03 0.53 1.18
-9.31 0.74 0.86
-9.26 0.78 0.87
-9.15 0.79 0.88
-9.39 0.84 0.85
-9.36 0.86 0.85
-6.84 0.67 1.20
-9.38 0.95 0.85
-6.49 0.69 1.25
-9.01 0.96 0.90
-9.59 1.04 0.82
-9.79 1.09 0.79
-9.80 1.11 0.79
-7.36 0.87 1.12
-10.03 1.19 0.75
-9.92 1.20 0.77
-9.95 1.23 0.77
-7.93 1.01 1.04
-10.11 1.30 0.74
-10.05 1.32 0.75
-10.13 1.35 0.74
-10.29 1.40 0.72
-10.09 1.40 0.74
-10.00 1.41 0.75
-9.18 -1.68 0.56
-9.32 -1.67 0.54
-9.58 -1.68 0.50
-9.15 -1.59 0.56
-8.99 -1.54 0.58
-9.02 -1.52 0.58
-8.88 -1.47 0.60
-9.04 -1.47 0.58
-9.10 -1.39 0.57
-9.23 -1.32 0.55
-8.99 -1.18 0.59
-7.55 -0.16 0.79
-7.55 -0.13 0.79
-7.36 -0.11 0.81
-7.50 -0.09 0.79
-7.61 -0.06 0.78
-7.62 -0.04 0.78
-9.85 0.03 0.72
-8.33 0.07 0.94
-8.59 0.11 0.90
-8.57 0.15 0.90
-6.53 0.44 1.19
-9.01 0.72 0.83
-9.10 0.75 0.82
-9.03 0.79 0.83
-9.05 0.88 0.82
-9.25 0.92 0.79
-8.99 0.92 0.83
-6.82 0.74 1.14
-6.55 0.79 1.18
-6.65 0.82 1.17
-10.08 1.27 0.67
-10.20 1.34 0.65
-10.05 1.37 0.67
-10.04 1.39 0.67
-9.10 -1.68 0.48
-9.20 -1.66 0.46
-8.91 -1.59 0.50
-8.93 -1.57 0.50
-8.90 -1.54 0.51
-8.97 -1.52 0.50
-8.20 -0.25 0.96
-8.52 -0.22 0.91
-8.98 -0.19 0.84
-10.00 -0.19 0.70
-8.67 -0.14 0.89
-8.55 -0.10 0.91
-8.09 -0.05 0.97
-8.50 -0.01 0.91
-8.43 0.01 0.92
-7.39 -0.01 0.65
-7.46 0.01 0.64
-7.61 0.04 0.62
-7.58 0.06 0.62
-7.91 0.09 0.57
-7.61 0.11 0.62
-7.97 0.14 0.56
-7.86 0.16 0.58
-7.81 0.19 0.59
-7.75 0.21 0.60
-8.08 0.24 0.55
-7.75 0.26 0.60
-8.14 0.30 0.54
-8.00 0.34 0.56
-8.05 0.37 0.55
-8.27 0.40 0.52
-8.00 0.42 0.56
-8.10 0.45 0.54
-8.52 0.49 0.48
-11.98 0.62 0.31
-11.93 0.65 0.32
-9.04 0.52 0.76
-9.08 0.54 0.75
-8.89 0.55 0.78
-8.84 0.57 0.79
-8.91 0.60 0.78
-9.11 0.63 0.75
-8.97 0.65 0.77
-8.95 0.67 0.77
-9.27 0.71 0.72
-8.90 0.71 0.78
-8.95 0.73 0.77
-9.12 0.77 0.74
-9.27 0.80 0.72
-8.95 0.80 0.77
-9.22 0.84 0.73
-9.21 0.87 0.73
-9.04 0.87 0.75
-9.54 0.94 0.68
-9.57 0.97 0.67
-11.95 1.23 0.31
-9.48 1.01 0.68
-12.11 1.31 0.28
-9.95 1.11 0.61
-11.86 1.34 0.32
-12.12 1.40 0.28
-10.06 1.19 0.59
-10.05 1.22 0.59
-10.49 1.29 0.52
-10.25 1.29 0.56
-10.12 1.30 0.58
-10.19 1.33 0.57
-10.23 1.37 0.56
-10.08 1.37 0.59
-9.15 -1.65 0.38
-9.18 -1.62 0.38
-9.23 -1.60 0.37
-8.82 -1.52 0.43
-8.94 -1.51 0.42
-8.74 -1.46 0.44
-8.84 -1.44 0.43
-8.63 -1.39 0.46
-9.17 -1.40 0.38
-9.21 -1.37 0.38
-9.77 -1.38 0.29
-8.81 -1.16 0.44
-8.98 -1.15 0.41
-8.62 -1.09 0.47
-8.21 -1.00 0.53
-8.63 -1.01 0.46
-8.25 -0.95 0.52
-8.02 -0.90 0.56
-8.20 -0.87 0.53
-8.06 -0.83 0.55
-8.11 -0.78 0.55
-8.36 -0.77 0.51
-8.38 -0.72 0.50
-8.38 -0.70 0.50
-7.62 -0.60 0.62
-7.58 -0.55 0.63
-7.77 -0.48 0.60
-7.85 -0.46 0.58
-8.12 -0.45 0.54
-7.74 -0.29 0.60
-7.36 -0.25 0.66
-7.77 -0.24 0.60
-7.54 -0.21 0.63
-7.32 -0.18 0.66
-7.46 -0.16 0.64
-7.77 -0.14 0.60
-7.76 -0.11 0.60
-7.67 -0.09 0.61
-7.52 -0.06 0.63
-7.51 -0.04 0.64
-8.25 0.03 0.81
-8.71 0.05 0.74
-8.36 0.07 0.80
-9.33 0.10 0.64
-9.63 0.12 0.59
-10.09 0.35 0.52
-9.88 0.37 0.55
-10.27 0.53 0.49
-9.20 0.50 0.66
-11.02 0.63 0.37
-6.53 0.49 1.08
-6.51 0.56 1.08
-6.55 0.58 1.08
-8.94 0.87 0.69
-6.54 0.69 1.08
-6.68 0.72 1.05
-6.55 0.73 1.07
-6.48 0.74 1.08
-9.34 1.07 0.62
-10.58 1.23 0.42
-10.20 1.24 0.48
-10.39 1.29 0.45
-10.33 1.30 0.46
-10.29 1.33 0.47
-10.10 1.33 0.50
-10.20 1.37 0.48
-8.23 1.24 0.80
-8.10 1.32 0.81
-8.43 -1.07 0.40
-7.99 -1.01 0.47
-8.67 -0.44 0.75
-8.67 -0.42 0.75
-8.43 -0.39 0.79
-8.25 -0.36 0.82
-8.27 -0.34 0.81
-7.97 -0.31 0.86
-7.44 -0.27 0.95
-7.84 -0.26 0.88
-8.04 -0.25 0.85
-8.23 -0.24 0.82
-7.45 -0.20 0.95
-7.63 -0.18 0.92
-8.02 -0.17 0.85
-8.12 -0.15 0.84
-8.18 -0.13 0.83
-8.12 -0.11 0.84
-8.26 -0.10 0.81
-7.92 -0.07 0.87
-7.91 -0.05 0.87
-8.05 -0.03 0.85
-8.02 -0.01 0.85
-7.98 0.01 0.86
-8.48 0.09 0.71
-9.81 0.13 0.49
-9.69 0.15 0.51
-9.79 0.20 0.49
-9.16 0.93 0.58
-6.59 0.73 1.02
-6.67 0.75 1.00
-6.59 0.76 1.01
-9.65 1.12 0.50
-6.70 0.81 1.00
-10.07 1.22 0.42
-10.04 1.24 0.43
-10.16 1.31 0.41
-8.12 1.07 0.75
-8.09 1.09 0.76
-8.12 1.11 0.75
-8.00 1.14 0.77
-8.07 1.23 0.75
-8.12 1.26 0.74
-8.13 1.28 0.74
-8.16 1.30 0.74
-8.12 1.32 0.74
-8.10 1.34 0.75
-8.15 1.39 0.74
-6.86 -0.47 0.58
-7.41 -0.06 0.49
-7.73 0.03 0.77
-7.91 0.05 0.74
-8.08 0.07 0.71
-8.26 0.09 0.68
-8.70 0.11 0.60
-9.08 0.14 0.53
-9.18 0.16 0.51
-9.23 0.19 0.50
-9.50 0.22 0.46
-8.59 0.24 0.61
-6.54 0.61 0.97
-9.23 1.01 0.49
-6.58 0.76 0.96
-6.81 0.80 0.92
-9.25 1.10 0.48
-8.96 1.09 0.53
-7.20 0.90 0.85
-7.34 0.94 0.82
-8.23 1.07 0.66
-8.95 1.20 0.53
-7.94 1.09 0.71
-8.50 1.21 0.61
-8.63 1.25 0.59
-8.23 1.21 0.66
-8.32 1.25 0.64
-8.23 1.25 0.66
-8.27 1.28 0.65
-8.34 1.31 0.63
-8.17 1.31 0.66
-8.26 1.34 0.65
-8.30 1.37 0.64
-8.30 1.39 0.64
-8.31 1.42 0.64
-8.47 1.46 0.61
-7.80 -0.99 0.33
-7.08 -0.73 0.46
-8.09 -0.09 0.71
-7.89 -0.07 0.74
-7.96 -0.05 0.73
-7.80 -0.03 0.76
-7.76 -0.01 0.76
-7.70 0.01 0.77
-7.71 0.01 0.26
-7.41 0.11 0.32
-6.83 0.19 0.42
-8.73 0.33 0.51
-8.57 0.34 0.54
-8.80 0.37 0.50
-8.84 0.40 0.49
-8.64 0.43 0.53
-8.48 0.46 0.56
-8.40 0.81 0.56
-8.66 0.90 0.51
-6.66 0.73 0.89
-6.59 0.76 0.90
-8.88 1.06 0.47
-8.54 1.04 0.53
-8.27 1.07 0.58
-9.05 1.21 0.43
-8.20 1.29 0.59
-8.31 1.46 0.56
-8.16 1.49 0.58
-7.50 -0.93 0.30
-6.93 -0.56 0.41
-7.15 -0.11 0.37
-7.31 -0.08 0.34
-7.47 -0.06 0.31
-7.70 -0.04 0.26
-8.14 0.03 0.55
-7.99 0.05 0.58
-8.52 0.07 0.48
-8.52 0.09 0.47
-8.61 0.11 0.46
-8.59 0.13 0.46
-8.55 0.15 0.47
-8.88 0.18 0.40
-8.93 0.20 0.40
-8.81 0.22 0.42
-9.34 0.33 0.32
-8.44 0.34 0.49
-8.55 0.38 0.46
-8.25 0.43 0.52
-8.27 0.45 0.52
-8.88 0.53 0.40
-8.31 0.52 0.51
-8.73 0.78 0.42
-8.84 0.84 0.40
-6.59 0.65 0.84
-8.51 0.87 0.46
-8.62 0.90 0.44
-6.92 0.75 0.77
-8.58 0.96 0.45
-8.42 0.96 0.48
-8.49 0.99 0.46
-8.45 1.01 0.47
-8.59 1.05 0.44
-8.58 1.07 0.44
-8.27 1.05 0.50
-8.23 1.07 0.51
-8.60 1.14 0.44
-8.27 1.12 0.50
-8.29 1.16 0.50
-7.04 -0.78 0.30
-7.07 -0.73 0.29
-6.75 -0.21 0.82
-7.02 -0.20 0.77
-7.08 -0.19 0.76
-6.89 -0.16 0.79
-7.34 -0.16 0.71
-7.91 -0.15 0.60
-7.99 -0.13 0.58
-8.03 -0.11 0.57
-7.90 -0.09 0.60
-7.79 -0.07 0.62
-8.07 -0.05 0.56
-8.00 -0.03 0.58
-8.32 -0.01 0.52
-7.65 0.01 0.65
-8.47 0.44 0.41
-8.76 0.48 0.35
-8.62 0.49 0.38
-8.35 0.50 0.43
-8.62 0.54 0.38
-8.48 0.55 0.40
-8.56 0.57 0.39
-8.38 0.58 0.42
-8.55 0.61 0.39
-8.45 0.63 0.41
-8.54 0.68 0.39
-8.73 0.71 0.35
-7.42 0.70 0.61
-6.66 0.65 0.77
-6.78 0.71 0.74
-7.20 0.77 0.66
-8.23 0.94 0.44
-7.84 0.04 0.46
-8.02 0.06 0.42
-7.77 0.08 0.47
-7.84 0.12 0.46
-7.91 0.14 0.44
-8.24 0.17 0.37
-8.34 0.56 0.35
-8.53 0.62 0.30
-8.97 0.67 0.21
-8.09 0.67 0.39
-7.78 0.68 0.46
-7.30 0.66 0.56
-6.89 0.64 0.65
-6.97 0.67 0.63
-6.69 0.67 0.69
-6.77 0.70 0.67
-6.73 0.71 0.68
-6.74 0.73 0.68
-6.86 0.76 0.65
-7.64 0.86 0.48
-7.20 0.83 0.58
-7.45 0.88 0.52
-7.57 0.91 0.50
-7.86 0.98 0.43
-7.95 1.01 0.41
-7.79 -0.42 0.47
-7.49 -0.38 0.54
-7.18 -0.35 0.60
-7.05 -0.33 0.63
-7.29 -0.32 0.58
-6.89 -0.28 0.66
-6.77 -0.26 0.69
-7.60 -0.28 0.51
-7.73 -0.24 0.49
-6.81 -0.18 0.68
-7.00 -0.17 0.64
-6.91 -0.15 0.66
-7.61 -0.14 0.51
-7.44 -0.10 0.55
-7.95 -0.09 0.44
-7.99 -0.07 0.43
-8.05 -0.03 0.42
-7.91 -0.01 0.45
-8.70 0.01 0.28
-7.36 0.53 0.48
-7.32 0.58 0.49
-6.89 0.62 0.58
-6.78 0.63 0.61
-7.09 0.80 0.53
-7.81 0.08 0.31
-7.77 0.10 0.32
-7.35 0.11 0.42
-7.62 0.14 0.35
-7.74 0.31 0.32
-7.28 0.51 0.42
-7.22 0.52 0.44
-7.08 0.53 0.47
-7.04 0.55 0.48
-6.82 0.55 0.53
-6.78 0.58 0.54
-7.11 0.62 0.46
-7.16 0.65 0.44
-7.01 0.65 0.48
-6.89 0.66 0.51
-6.92 0.68 0.50
-6.86 0.69 0.51
-7.28 0.75 0.42
-7.36 0.77 0.39
-7.36 0.79 0.40
-7.57 0.83 0.35
-7.44 0.84 0.37
-6.79 0.80 0.53
-6.79 0.82 0.53
-7.53 1.08 0.34
-7.34 1.39 0.37
-7.31 1.40 0.38
-7.42 -0.07 0.40
-7.40 -0.05 0.41
-14.95 -0.31 1.56
-15.35 -0.17 1.54
-14.70 0.05 1.44
-14.75 0.08 1.44
-14.75 0.12 1.44
-14.51 0.15 1.45
-14.90 0.19 1.43
-15.43 0.24 1.41
-15.18 0.27 1.42
-14.62 0.33 1.45
-14.65 -0.38 1.45
-14.69 -0.34 1.44
-14.77 -0.31 1.44
-14.83 -0.27 1.44
-15.01 -0.24 1.43
-15.26 -0.17 1.42
-15.29 -0.13 1.41
-15.12 -0.10 1.42
-15.12 -0.06 1.42
-14.93 0.01 1.43
-14.66 -0.02 1.26
-14.57 0.19 1.38
-14.84 0.23 1.37
-14.70 -0.76 1.26
-14.91 -0.73 1.25
-14.97 -0.69 1.25
-14.68 -0.64 1.26
-15.21 -0.32 1.23
-14.62 0.05 1.31
-14.73 0.08 1.30
-14.66 0.12 1.31
-14.51 0.15 1.32
-14.45 0.19 1.32
-14.41 0.22 1.32
-14.71 0.26 1.30
-15.34 0.53 1.27
-12.18 0.54 1.45
-12.15 0.57 1.45
-15.77 -1.21 1.12
-15.88 -1.08 1.11
-15.72 -1.03 1.12
-15.86 -0.99 1.11
-15.97 -0.95 1.10
-15.07 -0.78 1.16
-15.12 -0.13 1.28
-15.11 -0.10 1.28
-14.87 -0.06 1.29
-15.21 -0.02 1.28
-14.79 0.01 1.30
-14.53 -0.02 1.11
-15.83 -1.25 1.03
-14.74 -0.06 1.09
-14.64 0.05 1.17
-13.77 0.15 1.22
-13.92 0.21 1.21
-13.64 0.34 1.23
-12.13 0.57 1.33
-12.12 0.66 1.33
-15.98 -1.53 0.92
-15.71 -1.20 0.94
-15.84 -1.12 0.93
-14.81 -0.31 1.15
-14.70 -0.24 1.16
-14.84 -0.20 1.15
-14.89 -0.17 1.15
-14.84 -0.13 1.15
-14.84 -0.09 1.15
-14.88 -0.06 1.15
-14.91 -0.02 1.15
-14.84 0.01 1.15
-13.75 0.25 0.98
-13.95 0.30 0.97
-13.95 0.38 0.97
-15.66 -1.37 0.85
-15.74 -1.16 0.84
-9.21 -0.66 1.32
-10.09 -0.56 1.25
-14.77 -0.10 0.91
-14.64 0.05 1.00
-14.80 0.08 0.99
-14.45 0.12 1.02
-14.21 0.18 1.04
-13.62 0.21 1.08
-13.58 0.24 1.08
-13.66 0.28 1.08
-13.52 0.31 1.09
-13.87 0.35 1.06
-13.69 0.38 1.08
-13.73 0.48 1.07
-12.12 0.60 1.20
-12.01 0.65 1.21
-12.12 0.69 1.20
-12.09 0.78 1.20
-12.19 0.84 1.19
-9.33 -0.96 1.24
-15.86 -1.39 0.73
-15.71 -1.34 0.74
-15.88 -1.30 0.73
-9.80 -0.85 1.20
-15.74 -1.16 0.74
-15.87 -0.60 0.91
-15.81 -0.56 0.91
-12.60 -0.36 1.16
-12.50 -0.29 1.17
-15.13 -0.32 0.96
-14.97 -0.28 0.98
-14.83 -0.24 0.99
-14.76 -0.20 0.99
-14.88 -0.17 0.98
-14.84 -0.13 0.99
-14.95 -0.10 0.98
-14.88 -0.02 0.98
-8.60 0.01 1.24
-14.52 0.06 0.75
-14.25 0.15 0.96
-13.86 0.18 0.99
-13.59 0.21 1.01
-13.47 0.24 1.02
-13.62 0.28 1.01
-13.91 0.32 0.99
-13.80 0.35 1.00
-13.55 0.37 1.02
-12.34 0.55 1.12
-12.83 0.63 1.08
-14.56 1.00 0.93
-15.36 1.24 0.86
-15.96 -1.66 0.62
-9.06 -1.02 1.20
-15.73 -1.56 0.64
-8.89 -0.95 1.22
-9.03 -0.91 1.20
-9.00 -0.88 1.21
-15.75 -1.34 0.64
-15.89 -1.30 0.63
-9.35 -0.82 1.18
-9.24 -0.78 1.19
-8.99 -0.74 1.21
-9.18 -0.72 1.19
-8.73 -0.66 1.23
-8.95 -0.65 1.21
-15.41 -0.97 0.67
-9.09 -0.60 1.20
-9.20 -0.55 1.19
-15.16 -0.79 0.69
-15.02 -0.74 0.71
-11.98 -0.40 0.96
-13.76 -0.29 0.81
-8.43 -0.15 1.25
-12.26 -0.12 0.93
-8.58 -0.07 1.24
-14.73 -0.06 0.73
-14.69 0.05 0.83
-14.29 0.08 0.86
-9.41 0.08 1.30
-9.44 0.10 1.30
-9.31 0.12 1.31
-13.48 0.21 0.94
-13.45 0.24 0.94
-13.88 0.28 0.90
-13.91 0.32 0.90
-13.77 0.35 0.91
-13.75 0.38 0.91
-13.76 0.41 0.91
-13.52 0.44 0.93
-13.04 0.58 0.97
-13.13 0.65 0.96
-12.53 0.65 1.02
-9.03 -1.07 1.13
-8.83 -1.00 1.15
-8.56 -0.95 1.17
-8.80 -0.94 1.15
-8.97 -0.93 1.13
-15.93 -1.44 0.51
-10.79 -1.01 0.97
-15.81 -1.34 0.52
-8.67 -0.80 1.16
-15.75 -1.25 0.52
-15.68 -1.16 0.53
-8.88 -0.70 1.14
-8.84 -0.67 1.15
-8.64 -0.63 1.16
-14.93 -0.94 0.60
-8.75 -0.58 1.15
-14.97 -0.86 0.60
-14.68 -0.81 0.62
-14.68 -0.77 0.62
-14.46 -0.71 0.64
-14.55 -0.68 0.63
-14.37 -0.59 0.65
-14.85 -0.52 0.61
-14.23 -0.42 0.66
-12.09 -0.30 0.85
-12.87 -0.14 0.99
-14.52 -0.13 0.84
-14.40 -0.09 0.85
-14.50 -0.06 0.84
-14.91 -0.02 0.81
-9.48 0.01 1.30
-14.20 0.02 0.57
-12.27 0.09 0.75
-12.48 0.13 0.73
-13.42 0.17 0.64
-13.02 0.20 0.68
-12.43 0.23 0.74
-11.38 0.32 0.84
-13.55 0.41 0.85
-12.93 0.61 0.91
-12.95 0.67 0.91
-12.26 0.76 0.97
-13.40 0.86 0.86
-13.35 0.92 0.87
-13.35 1.15 0.86
-8.98 -1.10 1.07
-8.84 -1.03 1.08
-8.72 -0.99 1.09
-8.71 -0.96 1.09
-8.53 -0.92 1.11
-15.74 -1.47 0.42
-8.59 -0.87 1.11
-8.64 -0.85 1.10
-8.47 -0.81 1.12
-8.62 -0.79 1.10
-8.56 -0.76 1.11
-15.81 -1.21 0.42
-8.47 -0.70 1.12
-8.62 -0.68 1.10
-8.59 -0.66 1.11
-8.48 -0.62 1.12
-8.76 -0.61 1.09
-8.65 -0.58 1.10
-15.04 -0.86 0.49
-15.35 -0.84 0.46
-15.05 -0.78 0.49
-14.50 -0.72 0.54
-14.45 -0.67 0.55
-14.52 -0.63 0.54
-14.48 -0.59 0.55
-14.58 -0.55 0.54
-14.38 -0.51 0.55
-14.62 -0.47 0.53
-12.01 -0.09 0.78
-12.17 -0.05 0.76
-9.45 0.03 1.18
-9.30 0.05 1.20
-9.24 0.08 1.21
-9.27 0.10 1.20
-9.24 0.12 1.21
-9.12 0.14 1.22
-9.10 0.16 1.22
-9.45 0.19 1.18
-9.67 0.22 1.16
-9.69 0.25 1.16
-9.45 0.26 1.18
-13.09 0.39 0.81
-9.90 0.32 1.14
-10.23 0.36 1.10
-10.90 0.43 1.03
-12.71 0.54 0.85
-12.66 0.56 0.85
-12.95 0.61 0.82
-9.85 0.49 1.14
-12.97 0.67 0.82
-10.09 0.55 1.12
-13.25 0.75 0.79
-10.34 0.62 1.09
-13.41 0.82 0.77
-13.21 0.85 0.79
-10.12 0.68 1.11
-13.95 0.99 0.72
-13.66 1.01 0.75
-13.72 1.04 0.74
-13.68 1.08 0.74
-13.65 1.21 0.74
-13.97 1.34 0.71
-14.21 1.46 0.68
-14.12 1.49 0.69
-14.27 1.54 0.68
-14.30 1.58 0.67
-14.38 1.62 0.67
-14.27 1.65 0.67
-14.21 1.67 0.68
-8.98 -1.18 0.99
-8.93 -1.15 1.00
-9.04 -1.13 0.99
-8.93 -1.09 1.00
-8.65 -1.04 1.03
-8.85 -1.03 1.01
-8.42 -0.97 1.05
-8.34 -0.93 1.06
-8.47 -0.92 1.04
-8.23 -0.87 1.07
-8.85 -0.89 1.01
-8.45 -0.84 1.05
-8.54 -0.82 1.04
-8.50 -0.79 1.04
-8.39 -0.73 1.05
-8.59 -0.71 1.03
-8.61 -0.69 1.03
-8.67 -0.66 1.03
-8.70 -0.64 1.02
-8.69 -0.61 1.02
-8.62 -0.58 1.03
-8.66 -0.55 1.03
-8.50 -0.52 1.04
-8.66 -0.50 1.03
-14.78 -0.73 0.40
-8.49 -0.44 1.04
-12.34 -0.26 0.89
-9.12 -0.13 1.22
-12.83 -0.14 0.84
-13.01 -0.12 0.82
-14.89 -0.10 0.63
-15.13 -0.06 0.60
-13.43 0.01 0.78
-10.47 0.20 0.75
-10.92 0.34 0.70
-10.88 0.37 0.71
-11.48 0.42 0.64
-11.29 0.45 0.66
-11.40 0.48 0.65
-11.78 0.64 0.61
-12.81 0.66 0.75
-12.62 0.68 0.77
-13.60 0.84 0.66
-13.91 1.02 0.63
-14.13 1.14 0.60
-8.89 -0.92 0.93
-8.69 -0.85 0.95
-8.34 -0.80 0.99
-8.55 -0.79 0.97
-8.45 -0.75 0.98
-8.61 -0.74 0.96
-8.55 -0.71 0.96
-8.62 -0.68 0.96
-8.71 -0.64 0.95
-8.59 -0.55 0.96
-15.11 -0.83 0.25
-15.24 -0.79 0.24
-15.27 -0.75 0.24
-8.65 -0.44 0.95
-8.80 -0.42 0.94
-9.01 -0.37 0.92
-13.72 -0.14 0.40
-9.30 0.03 1.07
-9.34 0.05 1.07
-9.34 0.08 1.07
-9.08 0.10 1.10
-9.44 0.12 1.06
-10.27 0.16 0.96
-9.45 0.17 1.05
-12.41 0.28 0.71
-9.41 0.24 1.06
-9.48 0.26 1.05
-10.52 0.32 0.93
-10.24 0.33 0.96
-11.23 0.39 0.85
-12.36 0.49 0.71
-9.93 0.42 1.00
-12.20 0.54 0.73
-12.27 0.58 0.72
-12.20 0.60 0.73
-11.45 0.60 0.82
-11.90 0.65 0.77
-11.50 0.65 0.81
-11.23 0.67 0.84
-11.22 0.69 0.84
-11.09 0.71 0.86
-10.95 0.73 0.88
-13.84 0.99 0.54
-13.50 1.00 0.58
-13.45 1.02 0.58
-13.37 1.08 0.59
-11.88 1.00 0.76
-13.34 1.18 0.59
-13.12 1.26 0.62
-13.41 1.38 0.58
-13.55 1.43 0.56
-13.51 1.46 0.57
-14.37 1.66 0.47
-8.85 -1.28 0.85
-9.19 -1.20 0.81
-8.92 -1.15 0.84
-8.73 -1.08 0.86
-8.61 -1.01 0.88
-8.18 -0.92 0.93
-8.35 -0.91 0.91
-8.35 -0.88 0.91
-8.21 -0.84 0.93
-8.31 -0.80 0.91
-8.34 -0.78 0.91
-8.32 -0.75 0.91
-8.21 -0.71 0.93
-8.32 -0.70 0.91
-8.33 -0.67 0.91
-8.13 -0.63 0.93
-15.12 -0.79 0.40
-15.07 -0.75 0.41
-14.91 -0.71 0.42
-15.23 -0.69 0.39
-14.80 -0.63 0.44
-14.51 -0.58 0.47
-14.46 -0.55 0.48
-14.90 -0.49 0.42
-13.75 -0.36 0.56
-13.65 -0.25 0.57
-9.21 -0.15 1.08
-14.35 -0.20 0.49
-12.68 -0.11 0.68
-13.48 -0.09 0.59
-12.38 -0.05 0.72
-13.39 -0.02 0.60
-12.78 0.01 0.67
-9.34 0.08 1.00
-10.99 0.12 0.80
-9.76 0.13 0.95
-8.52 0.13 1.10
-11.12 0.25 0.79
-10.84 0.27 0.82
-11.68 0.32 0.72
-11.08 0.33 0.79
-10.98 0.36 0.80
-11.20 0.42 0.77
-9.42 0.38 0.99
-9.84 0.42 0.94
-11.73 0.52 0.71
-11.62 0.55 0.72
-11.70 0.58 0.71
-11.05 0.57 0.79
-11.00 0.60 0.80
-11.35 0.65 0.75
-11.25 0.67 0.76
-11.50 0.74 0.73
-11.55 0.77 0.73
-12.24 0.87 0.64
-13.27 1.11 0.51
-12.98 1.15 0.55
-13.37 1.25 0.50
-12.84 1.23 0.56
-13.46 1.32 0.49
-12.91 1.30 0.55
-12.75 1.32 0.57
-13.26 1.40 0.51
-13.30 1.44 0.50
-13.59 1.50 0.47
-13.41 1.51 0.49
-13.81 1.59 0.44
-10.17 1.28 0.89
-9.29 -1.61 0.72
-9.47 -1.58 0.70
-9.12 -1.48 0.74
-9.06 -1.44 0.75
-8.98 -1.40 0.76
-8.93 -1.31 0.76
-9.02 -1.30 0.75
-9.07 -1.25 0.75
-8.81 -1.19 0.78
-8.99 -1.13 0.76
-8.40 -0.91 0.83
-8.50 -0.84 0.82
-8.37 -0.80 0.83
-8.42 -0.75 0.83
-8.52 -0.73 0.82
-8.30 -0.67 0.84
-8.14 -0.63 0.86
-8.16 -0.61 0.86
-8.29 -0.59 0.84
-8.41 -0.57 0.83
-8.62 -0.55 0.80
-8.58 -0.52 0.81
-8.33 -0.46 0.84
-8.32 -0.43 0.84
-8.46 -0.41 0.82
-8.91 -0.37 0.77
-8.73 -0.34 0.79
-8.80 -0.31 0.78
-9.88 0.03 0.86
-10.34 0.06 0.80
-8.83 0.07 1.00
-10.62 0.14 0.77
-10.12 0.16 0.83
-10.11 0.18 0.83
-10.18 0.21 0.82
-10.62 0.27 0.77
-11.60 0.32 0.64
-10.74 0.35 0.75
-11.12 0.39 0.70
-11.06 0.41 0.71
-10.95 0.46 0.72
-10.94 0.49 0.72
-10.92 0.51 0.72
-11.16 0.58 0.69
-11.19 0.61 0.69
-11.27 0.64 0.68
-11.26 0.67 0.68
-11.40 0.73 0.66
-12.31 0.82 0.54
-11.80 0.84 0.61
-11.28 0.83 0.67
-11.11 0.93 0.70
-9.73 0.84 0.87
-12.43 1.13 0.52
-12.44 1.16 0.52
-13.27 1.27 0.41
-9.92 0.98 0.85
-10.05 1.04 0.83
-12.30 1.30 0.53
-12.32 1.36 0.53
-12.93 1.56 0.45
-8.81 -1.47 0.69
-8.96 -1.46 0.67
-9.06 -1.44 0.66
-8.75 -1.38 0.70
-9.02 -1.38 0.67
-8.84 -1.33 0.69
-8.76 -1.29 0.70
-8.59 -1.25 0.72
-8.94 -1.26 0.68
-8.88 -1.23 0.69
-8.89 -1.20 0.68
-8.89 -1.17 0.68
-8.87 -1.14 0.69
-8.38 -0.94 0.75
-8.48 -0.89 0.74
-8.20 -0.84 0.77
-8.44 -0.83 0.74
-8.73 -0.83 0.71
-8.36 -0.78 0.75
-8.46 -0.76 0.74
-8.60 -0.74 0.72
-8.37 -0.70 0.75
-8.27 -0.67 0.77
-8.14 -0.63 0.78
-8.37 -0.62 0.75
-8.15 -0.58 0.78
-8.09 -0.55 0.79
-8.24 -0.53 0.77
-8.44 -0.52 0.75
-8.31 -0.46 0.76
-8.36 -0.43 0.75
-8.39 -0.41 0.75
-8.67 -0.39 0.72
-8.66 -0.37 0.72
-8.21 -0.30 0.77
-8.37 -0.28 0.75
-7.96 -0.24 0.81
-10.69 -0.12 0.76
-8.02 0.19 0.72
-9.83 0.25 0.47
-8.39 0.25 0.67
-8.27 0.27 0.68
-10.88 0.35 0.65
-10.87 0.38 0.65
-10.90 0.41 0.65
-10.41 0.41 0.72
-10.96 0.46 0.64
-11.40 0.51 0.58
-10.79 0.51 0.66
-10.93 0.54 0.64
-11.08 0.58 0.62
-11.61 0.63 0.55
-11.79 0.67 0.52
-11.90 0.70 0.51
-11.34 0.70 0.58
-11.26 0.72 0.60
-12.25 0.81 0.46
-12.41 0.85 0.44
-11.33 0.84 0.59
-11.44 0.87 0.57
-11.38 0.90 0.58
-9.25 0.76 0.87
-11.66 0.98 0.54
-11.47 0.99 0.56
-11.46 1.02 0.56
-11.39 1.04 0.57
-9.35 0.88 0.85
-9.42 0.91 0.84
-9.57 0.95 0.82
-12.16 1.22 0.47
-9.48 0.99 0.84
-12.66 1.34 0.40
-12.20 1.32 0.46
-11.88 1.32 0.50
-12.12 1.37 0.47
-12.03 1.39 0.48
-12.12 1.43 0.47
-12.45 1.50 0.42
-10.09 1.27 0.75
-9.16 -1.45 0.56
-9.11 -1.42 0.57
-9.31 -1.38 0.54
-9.06 -1.33 0.58
-9.04 -1.27 0.58
-9.07 -1.24 0.58
-9.25 -1.18 0.55
-8.92 -1.06 0.60
-8.88 -1.03 0.60
-8.24 -0.79 0.69
-8.13 -0.76 0.71
-8.52 -0.76 0.65
-8.88 -0.76 0.61
-8.16 -0.66 0.70
-8.63 -0.66 0.64
-8.51 -0.63 0.66
-8.45 -0.60 0.66
-8.33 -0.56 0.68
-7.99 -0.52 0.73
-7.79 -0.46 0.75
-8.20 -0.45 0.70
-8.50 -0.44 0.66
-8.62 -0.42 0.64
-8.70 -0.39 0.63
-8.58 -0.31 0.65
-8.83 -0.29 0.61
-10.23 0.08 0.66
-8.35 0.17 0.93
-8.61 0.20 0.89
-10.64 0.29 0.60
-10.95 0.36 0.56
-10.08 0.38 0.68
-10.18 0.41 0.67
-10.41 0.44 0.63
-11.38 0.54 0.49
-8.97 0.47 0.84
-9.05 0.52 0.83
-9.08 0.54 0.82
-9.14 0.57 0.81
-9.09 0.61 0.82
-9.08 0.65 0.82
-9.15 0.70 0.81
-11.34 0.90 0.49
-11.27 0.92 0.50
-11.25 0.97 0.50
-9.10 0.84 0.81
-11.37 1.09 0.48
-11.41 1.12 0.48
-11.91 1.20 0.41
-11.66 1.24 0.44
-9.34 1.04 0.78
-9.97 1.16 0.68
-9.82 1.17 0.70
-10.17 1.23 0.65
-8.94 -1.48 0.50
-8.85 -1.42 0.51
-8.69 -1.37 0.54
-9.23 -1.35 0.46
-9.21 -1.32 0.46
-9.10 -1.28 0.48
-8.11 -0.91 0.62
-8.11 -0.89 0.62
-8.16 -0.81 0.62
-8.23 -0.79 0.61
-8.43 -0.78 0.58
-8.35 -0.75 0.59
-8.45 -0.73 0.58
-8.61 -0.69 0.55
-8.34 -0.64 0.59
-7.77 -0.51 0.67
-7.32 -0.47 0.74
-11.88 -0.08 0.42
-12.18 0.69 0.28
-12.45 0.74 0.24
-12.10 0.74 0.29
-12.17 0.78 0.28
-12.45 0.83 0.24
-11.88 0.82 0.32
-11.76 0.84 0.34
-11.78 1.04 0.33
-11.53 1.05 0.37
-11.47 1.07 0.38
-11.62 1.12 0.36
-11.64 1.15 0.35
-11.48 1.16 0.38
-11.86 1.25 0.32
-11.77 1.30 0.33
-12.41 1.46 0.23
-12.24 1.47 0.26
-12.41 1.52 0.23
-8.86 -1.39 0.43
-9.12 -1.28 0.39
-9.20 -1.26 0.38
-8.88 -1.20 0.43
-8.61 -1.06 0.47
-8.52 -0.92 0.48
-9.41 -0.65 0.35
-7.52 -0.52 0.64
-7.67 -0.50 0.61
-9.73 0.15 0.58
-9.84 0.18 0.56
-9.88 0.20 0.55
-9.90 0.23 0.55
-9.95 0.25 0.54
-9.76 0.27 0.57
-10.04 0.30 0.53
-10.13 0.33 0.51
-10.59 0.42 0.44
-10.33 0.44 0.48
-10.55 0.47 0.44
-8.62 0.41 0.75
-10.28 0.51 0.49
-8.74 0.52 0.73
-8.75 0.54 0.73
-8.90 0.58 0.70
-8.67 0.58 0.74
-8.77 0.61 0.72
-8.84 0.64 0.71
-8.64 0.65 0.74
-8.85 0.68 0.71
-8.80 0.70 0.72
-8.84 0.73 0.71
-8.90 0.75 0.70
-8.77 0.76 0.72
-8.93 0.80 0.70
-9.03 0.83 0.68
-8.84 0.84 0.71
-11.48 1.10 0.28
-9.66 0.96 0.58
-9.68 0.98 0.57
-9.80 1.02 0.55
-10.46 1.11 0.45
-9.58 1.04 0.59
-11.77 1.30 0.23
-9.29 -1.65 0.26
-9.14 -1.60 0.29
-8.60 -1.50 0.37
-9.02 -1.53 0.30
-9.04 -1.47 0.30
-9.20 -1.46 0.28
-9.05 -1.42 0.30
-8.97 -1.38 0.32
-9.07 -1.36 0.30
-9.14 -1.29 0.29
-7.89 -0.95 0.49
-7.89 -0.92 0.49
-7.93 -0.90 0.48
-7.70 -0.81 0.52
-7.19 -0.74 0.60
-7.59 -0.72 0.54
-7.71 -0.61 0.52
-7.59 -0.01 0.46
-7.55 0.01 0.46
-7.49 0.04 0.47
-9.70 0.17 0.50
-9.66 0.22 0.51
-9.61 0.24 0.52
-9.58 0.26 0.52
-9.05 0.27 0.61
-9.55 0.31 0.53
-9.28 0.33 0.57
-9.69 0.36 0.51
-8.73 0.35 0.66
-10.03 0.42 0.45
-9.05 0.41 0.61
-8.94 0.42 0.63
-8.75 0.44 0.66
-9.02 0.47 0.61
-8.72 0.48 0.67
-8.79 0.50 0.65
-8.59 0.51 0.69
-8.72 0.54 0.66
-8.88 0.57 0.64
-8.73 0.59 0.66
-8.63 0.60 0.68
-8.78 0.63 0.65
-8.67 0.65 0.67
-8.65 0.67 0.67
-8.65 0.69 0.67
-8.72 0.71 0.66
-8.88 0.75 0.63
-8.79 0.76 0.65
-8.68 0.78 0.67
-8.68 0.80 0.67
-8.60 0.81 0.68
-8.88 0.86 0.63
-8.89 0.88 0.63
-11.23 1.13 0.23
-9.42 0.98 0.54
-9.36 1.00 0.55
-10.18 1.11 0.41
-9.73 1.08 0.48
-9.87 1.12 0.46
-10.05 1.19 0.43
-7.80 0.99 0.81
-7.53 -0.91 0.47
-7.22 -0.86 0.52
-7.82 -0.89 0.42
-7.23 -0.81 0.52
-7.14 -0.57 0.54
-7.46 -0.16 0.48
-7.43 -0.13 0.49
-7.41 -0.11 0.49
-7.41 -0.09 0.49
-7.72 -0.04 0.44
-9.28 0.23 0.49
-8.72 0.26 0.59
-8.84 0.29 0.57
-9.61 0.34 0.44
-8.80 0.33 0.58
-8.70 0.35 0.60
-8.59 0.36 0.61
-8.84 0.40 0.57
-9.10 0.43 0.52
-8.72 0.43 0.59
-8.90 0.47 0.56
-8.95 0.49 0.55
-8.80 0.50 0.58
-8.61 0.51 0.61
-8.66 0.54 0.60
-8.64 0.56 0.60
-8.62 0.58 0.61
-8.80 0.61 0.57
-8.84 0.64 0.56
-9.08 0.68 0.52
-9.27 0.71 0.49
-8.84 0.70 0.56
-8.80 0.72 0.57
-8.67 0.73 0.59
-8.72 0.76 0.58
-8.84 0.79 0.56
-8.80 0.81 0.57
-8.94 0.84 0.54
-8.97 0.87 0.54
-8.82 0.88 0.56
-9.23 0.94 0.49
-9.29 0.97 0.48
-9.24 0.99 0.49
-9.43 1.05 0.45
-9.38 1.07 0.46
-9.16 1.07 0.50
-9.27 1.15 0.48
-9.20 1.17 0.49
-7.46 0.99 0.80
-8.41 1.18 0.62
-8.30 1.46 0.63
-7.77 0.04 0.25
-9.20 0.30 0.42
-8.70 0.30 0.52
-8.77 0.42 0.50
-8.49 0.44 0.55
-8.57 0.49 0.54
-8.73 0.52 0.51
-8.53 0.53 0.55
-8.69 0.56 0.52
-8.80 0.59 0.49
-8.70 0.60 0.51
-9.21 0.66 0.42
-9.16 0.68 0.43
-8.89 0.68 0.48
-8.82 0.70 0.49
-8.67 0.71 0.51
-8.55 0.72 0.54
-8.72 0.76 0.51
-8.86 0.79 0.48
-8.64 0.79 0.52
-8.84 0.83 0.48
-8.83 0.88 0.48
-8.77 0.89 0.49
-6.59 0.71 0.90
-8.96 0.98 0.46
-8.88 0.99 0.47
-8.66 0.99 0.51
-8.84 1.03 0.48
-8.42 1.05 0.55
-8.12 1.03 0.61
-8.44 1.11 0.55
-8.33 1.14 0.57
-8.47 1.18 0.54
-8.41 1.19 0.55
-8.41 1.21 0.55
-8.38 1.23 0.56
-8.47 1.27 0.54
-8.35 1.27 0.56
-8.20 1.27 0.59
-8.23 1.31 0.58
-8.27 1.34 0.57
-8.41 1.39 0.54
-8.34 1.40 0.55
-8.32 1.41 0.56
-8.44 1.45 0.54
-8.24 1.46 0.57
-8.42 1.52 0.54
-8.38 1.55 0.54
-8.32 1.58 0.55
-7.43 -0.88 0.31
-7.24 -0.84 0.35
-7.03 -0.77 0.39
-7.07 -0.75 0.38
-7.26 -0.72 0.35
-7.32 -0.70 0.33
-8.51 0.24 0.48
-8.56 0.26 0.46
-8.62 0.28 0.45
-8.57 0.32 0.46
-8.54 0.36 0.47
-8.28 0.39 0.52
-8.21 0.41 0.53
-8.29 0.48 0.51
-8.45 0.55 0.48
-8.33 0.56 0.51
-8.34 0.58 0.50
-8.48 0.61 0.47
-8.49 0.63 0.47
-8.47 0.65 0.48
-8.48 0.67 0.47
-8.48 0.70 0.47
-8.41 0.71 0.48
-8.64 0.75 0.44
-8.59 0.79 0.45
-8.75 0.85 0.42
-8.64 0.86 0.44
-8.53 0.93 0.46
-8.23 1.13 0.51
-8.26 1.18 0.50
-8.30 1.20 0.49
-8.20 1.21 0.51
-8.26 1.24 0.50
-8.12 1.24 0.52
-8.01 1.24 0.54
-8.19 1.29 0.51
-8.08 1.29 0.53
-8.07 1.31 0.53
-8.12 1.34 0.52
-8.17 1.37 0.51
-8.12 1.38 0.52
-8.22 1.42 0.50
-8.00 1.43 0.54
-8.25 1.49 0.49
-8.20 1.52 0.50
-8.16 1.54 0.50
-8.15 1.56 0.51
-7.22 -0.75 0.26
-9.38 -0.25 0.31
-8.52 0.66 0.40
-9.05 0.78 0.29
-8.32 0.83 0.43
-8.57 0.87 0.38
-7.92 0.87 0.51
-8.23 0.92 0.44
-8.38 0.98 0.41
-8.32 1.03 0.42
-8.30 1.09 0.42
-8.42 1.13 0.40
-8.31 1.14 0.42
-8.27 1.15 0.43
-8.42 1.19 0.40
-8.43 1.22 0.39
-7.98 1.17 0.49
-7.96 1.19 0.49
-8.04 1.22 0.47
-7.71 1.19 0.54
-7.93 1.25 0.49
-8.16 1.30 0.45
-8.04 1.31 0.47
-8.12 1.34 0.45
-8.10 1.38 0.45
-7.94 1.39 0.49
-8.33 0.21 0.35
-8.57 0.24 0.30
-8.84 0.27 0.24
-8.23 0.29 0.37
-8.55 0.32 0.30
-8.27 0.33 0.36
-8.41 0.36 0.33
-8.17 0.37 0.38
-8.33 0.40 0.35
-8.32 0.42 0.35
-8.40 0.44 0.34
-8.43 0.46 0.33
-8.38 0.48 0.34
-8.41 0.50 0.33
-8.33 0.52 0.35
-8.32 0.54 0.35
-8.43 0.59 0.32
-8.58 0.66 0.29
-8.41 0.71 0.33
-7.81 0.96 0.44
-7.43 0.97 0.52
-7.09 0.95 0.59
-7.50 1.02 0.51
-7.65 1.06 0.47
-7.79 1.09 0.44
-8.30 1.18 0.33
-7.82 1.14 0.44
-7.91 1.17 0.42
-8.04 1.21 0.39
-7.77 1.19 0.44
-7.65 1.19 0.47
-7.57 1.20 0.49
-7.66 1.23 0.46
-7.82 1.30 0.43
-7.67 1.29 0.46
-7.76 1.33 0.44
-7.66 1.33 0.46
-7.64 1.35 0.46
-7.56 1.35 0.48
-7.60 1.38 0.47
-7.69 1.41 0.45
-7.59 1.42 0.47
-7.73 1.46 0.44
-7.77 1.49 0.43
-7.52 1.46 0.48
-7.73 1.52 0.44
-7.77 1.55 0.43
-7.82 1.58 0.42
-7.69 0.08 0.42
-7.70 0.10 0.42
-7.69 0.12 0.42
-7.79 0.14 0.39
-7.76 0.16 0.40
-8.27 0.27 0.29
-8.30 0.33 0.28
-8.23 0.35 0.29
-8.33 0.39 0.27
-8.24 0.41 0.29
-8.27 0.43 0.28
-8.51 0.49 0.23
-8.59 0.51 0.21
-8.61 0.54 0.21
-8.54 0.55 0.22
-7.57 0.59 0.43
-6.74 0.78 0.61
-6.89 0.81 0.58
-7.45 0.89 0.45
-7.45 0.91 0.45
-6.86 0.86 0.58
-7.84 1.00 0.36
-7.73 1.00 0.38
-7.80 1.03 0.37
-7.61 1.03 0.41
-7.91 1.09 0.34
-7.84 1.10 0.36
-7.82 1.11 0.36
-8.10 1.17 0.30
-7.96 1.17 0.33
-7.86 1.18 0.35
-7.67 1.17 0.39
-7.43 1.15 0.44
-7.43 1.17 0.44
-7.35 1.18 0.46
-7.30 1.19 0.47
-7.34 1.22 0.46
-7.26 1.22 0.48
-7.29 1.25 0.47
-7.11 1.24 0.51
-7.27 1.28 0.47
-7.30 1.30 0.46
-7.36 1.33 0.45
-7.39 1.36 0.44
-7.29 1.36 0.46
-7.36 1.39 0.45
-7.40 1.42 0.44
-7.38 1.43 0.44
-7.32 1.44 0.45
-7.32 1.46 0.45
-7.45 1.03 0.37
-7.84 1.10 0.27
-7.41 1.08 0.37
-7.24 1.07 0.41
-7.29 1.10 0.40
-7.35 1.12 0.38
-7.29 1.14 0.40
-7.48 1.18 0.35
-7.41 1.19 0.37
-7.28 1.19 0.40
-7.26 1.21 0.40
-7.13 1.20 0.43
-7.16 1.23 0.42
-7.30 1.27 0.39
-7.31 1.29 0.39
-7.33 1.31 0.38
-7.31 1.33 0.38
-7.30 1.34 0.39
-7.35 1.37 0.37
-5.17 -0.87 1.73
-3.05 1.07 1.48
-2.27 0.08 0.46
-2.48 0.93 0.47
-0.13 -0.06 0.50
-3.41 0.11 0.44
-2.72 0.79 0.45
-2.22 0.97 0.45
-3.05 0.76 0.42
-2.02 0.13 0.44
-0.21 -0.10 0.44
-1.59 -0.63 2.21
-3.10 0.16 2.01
-3.41 -0.37 1.83
-3.16 0.24 1.93
-3.21 0.27 1.92
-6.08 -0.05 1.54
-3.21 0.27 1.90
-2.44 -0.69 1.78
-5.69 0.01 1.48
-6.38 -0.79 1.43
-6.49 -0.71 1.42
-5.55 -0.11 1.49
-6.09 -0.05 1.45
-5.96 0.05 1.62
-5.81 0.06 1.63
-5.75 0.08 1.64
-6.10 -0.80 1.39
-6.50 -0.80 1.36
-6.46 -0.77 1.36
-6.49 -0.75 1.36
-6.45 -0.73 1.36
-6.39 -0.70 1.37
-6.47 -0.69 1.36
-6.52 -0.67 1.35
-6.34 -0.63 1.37
-6.45 -0.62 1.36
-6.45 -0.60 1.36
-6.48 -0.58 1.36
-6.43 -0.53 1.36
-6.35 -0.46 1.37
-5.70 0.01 1.64
-6.51 -0.86 1.31
-6.43 -0.81 1.31
-6.57 -0.80 1.30
-6.51 -0.78 1.30
-6.43 -0.73 1.31
-6.47 -0.71 1.31
-6.22 -0.67 1.33
-6.55 -0.67 1.30
-6.54 -0.65 1.30
-6.45 -0.62 1.31
-6.38 -0.57 1.32
-6.34 -0.55 1.32
-6.38 -0.53 1.32
-6.38 -0.51 1.32
-6.26 -0.48 1.33
-5.89 0.02 1.55
-6.04 0.04 1.53
-5.84 0.05 1.55
-5.85 0.06 1.55
-5.92 0.08 1.55
-5.86 0.09 1.55
-5.80 0.11 1.56
-5.96 0.12 1.54
-5.96 0.14 1.54
-5.77 0.15 1.56
-5.92 0.17 1.55
-5.79 0.19 1.56
-6.20 0.22 1.52
-6.12 0.25 1.52
-6.12 0.31 1.52
-5.99 0.33 1.54
-6.30 0.38 1.50
-6.34 0.43 1.50
-6.31 -0.91 1.26
-6.46 -0.90 1.25
-6.52 -0.89 1.24
-6.34 -0.85 1.26
-6.33 -0.83 1.26
-6.38 -0.81 1.26
-6.24 -0.78 1.27
-6.41 -0.77 1.25
-6.27 -0.74 1.27
-6.24 -0.71 1.27
-6.24 -0.69 1.27
-6.22 -0.67 1.27
-6.43 -0.66 1.25
-6.14 -0.62 1.28
-3.16 -0.40 1.59
-6.18 -0.58 1.28
-6.03 -0.55 1.29
-6.43 -0.55 1.25
-6.12 -0.51 1.28
-6.13 -0.49 1.28
-6.29 -0.48 1.27
-6.04 -0.45 1.29
-6.04 -0.43 1.29
-5.98 -0.40 1.30
-6.08 -0.39 1.29
-5.91 -0.08 1.55
-6.24 -0.71 1.22
-6.38 -0.68 1.20
-6.23 -0.65 1.22
-6.19 -0.62 1.22
-6.34 -0.61 1.20
-6.18 -0.58 1.22
-6.31 -0.57 1.21
-6.16 -0.54 1.22
-6.11 -0.49 1.23
-6.00 -0.42 1.24
-5.89 -0.34 1.25
-5.92 -0.32 1.25
-6.15 -0.28 1.23
-6.13 0.02 1.44
-6.09 0.04 1.44
-6.09 0.05 1.44
-5.86 0.06 1.47
-5.68 0.08 1.49
-5.70 0.09 1.49
-5.76 0.11 1.48
-5.78 0.15 1.48
-5.88 0.17 1.47
-5.83 0.18 1.47
-6.05 0.20 1.45
-5.97 0.21 1.46
-5.99 0.26 1.45
-6.15 0.28 1.43
-6.09 0.29 1.44
-5.89 0.30 1.46
-6.05 0.32 1.44
-6.21 0.35 1.43
-6.02 0.35 1.45
-6.05 0.37 1.44
-6.09 0.39 1.44
-6.12 0.40 1.44
-5.95 0.41 1.46
-2.24 -0.55 1.61
-6.11 -0.89 1.17
-6.30 -0.89 1.14
-2.38 -0.49 1.60
-6.21 -0.84 1.16
-2.51 -0.48 1.58
-6.30 -0.80 1.14
-6.12 -0.75 1.17
-6.14 -0.73 1.16
-6.22 -0.71 1.15
-6.16 -0.69 1.16
-2.04 -0.35 1.64
-6.11 -0.64 1.17
-5.96 -0.61 1.18
-6.03 -0.59 1.18
-6.03 -0.57 1.18
-5.93 -0.54 1.19
-5.85 -0.52 1.20
-5.89 -0.50 1.19
-4.32 -0.07 1.65
-5.95 0.05 1.42
-5.98 0.06 1.42
-5.75 0.08 1.44
-5.82 0.09 1.44
-5.77 0.13 1.44
-5.92 0.15 1.42
-5.87 0.17 1.43
-5.96 0.18 1.42
-5.96 0.20 1.42
-5.95 0.23 1.42
-6.05 0.25 1.41
-6.02 0.26 1.41
-5.97 0.27 1.42
-5.98 0.29 1.41
-6.01 0.30 1.41
-5.94 0.32 1.42
-5.93 0.33 1.42
-6.01 0.35 1.41
-5.99 0.36 1.41
-5.99 0.39 1.41
-6.21 0.42 1.38
-2.34 -0.67 1.57
-2.35 -0.65 1.57
-2.24 -0.61 1.58
-2.35 -0.62 1.57
-2.37 -0.61 1.57
-2.37 -0.57 1.57
-2.49 -0.57 1.55
-2.53 -0.55 1.55
-6.39 -0.94 1.08
-2.66 -0.53 1.53
-6.27 -0.86 1.09
-2.29 -0.47 1.58
-2.65 -0.49 1.53
-2.35 -0.45 1.57
-2.28 -0.43 1.58
-2.35 -0.42 1.57
-6.09 -0.72 1.11
-2.73 -0.43 1.52
-2.61 -0.41 1.54
-5.94 -0.65 1.13
-5.91 -0.62 1.13
-2.38 -0.35 1.56
-5.89 -0.58 1.14
-5.82 -0.56 1.15
-5.87 -0.52 1.14
-6.02 -0.51 1.12
-6.04 -0.49 1.12
-5.89 -0.46 1.14
-5.61 -0.42 1.17
-5.40 -0.39 1.20
-5.82 -0.39 1.15
-5.80 -0.35 1.15
-5.89 -0.34 1.14
-5.92 -0.32 1.13
-5.62 -0.27 1.17
-5.55 -0.24 1.18
-5.83 -0.23 1.14
-5.95 0.02 1.38
-6.08 0.04 1.36
-5.92 0.05 1.38
-5.98 0.08 1.37
-5.82 0.09 1.39
-5.99 0.11 1.37
-5.82 0.12 1.39
-5.92 0.15 1.38
-5.79 0.16 1.39
-5.87 0.20 1.38
-5.83 0.21 1.39
-6.01 0.23 1.36
-5.95 0.26 1.37
-5.88 0.27 1.38
-5.83 0.28 1.39
-5.95 0.32 1.37
-6.05 0.34 1.36
-6.22 0.36 1.33
-6.22 0.38 1.33
-6.00 0.39 1.36
-6.07 0.41 1.35
-6.41 0.48 1.31
-2.51 -0.66 1.51
-2.58 -0.66 1.50
-2.56 -0.64 1.50
-2.48 -0.62 1.51
-2.42 -0.60 1.52
-2.42 -0.59 1.52
-2.37 -0.57 1.53
-2.46 -0.57 1.52
-5.91 -0.93 1.07
-6.00 -0.92 1.06
-5.93 -0.89 1.07
-6.12 -0.89 1.04
-6.12 -0.87 1.04
-3.24 -0.57 1.42
-2.46 -0.48 1.52
-2.53 -0.48 1.51
-2.35 -0.45 1.53
-2.34 -0.44 1.53
