# .PCD v0.7 - Point Cloud Data file format
VERSION 0.7
FIELDS x y z
SIZE 4 4 4
TYPE F F F
COUNT 1 1 1
WIDTH 2873
HEIGHT 1
VIEWPOINT 0 0 0 1 0 0 0
POINTS 2873
DATA ASCII
-5.96 0.53 1.33
-6.00 0.55 1.33
-6.02 0.57 1.32
-6.00 0.58 1.33
-6.00 0.60 1.33
-5.91 0.60 1.34
-6.01 0.63 1.32
-6.05 0.65 1.32
-6.15 0.67 1.30
-5.99 0.67 1.33
-6.00 0.69 1.32
-6.00 0.70 1.32
-6.19 0.74 1.30
-6.00 0.73 1.32
-6.04 0.75 1.32
-6.10 0.78 1.31
-5.93 0.77 1.33
-5.96 0.79 1.33
-5.93 0.80 1.33
-6.10 0.84 1.31
-6.04 0.85 1.31
-6.06 0.86 1.31
-6.08 0.88 1.31
-6.05 0.89 1.31
-6.06 0.91 1.31
-5.97 0.91 1.32
-5.92 0.92 1.33
-5.96 0.94 1.32
-5.93 0.95 1.33
-5.92 0.97 1.33
-5.95 0.99 1.32
-5.96 1.00 1.32
-5.96 1.02 1.32
-5.96 1.03 1.32
-5.98 1.05 1.32
-5.97 1.07 1.32
-5.95 1.08 1.32
-6.04 1.11 1.31
-6.87 -1.31 0.88
-6.95 -1.30 0.86
-5.79 -1.12 1.02
-6.54 -1.20 0.92
-6.36 -1.16 0.95
-6.22 -1.12 0.96
-6.77 -1.16 0.89
-6.39 -1.10 0.94
-6.25 -1.06 0.96
-6.32 -1.04 0.95
-6.32 -1.02 0.95
-6.30 -1.00 0.95
-6.20 -0.97 0.97
-6.27 -0.95 0.96
-6.27 -0.93 0.96
-6.84 -0.97 0.88
-6.35 -0.90 0.95
-6.30 -0.87 0.96
-6.17 -0.84 0.97
-6.23 -0.82 0.97
-6.37 -0.81 0.95
-6.13 -0.77 0.98
-6.19 -0.76 0.97
-6.52 -0.76 0.93
-6.11 -0.71 0.98
-6.36 -0.71 0.95
-5.24 -0.60 1.10
-5.40 -0.59 1.08
-4.96 -0.54 1.14
-5.01 -0.53 1.13
-5.05 -0.51 1.13
-5.01 -0.49 1.13
-5.12 -0.48 1.12
-5.04 -0.46 1.13
-4.83 -0.43 1.16
-4.64 -0.40 1.19
-4.45 -0.37 1.21
-4.50 -0.36 1.20
-4.64 -0.35 1.18
-4.76 -0.33 1.17
-5.42 -0.35 1.08
-5.06 -0.31 1.13
-4.82 -0.28 1.16
-4.98 -0.27 1.14
-5.19 -0.26 1.11
-5.20 -0.24 1.11
-5.06 -0.22 1.13
-5.17 -0.20 1.11
-5.92 -0.20 1.01
-6.10 -0.19 0.98
-4.88 -0.14 1.15
-5.73 -0.14 1.03
-9.17 -0.17 0.56
-8.29 -0.13 0.68
-6.57 -0.09 0.92
-6.31 -0.06 0.95
-6.63 -0.05 0.91
-9.65 -0.03 0.50
-8.79 0.02 0.89
-8.88 0.04 0.87
-8.78 0.11 0.89
-8.99 0.33 0.85
-9.02 0.37 0.85
-8.86 0.39 0.87
-8.88 0.41 0.87
-9.04 0.46 0.84
-6.15 0.35 1.26
-9.20 0.56 0.82
-6.09 0.39 1.27
-6.84 0.46 1.16
-5.95 0.43 1.29
-5.95 0.46 1.29
-5.92 0.49 1.29
-5.91 0.50 1.29
-6.00 0.52 1.28
-6.01 0.55 1.27
-6.05 0.59 1.27
-5.90 0.60 1.29
-6.00 0.63 1.27
-6.07 0.65 1.26
-6.27 0.70 1.23
-5.55 0.65 1.34
-6.12 0.75 1.25
-6.34 0.79 1.22
-6.08 0.78 1.26
-5.98 0.79 1.27
-6.05 0.83 1.26
-6.02 0.86 1.27
-6.00 0.87 1.27
-5.94 0.88 1.28
-5.96 0.91 1.27
-6.00 0.95 1.27
-5.96 0.98 1.27
-5.96 0.99 1.27
-5.96 1.01 1.27
-5.98 1.04 1.27
-5.94 1.07 1.27
-6.02 1.11 1.26
-5.97 1.12 1.26
-6.05 1.15 1.25
-6.15 1.20 1.24
-6.05 1.21 1.25
-6.01 1.23 1.25
-6.00 1.25 1.25
-5.94 1.25 1.26
-5.89 1.27 1.27
-6.86 -1.39 0.80
-6.82 -1.36 0.81
-6.83 -1.33 0.81
-6.62 -1.28 0.83
-6.55 -1.25 0.85
-6.62 -1.24 0.83
-6.18 -1.16 0.90
-6.33 -1.16 0.88
-6.41 -1.15 0.87
-6.10 -1.08 0.91
-6.32 -1.09 0.88
-6.83 -1.13 0.81
-6.58 -1.08 0.84
-6.70 -1.07 0.83
-5.73 -0.94 0.97
-3.00 -0.62 1.36
-6.12 -0.94 0.91
-5.83 -0.89 0.95
-6.12 -0.90 0.91
-6.29 -0.90 0.89
-6.28 -0.87 0.89
-5.96 -0.82 0.93
-5.96 -0.80 0.93
-6.23 -0.80 0.90
-5.78 -0.74 0.96
-5.65 -0.71 0.98
-5.14 -0.65 1.05
-5.86 -0.69 0.95
-5.91 -0.67 0.94
-5.53 -0.62 1.00
-4.74 -0.55 1.11
-4.75 -0.53 1.11
-4.64 -0.50 1.13
-4.56 -0.48 1.14
-4.66 -0.47 1.12
-4.54 -0.45 1.14
-4.63 -0.43 1.13
-4.30 -0.40 1.17
-4.31 -0.38 1.17
-4.20 -0.36 1.19
-4.31 -0.35 1.17
-4.45 -0.34 1.15
-4.44 -0.32 1.16
-4.61 -0.31 1.13
-4.73 -0.30 1.11
-4.74 -0.28 1.11
-4.66 -0.26 1.12
-10.25 -0.32 0.68
-10.21 -0.27 0.68
-10.15 -0.22 0.69
-10.05 -0.17 0.71
-10.25 -0.15 0.68
-8.69 -0.11 0.90
-8.87 -0.07 0.87
-8.84 -0.02 0.88
-9.50 -0.00 0.33
-9.00 0.03 0.41
-9.17 0.05 0.38
-9.42 0.08 0.34
-7.88 0.10 0.58
-9.68 0.14 0.30
-8.34 0.15 0.51
-9.19 0.19 0.38
-9.02 0.22 0.40
-8.09 0.23 0.54
-8.20 0.26 0.53
-8.22 0.28 0.53
-8.02 0.30 0.55
-8.45 0.34 0.49
-8.50 0.37 0.48
-8.27 0.39 0.52
-8.32 0.42 0.51
-8.42 0.45 0.49
-8.23 0.46 0.52
-7.98 0.48 0.56
-9.02 0.51 0.78
-9.09 0.53 0.77
-9.36 0.57 0.73
-9.27 0.59 0.74
-9.45 0.65 0.71
-9.41 0.67 0.72
-9.26 0.68 0.74
-9.52 0.72 0.70
-5.70 0.50 1.28
-5.85 0.52 1.25
-5.74 0.53 1.27
-5.62 0.53 1.29
-5.84 0.82 1.25
-5.76 0.82 1.26
-5.88 0.88 1.24
-5.77 0.88 1.26
-5.77 0.90 1.26
-5.80 0.92 1.25
-5.86 0.94 1.24
-5.83 0.95 1.25
-5.83 0.97 1.25
-5.84 0.98 1.24
-5.85 1.00 1.24
-5.96 1.03 1.22
-5.89 1.04 1.23
-6.00 1.07 1.22
-5.96 1.08 1.22
-5.98 1.10 1.22
-6.12 1.14 1.20
-6.05 1.14 1.21
-6.05 1.16 1.21
-7.40 -1.39 0.65
-7.41 -1.36 0.65
-7.40 -1.34 0.65
-7.37 -1.31 0.65
-7.11 -1.25 0.69
-7.00 -1.22 0.71
-7.31 -1.23 0.66
-6.64 -1.13 0.77
-6.75 -1.12 0.75
-6.62 -1.08 0.77
-6.56 -1.05 0.78
-6.43 -1.01 0.80
-6.41 -0.99 0.80
-6.44 -0.97 0.80
-2.98 -0.59 1.33
-6.55 -0.94 0.78
-6.44 -0.91 0.80
-6.36 -0.88 0.81
-6.30 -0.85 0.82
-7.50 -0.94 0.64
-5.77 -0.76 0.90
-7.22 -0.87 0.68
-8.27 -0.93 0.52
-7.93 -0.88 0.57
-6.25 -0.72 0.83
-6.29 -0.70 0.82
-6.76 -0.72 0.75
-5.71 -0.61 0.91
-4.67 -0.52 1.07
-5.02 -0.53 1.02
-9.50 -0.81 0.33
-5.30 -0.51 0.97
-4.29 -0.43 1.13
-4.46 -0.42 1.10
-4.47 -0.41 1.10
-4.21 -0.37 1.14
-4.05 -0.35 1.16
-4.34 -0.35 1.12
-4.29 -0.33 1.13
-4.36 -0.32 1.12
-4.85 -0.32 1.04
-8.98 -0.47 0.41
-8.36 -0.42 0.51
-8.48 -0.40 0.49
-8.82 -0.38 0.44
-8.91 -0.36 0.42
-8.59 -0.32 0.47
-9.03 -0.31 0.41
-8.77 -0.27 0.45
-9.05 -0.25 0.40
-8.89 -0.22 0.43
-8.93 -0.19 0.42
-8.95 -0.17 0.42
-8.98 -0.14 0.41
-8.71 -0.11 0.45
-9.12 -0.09 0.39
-9.07 -0.06 0.40
-9.14 -0.03 0.39
-9.05 0.04 0.70
-10.42 0.08 0.48
-8.98 0.09 0.71
-9.09 0.11 0.70
-10.44 0.15 0.48
-10.40 0.18 0.49
-10.60 0.21 0.45
-10.55 0.23 0.46
-10.48 0.25 0.47
-10.12 0.27 0.53
-10.49 0.31 0.47
-9.00 0.29 0.71
-10.48 0.36 0.47
-9.38 0.34 0.65
-9.09 0.35 0.69
-9.23 0.38 0.67
-8.94 0.39 0.72
-9.07 0.42 0.69
-8.88 0.43 0.72
-9.03 0.46 0.70
-8.98 0.48 0.71
-8.88 0.50 0.72
-8.84 0.52 0.73
-9.07 0.56 0.69
-9.02 0.57 0.70
-9.07 0.60 0.69
-6.89 0.48 1.04
-7.00 0.50 1.02
-6.88 0.51 1.04
-6.82 0.52 1.05
-6.56 0.52 1.09
-7.07 0.58 1.01
-8.95 0.75 0.71
-6.20 0.54 1.15
-6.11 0.55 1.16
-5.79 0.54 1.21
-5.79 0.55 1.21
-5.82 0.57 1.21
-5.86 0.59 1.20
-5.75 0.59 1.22
-5.96 0.63 1.18
-5.97 0.64 1.18
-6.02 0.66 1.17
-5.91 0.67 1.19
-6.25 0.72 1.13
-6.00 0.71 1.17
-8.20 0.97 0.82
-6.54 0.80 1.09
-5.88 0.74 1.19
-5.91 0.76 1.19
-5.93 0.77 1.18
-6.02 0.80 1.17
-5.95 0.81 1.18
-5.97 0.82 1.17
-5.94 0.84 1.18
-6.01 0.86 1.17
-5.96 0.87 1.17
-6.09 0.90 1.15
-5.88 0.89 1.19
-5.91 0.91 1.18
-5.95 0.93 1.17
-5.99 0.95 1.17
-5.94 0.96 1.17
-5.88 0.96 1.18
-5.87 0.98 1.18
-3.48 0.61 1.57
-5.86 1.01 1.19
-5.90 1.03 1.18
-5.89 1.04 1.18
-5.95 1.07 1.17
-6.04 1.10 1.15
-6.04 1.11 1.15
-5.97 1.12 1.16
-5.99 1.14 1.16
-6.00 1.16 1.16
-6.07 1.18 1.15
-6.09 1.20 1.14
-5.99 1.20 1.16
-6.00 1.22 1.16
-5.97 1.23 1.16
-5.97 1.24 1.16
-6.09 1.28 1.14
-5.90 1.26 1.17
-5.93 -1.33 0.80
-6.16 -1.35 0.76
-6.35 -1.36 0.73
-6.51 -1.36 0.71
-6.21 -1.29 0.75
-6.46 -1.31 0.71
-6.67 -1.31 0.68
-6.66 -1.29 0.68
-7.07 -1.32 0.62
-6.45 -1.22 0.72
-6.61 -1.22 0.69
-6.57 -1.19 0.70
-6.91 -1.21 0.65
-6.74 -1.17 0.67
-6.15 -1.07 0.77
-6.30 -1.07 0.74
-6.35 -1.05 0.74
-6.22 -1.02 0.76
-6.35 -1.01 0.74
-6.30 -0.98 0.74
-6.41 -0.97 0.73
-5.96 -0.90 0.80
-5.85 -0.87 0.82
-5.98 -0.87 0.80
-6.07 -0.85 0.78
-5.69 -0.80 0.84
-5.92 -0.80 0.81
-5.80 -0.77 0.83
-5.80 -0.75 0.83
-5.37 -0.69 0.90
-4.92 -0.63 0.97
-5.05 -0.62 0.95
-5.07 -0.61 0.94
-4.41 -0.54 1.05
-4.59 -0.54 1.02
-4.93 -0.54 0.97
-4.82 -0.52 0.98
-4.86 -0.50 0.98
-4.54 -0.46 1.03
-4.55 -0.45 1.03
-4.39 -0.42 1.05
-4.23 -0.39 1.08
-4.11 -0.37 1.10
-9.71 -0.50 0.60
-9.88 -0.48 0.57
-7.66 -0.36 0.92
-9.82 -0.43 0.58
-9.94 -0.41 0.56
-10.09 -0.39 0.54
-9.81 -0.36 0.58
-10.07 -0.34 0.54
-10.16 -0.32 0.53
-10.01 -0.29 0.55
-10.19 -0.27 0.52
-10.30 -0.25 0.50
-10.17 -0.22 0.53
-10.20 -0.20 0.52
-10.18 -0.17 0.52
-10.14 -0.15 0.53
-10.63 -0.13 0.45
-7.14 -0.07 1.01
-9.98 -0.07 0.56
-10.58 -0.05 0.46
-7.36 -0.02 0.97
-1.78 0.00 1.44
-9.23 0.03 0.18
-8.23 0.05 0.35
-8.95 0.09 0.65
-8.79 0.11 0.67
-9.58 0.14 0.54
-8.75 0.15 0.68
-10.17 0.20 0.44
-10.34 0.23 0.41
-9.79 0.24 0.51
-9.98 0.27 0.47
-9.40 0.27 0.57
-9.05 0.29 0.63
-9.37 0.32 0.58
-9.45 0.34 0.56
-9.85 0.38 0.49
-9.08 0.38 0.62
-9.16 0.40 0.61
-9.12 0.42 0.61
-7.10 0.35 0.95
-9.00 0.46 0.63
-8.88 0.48 0.65
-8.85 0.50 0.66
-8.62 0.51 0.70
-7.16 0.44 0.94
-7.16 0.46 0.94
-6.91 0.46 0.98
-6.75 0.47 1.01
-6.86 0.49 0.99
-6.74 0.50 1.01
-6.78 0.52 1.00
-9.07 0.71 0.62
-6.01 0.49 1.13
-6.33 0.53 1.08
-6.26 0.54 1.09
-5.98 0.54 1.13
-6.10 0.56 1.11
-8.15 0.76 0.77
-5.65 0.55 1.19
-6.03 0.60 1.12
-5.84 0.60 1.16
-5.82 0.61 1.16
-6.05 0.65 1.12
-5.84 0.64 1.15
-5.70 0.64 1.18
-5.86 0.67 1.15
-5.78 0.68 1.16
-5.64 0.68 1.19
-6.64 0.81 1.02
-5.90 0.74 1.14
-6.75 0.86 1.00
-6.01 0.78 1.12
-6.64 0.88 1.01
-6.27 0.84 1.08
-5.99 0.82 1.12
-5.90 0.83 1.14
-5.94 0.85 1.13
-5.82 0.85 1.15
-5.89 0.87 1.14
-5.91 0.89 1.13
-6.02 0.92 1.12
-6.09 0.95 1.10
-6.13 0.97 1.10
-3.43 0.57 1.55
-6.21 1.01 1.08
-3.54 0.61 1.53
-3.55 0.62 1.53
-3.54 0.62 1.53
-3.54 0.64 1.53
-3.53 0.64 1.53
-3.61 0.67 1.52
-3.50 0.66 1.54
-3.77 0.71 1.49
-3.71 0.71 1.50
-3.54 0.69 1.53
-3.50 0.70 1.53
-3.62 0.73 1.51
-3.59 0.73 1.52
-3.48 0.72 1.54
-3.56 0.75 1.52
-3.65 0.77 1.51
-5.93 1.23 1.12
-5.90 1.24 1.12
-5.94 1.26 1.12
-5.88 1.27 1.12
-3.26 1.17 1.54
-5.79 -1.37 0.76
-6.12 -1.40 0.70
-6.29 -1.41 0.67
-6.31 -1.39 0.67
-6.54 -1.40 0.63
-6.42 -1.36 0.65
-6.64 -1.37 0.61
-6.61 -1.35 0.62
-6.72 -1.34 0.60
-6.76 -1.32 0.59
-6.69 -1.29 0.61
-6.48 -1.24 0.64
-6.56 -1.23 0.63
-6.67 -1.22 0.61
-6.69 -1.20 0.61
-6.72 -1.18 0.60
-6.83 -1.17 0.58
-5.89 -1.04 0.74
-5.96 -1.03 0.73
-6.61 -1.08 0.62
-6.11 -1.00 0.71
-3.00 -0.63 1.23
-5.78 -0.92 0.76
-5.79 -0.90 0.76
-5.53 -0.86 0.81
-5.74 -0.86 0.77
-5.72 -0.84 0.77
-5.85 -0.83 0.75
-5.91 -0.82 0.74
-5.77 -0.78 0.77
-5.29 -0.72 0.85
-5.21 -0.69 0.86
-5.19 -0.67 0.86
-4.91 -0.63 0.91
-4.89 -0.61 0.91
-4.75 -0.58 0.94
-3.98 -0.50 1.07
-4.41 -0.52 0.99
-4.79 -0.53 0.93
-4.70 -0.51 0.95
-4.91 -0.50 0.91
-4.30 -0.45 1.01
-4.28 -0.43 1.02
-4.34 -0.42 1.01
-4.42 -0.40 0.99
-4.29 -0.38 1.01
-4.14 -0.36 1.04
-4.07 -0.34 1.05
-4.02 -0.32 1.06
-4.03 -0.30 1.06
-3.92 -0.28 1.08
-3.80 -0.26 1.10
-3.83 -0.25 1.09
-3.71 -0.23 1.11
-3.66 -0.21 1.12
-3.76 -0.20 1.10
-3.93 -0.19 1.08
-3.57 -0.16 1.14
-3.88 -0.16 1.08
-4.27 -0.15 1.02
-3.68 -0.12 1.12
-3.94 -0.11 1.07
-3.75 -0.09 1.11
-5.91 -0.10 0.74
-5.84 -0.08 0.75
-1.49 -0.03 1.48
-1.66 -0.02 1.46
-1.60 -0.01 1.47
-9.98 0.02 0.39
-10.18 0.05 0.35
-9.98 0.07 0.39
-9.98 0.10 0.39
-9.53 0.12 0.47
-8.95 0.13 0.57
-8.77 0.15 0.60
-8.98 0.17 0.56
-9.16 0.20 0.53
-9.33 0.23 0.50
-9.40 0.25 0.49
-6.43 0.19 1.01
-9.20 0.29 0.52
-6.74 0.23 0.95
-9.09 0.33 0.54
-6.70 0.26 0.96
-6.82 0.28 0.94
-8.99 0.40 0.56
-6.70 0.31 0.96
-7.09 0.35 0.89
-6.88 0.36 0.93
-7.07 0.38 0.89
-7.04 0.40 0.90
-6.95 0.41 0.91
-6.97 0.43 0.91
-6.94 0.44 0.92
-6.89 0.46 0.92
-7.04 0.49 0.90
-7.42 0.53 0.83
-8.50 0.63 0.64
-6.85 0.52 0.93
-6.95 0.55 0.91
-6.85 0.56 0.93
-8.15 0.68 0.70
-8.90 0.76 0.57
-8.57 0.76 0.62
-7.81 0.71 0.76
-7.82 0.73 0.75
-7.85 0.75 0.75
-6.13 0.61 1.05
-8.04 0.81 0.72
-5.84 0.61 1.10
-5.95 0.64 1.08
-5.79 0.64 1.11
-7.81 0.87 0.75
-5.74 0.66 1.12
-6.15 0.72 1.04
-7.84 0.93 0.75
-8.00 0.97 0.72
-7.73 0.96 0.76
-7.66 0.97 0.78
-7.32 0.94 0.84
-7.27 0.96 0.84
-7.14 0.96 0.87
-7.52 1.03 0.80
-7.14 0.99 0.87
-6.87 0.98 0.91
-6.74 0.97 0.94
-6.80 1.00 0.92
-6.54 0.98 0.97
-6.72 1.02 0.94
-6.24 0.97 1.02
-6.13 0.97 1.04
-6.03 0.97 1.06
-5.93 0.97 1.08
-6.03 1.00 1.06
-6.09 1.03 1.05
-5.92 1.01 1.07
-5.88 1.02 1.08
-5.92 1.04 1.07
-3.47 0.64 1.51
-6.02 1.09 1.05
-5.98 1.10 1.06
-5.99 1.12 1.06
-5.95 1.13 1.06
-6.02 1.16 1.05
-5.99 1.17 1.06
-6.00 1.18 1.05
-5.95 1.19 1.06
-5.93 1.20 1.06
-5.98 1.23 1.05
-5.92 1.23 1.07
-5.89 1.24 1.07
-5.87 1.25 1.07
-6.00 1.29 1.05
-5.93 1.30 1.06
-5.85 1.29 1.07
-1.29 -0.94 1.48
-5.68 -1.43 0.70
-5.58 -1.40 0.72
-5.71 -1.40 0.70
-6.22 -1.44 0.61
-5.68 -1.33 0.70
-5.75 -1.32 0.69
-5.83 -1.31 0.68
-6.73 -1.43 0.52
-6.71 -1.41 0.52
-3.97 -0.98 1.01
-4.00 -0.97 1.00
-3.86 -0.93 1.03
-3.81 -0.91 1.04
-3.89 -0.90 1.03
-6.62 -1.26 0.54
-3.68 -0.84 1.06
-6.38 -1.18 0.58
-6.34 -1.16 0.59
-6.48 -1.15 0.57
-6.18 -1.09 0.62
-6.18 -1.07 0.62
-6.24 -1.06 0.61
-6.45 -1.06 0.57
-6.32 -1.03 0.60
-6.13 -0.98 0.63
-5.88 -0.94 0.67
-5.98 -0.93 0.66
-5.70 -0.88 0.71
-5.69 -0.85 0.71
-5.73 -0.84 0.70
-5.74 -0.82 0.70
-5.68 -0.79 0.71
-5.80 -0.79 0.69
-5.50 -0.74 0.74
-5.20 -0.69 0.79
-5.12 -0.67 0.81
-5.11 -0.65 0.81
-4.97 -0.62 0.84
-4.92 -0.59 0.85
-4.90 -0.58 0.85
-4.68 -0.54 0.89
-4.50 -0.51 0.92
-4.17 -0.47 0.98
-4.81 -0.50 0.86
-4.60 -0.47 0.90
-4.52 -0.44 0.92
-4.46 -0.42 0.93
-4.55 -0.41 0.91
-4.45 -0.39 0.93
-4.23 -0.36 0.97
-4.28 -0.35 0.96
-4.10 -0.32 0.99
-4.06 -0.30 1.00
-3.87 -0.28 1.03
-3.96 -0.27 1.01
-3.96 -0.25 1.01
-3.66 -0.23 1.07
-3.78 -0.21 1.05
-3.77 -0.20 1.05
-3.74 -0.18 1.05
-3.77 -0.17 1.05
-3.82 -0.15 1.04
-3.64 -0.14 1.07
-5.89 -0.16 0.67
-6.12 -0.15 0.63
-9.88 -0.12 0.41
-9.94 -0.10 0.40
-9.80 -0.07 0.42
-9.76 -0.05 0.43
-9.82 -0.02 0.42
-9.66 -0.00 0.45
-1.65 0.00 1.38
-1.59 0.01 1.39
-1.48 0.02 1.41
-1.71 0.03 1.37
-1.87 0.04 1.34
-1.71 0.05 1.37
-1.76 0.06 1.36
-1.85 0.08 1.35
-1.78 0.09 1.36
-3.89 0.14 0.97
-1.76 0.11 1.36
-1.76 0.12 1.36
-5.44 0.17 1.13
-5.91 0.20 1.05
-6.02 0.22 1.03
-5.35 0.21 1.15
-6.14 0.26 1.00
-9.11 0.40 0.46
-7.05 0.33 0.84
-7.06 0.35 0.83
-8.90 0.46 0.49
-7.05 0.38 0.84
-6.72 0.38 0.90
-6.87 0.41 0.87
-9.21 0.56 0.43
-7.11 0.45 0.82
-6.76 0.45 0.89
-6.77 0.47 0.88
-7.19 0.51 0.81
-7.01 0.52 0.84
-7.00 0.53 0.84
-6.85 0.54 0.87
-6.72 0.55 0.89
-6.76 0.57 0.88
-6.51 0.56 0.93
-6.80 0.60 0.87
-6.42 0.59 0.95
-5.91 0.56 1.04
-6.01 0.58 1.02
-5.91 0.59 1.04
-6.07 0.62 1.01
-7.71 0.80 0.70
-5.60 0.60 1.09
-5.54 0.61 1.11
-5.85 0.66 1.05
-7.77 0.88 0.69
-7.83 0.91 0.68
-8.06 0.95 0.64
-8.09 0.98 0.63
-8.02 0.99 0.64
-6.57 0.83 0.91
-8.07 1.04 0.63
-8.12 1.06 0.62
-7.64 1.02 0.71
-7.55 1.03 0.73
-8.38 1.16 0.57
-7.65 1.08 0.71
-7.39 1.06 0.75
-6.89 1.01 0.85
-6.42 0.96 0.93
-3.56 0.56 1.46
-7.02 1.08 0.82
-3.57 0.58 1.46
-3.21 0.54 1.53
-3.43 0.58 1.49
-3.54 0.61 1.47
-3.40 0.59 1.49
-3.48 0.61 1.48
-3.48 0.62 1.48
-3.42 0.62 1.49
-3.45 0.64 1.48
-3.36 0.63 1.50
-3.45 0.66 1.48
-3.43 0.66 1.48
-3.50 0.68 1.47
-3.48 0.69 1.47
-3.47 0.70 1.47
-3.55 0.72 1.46
-3.51 0.72 1.47
-3.54 0.74 1.46
-3.45 0.73 1.48
-6.01 1.25 0.99
-6.09 1.28 0.98
-6.07 1.29 0.98
-6.04 1.30 0.99
-6.06 1.32 0.98
-5.84 1.29 1.02
-1.19 -0.88 1.47
-5.03 -1.24 0.75
-5.60 -1.32 0.65
-4.70 -1.15 0.82
-4.98 -1.18 0.76
-4.02 -1.02 0.94
-4.09 -1.01 0.93
-4.32 -1.03 0.89
-4.11 -0.98 0.93
-4.07 -0.96 0.94
-7.15 -1.38 0.36
-4.14 -0.94 0.92
-4.55 -0.98 0.85
-6.73 -1.25 0.44
-6.58 -1.21 0.47
-3.72 -0.82 1.00
-5.42 -1.02 0.69
-6.06 -1.08 0.57
-6.34 -1.09 0.51
-6.47 -1.08 0.49
-5.99 -1.01 0.58
-5.66 -0.95 0.64
-5.64 -0.93 0.65
-5.34 -0.87 0.70
-5.61 -0.88 0.65
-5.62 -0.87 0.65
-5.44 -0.83 0.68
-5.61 -0.82 0.65
-5.32 -0.78 0.70
-5.59 -0.78 0.65
-3.27 -0.55 1.09
-3.32 -0.54 1.08
-4.24 -0.61 0.91
-5.52 -0.70 0.67
-5.07 -0.64 0.75
-4.89 -0.61 0.79
-5.02 -0.60 0.76
-4.56 -0.55 0.85
-4.41 -0.52 0.88
-4.30 -0.50 0.90
-4.54 -0.50 0.85
-4.29 -0.46 0.90
-4.84 -0.48 0.79
-4.36 -0.43 0.88
-4.77 -0.44 0.81
-4.59 -0.41 0.84
-4.48 -0.39 0.86
-3.95 -0.35 0.96
-4.12 -0.34 0.93
-4.19 -0.33 0.92
-4.34 -0.32 0.89
-3.96 -0.28 0.96
-3.75 -0.26 1.00
-3.91 -0.25 0.97
-3.58 -0.22 1.03
-3.92 -0.22 0.96
-3.53 -0.19 1.04
-3.47 -0.17 1.05
-3.55 -0.16 1.03
-3.40 -0.14 1.06
-3.96 -0.14 0.96
-3.67 -0.12 1.01
-3.57 -0.10 1.03
-3.44 -0.09 1.05
-3.68 -0.08 1.01
-3.77 -0.06 0.99
-1.92 -0.03 1.33
-1.56 -0.02 1.40
-1.52 -0.01 1.41
-8.47 0.02 0.50
-8.51 0.04 0.49
-9.00 0.06 0.40
-8.99 0.09 0.40
-9.32 0.11 0.34
-9.30 0.14 0.34
-9.43 0.16 0.31
-9.38 0.18 0.32
-9.38 0.20 0.32
-9.31 0.23 0.34
-6.88 0.19 0.80
-9.23 0.27 0.35
-9.12 0.29 0.37
-9.08 0.31 0.38
-8.98 0.33 0.40
-5.73 0.23 1.03
-9.10 0.38 0.37
-9.00 0.40 0.39
-6.79 0.32 0.82
-6.58 0.32 0.86
-6.66 0.34 0.84
-5.50 0.30 1.07
-5.66 0.32 1.04
-5.77 0.34 1.02
-5.45 0.34 1.08
-5.44 0.35 1.08
-5.86 0.39 1.00
-5.58 0.39 1.05
-5.73 0.41 1.02
-7.37 0.54 0.70
-5.85 0.45 1.00
-5.79 0.46 1.01
-5.87 0.48 0.99
-6.88 0.58 0.80
-7.54 0.65 0.67
-7.78 0.69 0.62
-8.08 0.74 0.56
-8.06 0.75 0.57
-7.79 0.75 0.62
-7.86 0.78 0.60
-7.80 0.79 0.61
-7.75 0.80 0.62
-7.64 0.81 0.64
-7.62 0.83 0.65
-7.70 0.86 0.63
-7.93 0.90 0.59
-7.91 0.92 0.59
-7.62 0.91 0.65
-8.32 1.01 0.51
-7.95 0.98 0.58
-7.99 1.01 0.57
-7.94 1.02 0.58
-7.84 1.03 0.60
-7.61 1.02 0.64
-7.61 1.04 0.64
-7.50 1.04 0.66
-7.42 1.05 0.68
-7.32 1.06 0.70
-6.98 1.03 0.76
-6.75 1.01 0.81
-6.79 1.04 0.80
-6.85 1.06 0.79
-6.96 1.10 0.76
-6.71 1.08 0.81
-6.57 1.07 0.84
-6.65 1.10 0.82
-6.46 1.09 0.86
-6.15 1.05 0.92
-6.12 1.06 0.92
-6.20 1.09 0.91
-6.18 1.10 0.91
-6.27 1.14 0.89
-3.42 0.66 1.45
-6.21 1.16 0.90
-6.11 1.16 0.92
-6.22 1.19 0.90
-6.08 1.18 0.93
-6.15 1.21 0.91
-6.07 1.21 0.93
-6.01 1.22 0.94
-6.02 1.24 0.93
-6.09 1.27 0.92
-5.99 1.26 0.94
-6.00 1.28 0.94
-6.04 1.30 0.93
-6.00 1.31 0.93
-6.01 1.33 0.93
-5.85 1.31 0.96
-6.02 1.36 0.93
-6.12 1.40 0.91
-5.60 1.30 1.01
-4.85 -1.33 0.72
-5.12 -1.34 0.66
-3.85 -1.09 0.91
-3.96 -1.07 0.89
-3.98 -1.04 0.89
-3.85 -0.99 0.92
-3.96 -0.99 0.89
-3.95 -0.98 0.90
-3.81 -0.92 0.92
-3.66 -0.87 0.95
-4.69 -0.98 0.75
-5.36 -1.03 0.62
-6.01 -1.08 0.50
-5.80 -1.01 0.54
-6.12 -1.00 0.48
-5.48 -0.89 0.60
-5.66 -0.87 0.57
-6.07 -0.87 0.49
-5.55 -0.78 0.59
-5.41 -0.73 0.62
-5.41 -0.69 0.62
-5.30 -0.64 0.64
-4.14 -0.52 0.86
-4.19 -0.49 0.85
-4.12 -0.45 0.87
-5.30 -0.49 0.64
-4.47 -0.41 0.80
-3.97 -0.35 0.90
-4.13 -0.32 0.86
-4.62 -0.31 0.77
-6.32 -0.34 0.44
-9.05 -0.31 0.39
-9.08 -0.29 0.39
-9.20 -0.27 0.36
-9.23 -0.25 0.36
-8.30 -0.20 0.54
-8.62 -0.19 0.47
-8.50 -0.17 0.50
-8.54 -0.15 0.49
-8.51 -0.13 0.49
-8.22 -0.10 0.55
-8.29 -0.08 0.54
-8.38 -0.06 0.52
-8.56 -0.04 0.48
-8.46 -0.02 0.50
-8.49 -0.00 0.50
-1.56 0.00 1.33
-1.80 0.01 1.28
-1.69 0.02 1.30
-1.51 0.03 1.34
-2.00 0.04 1.24
-1.66 0.05 1.31
-1.71 0.06 1.30
-1.79 0.07 1.28
-1.86 0.09 1.27
-1.57 0.09 1.33
-1.78 0.11 1.28
-1.81 0.12 1.28
-1.74 0.13 1.29
-1.92 0.14 1.25
-1.87 0.15 1.26
-2.11 0.17 1.22
-2.13 0.18 1.21
-2.25 0.20 1.19
-4.18 0.29 0.79
-7.52 0.46 0.12
-5.24 0.27 1.08
-5.17 0.28 1.09
-5.08 0.29 1.11
-5.26 0.31 1.07
-5.11 0.32 1.10
-5.20 0.34 1.08
-5.16 0.35 1.09
-5.24 0.36 1.07
-5.25 0.38 1.07
-5.30 0.40 1.06
-5.50 0.42 1.02
-5.32 0.42 1.06
-5.54 0.45 1.01
-5.43 0.46 1.03
-5.66 0.49 0.99
-5.52 0.49 1.01
-5.77 0.53 0.96
-6.10 0.57 0.90
-7.85 0.75 0.54
-6.00 0.60 0.92
-6.12 0.62 0.89
-6.04 0.63 0.90
-6.12 0.65 0.89
-6.01 0.66 0.91
-6.40 0.71 0.83
-3.80 0.45 1.36
-8.22 0.95 0.46
-8.10 0.96 0.49
-8.52 1.03 0.40
-8.22 1.01 0.46
-3.92 0.51 1.33
-3.72 0.49 1.37
-3.44 0.47 1.43
-7.78 1.04 0.55
-3.51 0.51 1.41
-5.82 0.83 0.94
-3.50 0.53 1.41
-3.62 0.56 1.39
-6.63 1.01 0.77
-3.53 0.56 1.41
-3.48 0.57 1.41
-6.49 1.04 0.80
-3.41 0.57 1.43
-3.34 0.57 1.44
-3.37 0.59 1.44
-3.33 0.59 1.44
-3.23 0.58 1.46
-3.33 0.61 1.44
-3.22 0.60 1.46
-3.32 0.62 1.44
-3.30 0.63 1.45
-3.37 0.65 1.43
-3.43 0.67 1.42
-5.94 1.14 0.90
-3.39 0.68 1.43
-3.46 0.70 1.41
-6.09 1.21 0.87
-5.87 1.19 0.92
-5.97 1.22 0.90
-6.03 1.25 0.88
-6.00 1.26 0.89
-6.02 1.28 0.88
-5.97 1.28 0.89
-5.95 1.29 0.90
-5.83 1.29 0.92
-5.95 1.33 0.89
-5.88 1.33 0.91
-3.98 -1.12 0.84
-3.65 -1.05 0.90
-3.71 -1.04 0.89
-3.91 -1.06 0.85
-3.49 -0.98 0.94
-3.58 -0.98 0.92
-3.62 -0.97 0.91
-3.67 -0.96 0.90
-3.69 -0.95 0.90
-3.74 -0.94 0.89
-3.54 -0.90 0.93
-3.24 -0.84 0.99
-3.25 -0.83 0.99
-3.40 -0.83 0.96
-3.26 -0.80 0.99
-3.56 -0.83 0.92
-3.01 -0.74 1.04
-3.17 -0.74 1.01
-2.63 -0.66 1.12
-2.95 -0.69 1.05
-2.82 -0.66 1.08
-3.35 -0.71 0.97
-2.41 -0.59 1.16
-7.70 -1.18 0.08
-3.08 -0.64 1.02
-2.46 -0.56 1.15
-1.92 -0.49 1.26
-2.10 -0.49 1.22
-3.13 -0.59 1.01
-2.62 -0.52 1.12
-2.95 -0.54 1.05
-3.07 -0.54 1.03
-3.24 -0.54 0.99
-3.90 -0.59 0.86
-3.81 -0.57 0.88
-4.02 -0.57 0.83
-3.77 -0.53 0.88
-3.71 -0.51 0.90
-2.47 -0.40 1.15
-3.68 -0.48 0.90
-3.97 -0.49 0.84
-3.58 -0.44 0.92
-2.59 -0.36 1.12
-2.53 -0.34 1.14
-3.79 -0.41 0.88
-3.49 -0.38 0.94
-3.24 -0.35 0.99
-3.32 -0.34 0.98
-3.34 -0.33 0.97
-3.55 -0.32 0.93
-3.50 -0.31 0.94
-3.49 -0.29 0.94
-5.73 -0.38 0.49
-3.10 -0.25 1.02
-3.06 -0.23 1.03
-3.08 -0.22 1.02
-2.93 -0.20 1.05
-3.16 -0.19 1.01
-3.12 -0.18 1.02
-3.23 -0.17 0.99
-3.38 -0.16 0.96
-7.61 -0.25 0.11
-7.07 -0.21 0.22
-2.77 -0.10 1.09
-7.43 -0.17 0.14
-2.57 -0.07 1.13
-1.52 -0.05 1.34
-1.47 -0.04 1.35
-1.48 -0.03 1.35
-1.74 -0.02 1.29
-1.47 -0.01 1.35
-8.12 0.02 0.42
-8.23 0.04 0.39
-8.25 0.08 0.39
-8.36 0.10 0.36
-8.89 0.13 0.25
-8.49 0.16 0.34
-8.70 0.19 0.29
-8.62 0.21 0.31
-5.29 0.16 1.01
-8.72 0.28 0.29
-8.87 0.30 0.25
-8.73 0.34 0.28
-8.74 0.36 0.28
-5.29 0.24 1.01
-8.16 0.40 0.40
-5.52 0.29 0.96
-5.67 0.31 0.92
-7.60 0.45 0.52
-7.53 0.46 0.53
-7.79 0.50 0.48
-7.49 0.52 0.54
-7.70 0.55 0.49
-7.69 0.57 0.50
-7.59 0.60 0.52
-7.61 0.62 0.51
-7.61 0.64 0.51
-7.77 0.69 0.48
-7.76 0.71 0.48
-7.50 0.70 0.53
-6.69 0.66 0.70
-7.14 0.73 0.61
-7.65 0.79 0.50
-6.88 0.73 0.66
-6.77 0.74 0.68
-7.39 0.82 0.55
-7.36 0.84 0.56
-7.07 0.83 0.62
-7.29 0.87 0.57
-7.15 0.87 0.60
-7.36 0.91 0.55
-3.71 0.49 1.33
-7.39 0.96 0.54
-7.14 0.94 0.60
-7.62 1.02 0.50
-7.52 1.05 0.51
-6.28 0.90 0.78
-6.23 0.91 0.79
-6.66 1.00 0.69
-6.75 1.03 0.68
-6.49 1.01 0.73
-7.27 1.16 0.56
-6.34 1.04 0.76
-6.12 1.02 0.81
-6.03 1.03 0.82
-6.03 1.05 0.82
-6.18 1.09 0.79
-6.17 1.12 0.79
-6.06 1.12 0.81
-6.23 1.17 0.78
-5.94 1.14 0.84
-6.14 1.20 0.79
-5.97 1.18 0.83
-5.94 1.21 0.83
-5.90 1.21 0.84
-5.96 1.24 0.83
-6.01 1.28 0.82
-5.89 1.28 0.84
-5.94 1.30 0.83
-5.98 1.34 0.82
-5.92 1.34 0.83
-5.98 1.37 0.81
-5.98 1.40 0.81
-6.10 1.45 0.79
-5.83 1.40 0.84
-5.92 1.45 0.82
-5.82 1.45 0.84
-5.85 1.47 0.84
-5.62 1.45 0.88
-3.50 -1.51 0.85
-3.51 -1.50 0.85
-3.77 -1.31 0.80
-3.76 -1.29 0.81
-3.66 -1.25 0.83
-3.96 -1.30 0.77
-4.23 -1.33 0.71
-4.32 -1.33 0.69
-4.24 -1.30 0.71
-4.23 -1.29 0.71
-4.21 -1.27 0.71
-3.88 -1.19 0.79
-3.82 -1.16 0.80
-3.75 -1.13 0.81
-3.77 -1.12 0.81
-3.77 -1.11 0.81
-3.98 -1.13 0.76
-4.10 -1.13 0.74
-3.96 -1.09 0.77
-4.06 -1.09 0.75
-3.95 -1.06 0.77
-3.93 -1.04 0.78
-4.28 -1.08 0.70
-3.75 -0.98 0.82
-3.71 -0.96 0.83
-3.71 -0.94 0.83
-3.68 -0.92 0.83
-3.72 -0.91 0.82
-3.68 -0.89 0.83
-3.36 -0.83 0.90
-3.50 -0.84 0.87
-3.47 -0.82 0.88
-3.36 -0.79 0.90
-3.30 -0.77 0.92
-2.89 -0.70 1.00
-2.98 -0.70 0.98
-2.96 -0.68 0.99
-3.04 -0.68 0.97
-4.80 -0.87 0.60
-4.98 -0.88 0.56
-5.02 -0.86 0.55
-4.95 -0.83 0.57
-5.10 -0.83 0.53
-5.05 -0.81 0.54
-5.48 -0.84 0.45
-5.88 -0.86 0.37
-5.82 -0.83 0.38
-5.77 -0.80 0.39
-5.77 -0.78 0.39
-4.91 -0.69 0.58
-4.75 -0.65 0.61
-4.58 -0.62 0.65
-4.85 -0.63 0.59
-5.71 -0.68 0.41
-5.74 -0.66 0.40
-5.67 -0.64 0.41
-5.62 -0.61 0.43
-5.48 -0.58 0.45
-5.14 -0.54 0.53
-5.07 -0.52 0.54
-5.21 -0.51 0.51
-5.31 -0.49 0.49
-5.47 -0.49 0.46
-5.71 -0.48 0.41
-5.47 -0.30 0.98
-5.04 -0.25 1.07
-6.75 -0.32 0.71
-9.30 -0.41 0.17
-7.39 -0.29 0.57
-7.54 -0.28 0.54
-9.11 -0.31 0.21
-8.23 -0.24 0.39
-7.62 -0.21 0.52
-8.83 -0.22 0.27
-9.08 -0.18 0.21
-9.45 -0.16 0.14
-8.59 -0.13 0.32
-8.04 -0.08 0.43
-8.04 -0.06 0.43
-8.16 -0.04 0.41
-8.18 -0.00 0.40
-6.62 -0.00 0.13
-3.93 0.01 0.72
-4.17 0.03 0.67
-8.76 0.08 0.20
-8.87 0.11 0.17
-8.88 0.13 0.17
-8.77 0.15 0.19
-4.75 0.09 1.08
-8.43 0.18 0.27
-5.05 0.12 1.01
-5.00 0.14 1.02
-5.11 0.15 1.00
-4.80 0.15 1.07
-5.12 0.18 1.00
-5.14 0.19 0.99
-5.04 0.20 1.01
-5.20 0.22 0.98
-5.40 0.24 0.93
-5.18 0.24 0.98
-5.55 0.27 0.90
-5.27 0.27 0.96
-5.31 0.29 0.95
-7.10 0.40 0.56
-5.46 0.32 0.92
-5.47 0.34 0.91
-7.75 0.49 0.41
-7.88 0.52 0.38
-7.70 0.53 0.42
-7.69 0.55 0.42
-7.80 0.57 0.40
-7.56 0.58 0.45
-7.42 0.58 0.48
-7.32 0.60 0.50
-7.36 0.62 0.49
-7.48 0.65 0.47
-7.40 0.66 0.48
-7.36 0.67 0.49
-7.45 0.70 0.47
-7.27 0.70 0.51
-7.27 0.72 0.51
-7.10 0.72 0.55
-6.96 0.72 0.58
-6.11 0.65 0.76
-6.44 0.70 0.69
-5.36 0.60 0.93
-6.97 0.79 0.57
-6.75 0.79 0.62
-6.97 0.83 0.57
-3.76 0.47 1.28
-7.24 0.90 0.51
-3.57 0.47 1.32
-3.75 0.50 1.28
-3.77 0.51 1.28
-3.73 0.52 1.29
-3.74 0.53 1.29
-6.15 0.86 0.75
-3.74 0.55 1.28
-6.24 0.91 0.73
-3.83 0.58 1.26
-3.53 0.55 1.33
-6.59 1.00 0.65
-6.60 1.02 0.64
-5.83 0.92 0.81
-3.39 0.56 1.36
-3.21 0.55 1.40
-3.17 0.55 1.41
-3.17 0.56 1.41
-3.14 0.56 1.41
-3.17 0.57 1.41
-3.26 0.60 1.38
-3.16 0.59 1.41
-3.09 0.59 1.42
-3.16 0.61 1.41
-3.24 0.63 1.39
-3.25 0.64 1.38
-3.17 0.64 1.40
-3.46 0.70 1.33
-3.26 0.67 1.38
-3.32 0.69 1.37
-3.37 0.71 1.35
-3.21 0.69 1.39
-3.00 0.65 1.44
-5.89 1.24 0.78
-5.70 1.21 0.83
-5.86 1.26 0.79
-5.86 1.28 0.79
-5.96 1.32 0.77
-5.86 1.31 0.79
-3.70 -1.35 0.76
-3.48 -1.29 0.81
-3.52 -1.28 0.80
-3.60 -1.28 0.79
-3.60 -1.27 0.78
-3.79 -1.29 0.74
-3.79 -1.28 0.74
-3.88 -1.28 0.72
-3.93 -1.27 0.71
-3.81 -1.23 0.74
-3.86 -1.21 0.73
-3.81 -1.19 0.74
-3.74 -1.16 0.76
-3.68 -1.13 0.77
-3.74 -1.13 0.76
-3.87 -1.13 0.73
-3.75 -1.10 0.76
-3.72 -1.08 0.76
-3.92 -1.10 0.72
-3.69 -1.04 0.77
-3.53 -1.00 0.81
-3.53 -0.99 0.81
-3.61 -0.98 0.79
-3.53 -0.96 0.81
-3.63 -0.94 0.79
-3.51 -0.91 0.81
-3.53 -0.90 0.81
-3.38 -0.86 0.84
-3.31 -0.84 0.86
-3.22 -0.81 0.88
-3.25 -0.80 0.87
-3.38 -0.80 0.84
-4.01 -0.87 0.70
-4.53 -0.92 0.59
-4.38 -0.89 0.62
-3.13 -0.71 0.90
-3.10 -0.70 0.91
-2.84 -0.65 0.97
-3.00 -0.66 0.93
-6.49 -1.04 0.15
-6.38 -1.01 0.18
-4.44 -0.78 0.61
-3.33 -0.64 0.85
-5.31 -0.83 0.42
-5.20 -0.80 0.44
-5.94 -0.86 0.28
-2.85 -0.54 0.96
-2.81 -0.52 0.97
-4.68 -0.68 0.56
-4.43 -0.64 0.61
-5.54 -0.72 0.37
-4.35 -0.60 0.63
-5.68 -0.69 0.34
-5.41 -0.65 0.40
-5.46 -0.64 0.38
-6.06 -0.66 0.25
-5.51 -0.60 0.37
-5.53 -0.58 0.37
-5.59 -0.57 0.36
-5.54 -0.55 0.37
-5.60 -0.53 0.35
-5.63 -0.51 0.35
-5.27 -0.47 0.43
-5.46 -0.46 0.39
-2.49 -0.28 1.04
-3.30 -0.31 0.86
-3.17 -0.29 0.89
-3.11 -0.27 0.91
-3.06 -0.26 0.92
-2.88 -0.24 0.96
-2.87 -0.22 0.96
-3.00 -0.22 0.93
-3.31 -0.21 0.86
-3.10 -0.19 0.91
-3.31 -0.18 0.86
-3.36 -0.17 0.85
-3.38 -0.16 0.85
-3.35 -0.14 0.85
-3.38 -0.13 0.84
-3.67 -0.12 0.78
-3.54 -0.10 0.81
-3.60 -0.09 0.80
-3.57 -0.07 0.80
-3.49 -0.06 0.82
-3.66 -0.05 0.78
-6.50 -0.05 0.15
-6.75 -0.02 0.10
-7.54 0.05 0.39
-8.52 0.08 0.16
-8.66 0.10 0.13
-8.74 0.13 0.11
-8.65 0.15 0.13
-8.70 0.17 0.12
-8.65 0.19 0.13
-8.67 0.21 0.12
-8.76 0.23 0.10
-5.58 0.16 0.84
-5.51 0.18 0.85
-8.43 0.29 0.18
-8.53 0.31 0.15
-8.41 0.33 0.18
-8.67 0.36 0.12
-8.34 0.37 0.20
-8.55 0.40 0.15
-8.38 0.41 0.19
-8.12 0.42 0.25
-7.54 0.41 0.38
-8.03 0.45 0.27
-8.33 0.49 0.20
-8.07 0.49 0.26
-7.76 0.49 0.33
-7.59 0.50 0.37
-7.52 0.52 0.38
-7.58 0.54 0.37
-7.60 0.56 0.36
-7.65 0.58 0.35
-7.55 0.59 0.37
-7.38 0.60 0.41
-7.50 0.63 0.38
-6.99 0.60 0.50
-8.32 0.74 0.19
-6.61 0.61 0.59
-6.95 0.65 0.51
-6.48 0.63 0.62
-6.50 0.65 0.61
-6.45 0.66 0.62
-8.29 0.86 0.20
-6.91 0.74 0.51
-7.02 0.76 0.49
-7.09 0.79 0.47
-7.10 0.81 0.47
-7.08 0.82 0.47
-6.87 0.82 0.52
-7.09 0.86 0.47
-6.92 0.86 0.51
-7.03 0.89 0.48
-7.30 0.94 0.42
-7.43 0.98 0.39
-6.57 0.88 0.58
-6.10 0.84 0.69
-6.02 0.84 0.71
-6.11 0.87 0.69
-6.38 0.92 0.63
-6.30 0.93 0.64
-6.20 0.93 0.67
-5.96 0.91 0.72
-6.19 0.96 0.67
-6.20 0.98 0.67
-6.04 0.97 0.70
-6.09 0.99 0.69
-5.98 0.99 0.71
-6.14 1.04 0.67
-6.09 1.04 0.69
-6.17 1.07 0.67
-6.12 1.08 0.68
-6.15 1.10 0.67
-5.86 1.07 0.74
-5.84 1.08 0.74
-5.90 1.10 0.73
-5.91 1.12 0.72
-5.96 1.14 0.71
-5.84 1.14 0.74
-6.10 1.20 0.68
-6.11 1.22 0.67
-6.22 1.26 0.65
-6.22 1.27 0.65
-6.15 1.28 0.66
-5.98 1.26 0.70
-6.05 1.29 0.68
-6.23 1.34 0.64
-3.75 -1.16 0.69
-3.73 -1.14 0.69
-4.27 -1.22 0.57
-3.92 -1.14 0.65
-3.76 -1.10 0.69
-3.54 -1.05 0.74
-3.70 -1.06 0.70
-3.47 -1.01 0.76
-3.43 -0.99 0.77
-3.45 -0.97 0.76
-3.41 -0.95 0.77
-3.39 -0.94 0.78
-3.53 -0.94 0.75
-3.57 -0.93 0.73
-3.60 -0.92 0.73
-3.63 -0.91 0.72
-3.89 -0.94 0.66
-3.66 -0.89 0.72
-3.64 -0.87 0.72
-3.63 -0.85 0.72
-3.90 -0.87 0.66
-4.30 -0.91 0.57
-4.62 -0.94 0.49
-4.62 -0.92 0.49
-4.74 -0.92 0.47
-4.75 -0.90 0.46
-4.75 -0.88 0.46
-4.83 -0.87 0.45
-4.84 -0.86 0.44
-5.06 -0.86 0.39
-5.08 -0.85 0.39
-4.96 -0.82 0.41
-5.28 -0.83 0.34
-6.09 -0.90 0.15
-5.23 -0.79 0.35
-6.11 -0.86 0.15
-6.27 -0.85 0.11
-6.30 -0.83 0.11
-5.07 -0.70 0.39
-5.16 -0.69 0.37
-4.88 -0.65 0.44
-4.67 -0.61 0.48
-5.82 -0.69 0.22
-6.02 -0.68 0.17
-5.99 -0.66 0.18
-5.83 -0.63 0.22
-5.89 -0.61 0.20
-5.74 -0.58 0.24
-5.86 -0.57 0.21
-6.02 -0.56 0.17
-5.92 -0.53 0.20
-5.91 -0.51 0.20
-5.86 -0.49 0.21
-5.81 -0.46 0.22
-6.00 -0.45 0.18
-6.00 -0.43 0.18
-5.98 -0.41 0.18
-5.92 -0.39 0.20
-3.13 -0.25 0.84
-5.93 -0.35 0.19
-3.09 -0.22 0.85
-6.02 -0.31 0.17
-6.04 -0.29 0.17
-3.27 -0.18 0.81
-6.08 -0.25 0.16
-6.05 -0.23 0.17
-6.24 -0.21 0.12
-6.20 -0.19 0.13
-6.26 -0.17 0.12
-6.11 -0.15 0.15
-8.46 -0.10 0.18
-8.52 -0.08 0.16
-7.90 -0.06 0.30
-3.24 0.62 0.62
-3.31 0.52 0.51
-2.87 0.98 0.49
-3.17 0.72 0.46
-2.94 0.72 0.46
-2.99 0.83 0.46
-3.25 0.62 0.44
-3.12 0.56 0.36
-4.20 0.60 0.27
-3.29 0.59 0.32
-3.18 0.65 0.33
-3.04 0.65 0.34
-3.29 0.59 0.30
-3.22 0.61 0.31
-5.16 0.23 0.12
-3.64 0.65 0.25
-3.24 0.62 0.28
-3.08 0.59 0.29
-3.12 0.63 0.29
-3.03 0.64 0.30
-3.83 0.64 0.20
-3.23 0.62 0.26
-3.22 0.69 0.23
-3.31 0.89 0.19
-3.15 0.57 0.18
-3.15 0.64 0.18
-3.06 0.65 0.19
-10.12 -0.24 1.24
-10.54 -0.13 1.21
-10.38 -0.09 1.22
-10.56 -1.23 1.14
-10.22 0.06 1.10
-10.49 -1.31 1.08
-10.49 -1.16 1.08
-8.23 -0.78 1.27
-10.42 -0.90 1.08
-10.41 -0.87 1.08
-10.21 -0.76 1.10
-10.45 -0.72 1.08
-10.36 -0.68 1.09
-10.59 -0.66 1.07
-7.97 -0.48 1.29
-10.58 -0.50 1.07
-10.52 -0.44 1.07
-10.37 -0.37 1.09
-10.20 -0.25 1.10
-10.32 -0.22 1.09
-10.13 -0.18 1.11
-10.25 -0.15 1.10
-10.34 -0.12 1.09
-10.06 -0.09 1.11
-8.61 -1.21 1.16
-10.57 -1.39 0.98
-10.44 -1.34 1.00
-10.38 -1.30 1.00
-8.27 -1.01 1.19
-10.39 -1.18 1.00
-10.59 -1.13 0.98
-8.34 -0.92 1.19
-10.66 -1.08 0.98
-10.45 -1.03 1.00
-10.37 -0.99 1.00
-10.35 -0.96 1.00
-10.41 -0.93 1.00
-10.52 -0.91 0.99
-10.51 -0.85 0.99
-8.16 -0.67 1.20
-7.89 -0.63 1.23
-10.45 -0.75 1.00
-8.20 -0.59 1.20
-10.51 -0.66 0.99
-10.64 -0.63 0.98
-10.60 -0.60 0.98
-8.09 -0.46 1.21
-8.04 -0.43 1.21
-10.57 -0.47 0.98
-7.96 -0.35 1.22
-7.65 -0.32 1.25
-10.63 -0.38 0.98
-8.05 -0.28 1.21
-7.80 -0.25 1.24
-10.44 -0.25 1.00
-7.68 -0.17 1.25
-10.30 0.03 0.94
-10.21 0.06 0.95
-10.12 0.09 0.95
-10.46 0.12 0.92
-9.51 0.29 1.01
-10.42 -1.24 0.93
-10.39 -1.18 0.93
-10.55 -1.16 0.91
-10.67 -1.14 0.90
-10.36 -1.02 0.93
-10.15 -0.97 0.95
-10.31 -0.92 0.94
-10.27 -0.86 0.94
-10.58 -0.85 0.91
-10.44 -0.78 0.93
-7.93 -0.60 1.17
-8.14 -0.59 1.15
-8.08 -0.56 1.15
-7.68 -0.52 1.19
-7.82 -0.50 1.18
-7.61 -0.46 1.20
-10.58 -0.57 0.91
-7.93 -0.43 1.17
-8.08 -0.41 1.15
-8.05 -0.38 1.16
-8.03 -0.36 1.16
-10.23 -0.34 0.95
-10.23 -0.25 0.95
-10.21 -0.22 0.95
-10.09 -0.18 0.96
-10.02 -0.15 0.97
-10.18 -0.12 0.95
-10.11 -0.09 0.96
-10.04 -0.06 0.96
-10.36 -0.03 0.93
-9.47 0.72 1.19
-9.47 0.74 1.19
-9.38 0.76 1.20
-8.39 -1.24 1.05
-10.42 -1.43 0.84
-8.17 -1.08 1.07
-10.30 -1.24 0.85
-8.34 -1.02 1.05
-10.29 -1.17 0.85
-8.41 -0.98 1.05
-10.41 -1.12 0.84
-9.67 -1.03 0.92
-10.30 -1.05 0.85
-10.16 -1.01 0.87
-10.12 -0.97 0.87
-8.07 -0.79 1.08
-8.16 -0.77 1.07
-8.48 -0.72 1.04
-7.86 -0.65 1.10
-8.04 -0.64 1.09
-8.29 -0.63 1.06
-8.20 -0.59 1.07
-8.15 -0.57 1.08
-7.72 -0.49 1.12
-7.96 -0.48 1.09
-7.77 -0.45 1.11
-10.36 -0.53 0.85
-10.22 -0.49 0.86
-9.48 0.29 0.86
-8.89 0.30 0.92
-8.68 0.35 0.94
-8.88 0.46 0.92
-10.47 -1.44 0.75
-10.55 -1.19 0.74
-8.83 -0.76 0.93
-8.62 -0.72 0.95
-9.04 -0.72 0.91
-8.67 -0.65 0.95
-8.94 -0.63 0.92
-8.62 -0.59 0.96
-9.33 -0.51 0.88
-8.47 -0.45 0.97
-10.66 -0.51 0.73
-9.84 -0.18 0.82
-9.77 -0.15 0.83
-9.86 0.60 1.02
-9.77 0.62 1.03
-9.88 0.65 1.01
-9.82 0.67 1.02
-9.77 0.74 1.02
-10.02 0.78 1.00
-10.22 0.82 0.97
-10.07 0.86 0.99
-9.84 0.87 1.01
-10.51 -1.41 0.65
-10.50 -1.38 0.65
-10.75 -1.38 0.63
-10.76 -1.34 0.63
-10.67 -1.30 0.64
-10.67 -1.27 0.64
-10.70 -1.24 0.63
-7.92 -0.96 0.96
-7.92 -0.93 0.96
-7.86 -0.90 0.96
-7.68 -0.86 0.98
-7.92 -0.81 0.96
-8.60 -0.73 0.88
-8.56 -0.70 0.88
-8.82 -0.68 0.85
-8.77 -0.65 0.86
-10.30 0.06 0.59
-9.64 0.54 0.98
-9.68 0.57 0.97
-9.63 0.59 0.98
-9.71 0.62 0.97
-9.75 0.64 0.96
-9.73 0.67 0.96
-10.02 0.71 0.93
-9.63 0.71 0.98
-9.95 0.78 0.94
-9.98 0.81 0.93
-10.27 0.90 0.90
-10.49 1.00 0.87
-10.00 1.00 0.93
-10.51 -1.41 0.57
-10.64 -1.39 0.55
-10.77 -1.37 0.54
-10.34 -1.21 0.59
-10.74 -1.21 0.54
-10.44 -1.12 0.58
-10.44 -1.09 0.58
-9.98 -0.93 0.63
-9.19 -0.85 0.73
-9.49 -0.84 0.69
-9.31 -0.77 0.72
-8.56 -0.67 0.81
-9.14 -0.65 0.74
-9.04 -0.61 0.75
-9.27 -0.60 0.72
-8.84 -0.55 0.78
-9.22 -0.54 0.73
-8.86 -0.49 0.77
-8.31 -0.44 0.84
-9.16 -0.42 0.73
-9.27 -0.40 0.72
-9.00 -0.36 0.75
-9.55 -0.35 0.69
-9.23 -0.31 0.73
-9.67 -0.27 0.67
-9.72 -0.21 0.67
-9.75 -0.18 0.66
-9.76 -0.15 0.66
-9.56 -0.12 0.69
-8.01 -0.08 0.88
-9.64 -0.06 0.68
-10.03 -0.03 0.63
-10.62 0.03 0.78
-9.37 0.55 0.94
-9.49 0.60 0.92
-9.59 0.66 0.91
-9.80 0.69 0.88
-9.65 0.73 0.90
-9.84 0.77 0.88
-9.87 0.84 0.87
-10.06 0.91 0.85
-8.49 1.22 1.04
-10.74 -1.47 0.44
-10.53 -1.41 0.47
-10.51 -1.38 0.47
-8.27 -1.12 0.76
-10.40 -1.31 0.49
-10.25 -1.26 0.50
-10.20 -1.23 0.51
-9.82 -1.07 0.56
-10.00 -1.05 0.54
-9.61 -0.99 0.59
-7.00 -0.69 0.93
-6.86 -0.66 0.95
-9.55 -0.79 0.60
-9.23 -0.71 0.64
-9.29 -0.68 0.63
-9.02 -0.64 0.67
-9.09 -0.62 0.66
-9.37 -0.60 0.62
-8.52 -0.53 0.73
-9.05 -0.53 0.66
-8.51 -0.48 0.73
-8.42 -0.45 0.74
-8.65 -0.43 0.72
-8.91 -0.41 0.68
-9.08 -0.39 0.66
-8.89 -0.36 0.68
-9.02 -0.33 0.67
-9.67 -0.27 0.58
-7.98 -0.20 0.80
-9.89 -0.21 0.55
-9.54 -0.00 0.51
-9.41 0.06 0.53
-9.65 0.09 0.50
-9.62 0.11 0.50
-10.14 0.15 0.43
-8.06 0.15 0.71
-8.12 0.18 0.70
-8.38 0.23 0.67
-9.77 0.29 0.48
-10.47 0.34 0.38
-9.23 0.54 0.89
-9.46 0.58 0.86
-9.45 0.60 0.86
-9.35 0.62 0.87
-9.36 0.64 0.87
-9.31 0.66 0.88
-9.47 0.69 0.86
-9.58 0.73 0.84
-9.38 0.73 0.87
-9.71 0.78 0.82
-9.65 0.80 0.83
-9.49 0.81 0.85
-9.71 0.85 0.82
-10.07 0.91 0.77
-10.12 0.94 0.76
-8.32 -1.25 0.68
-10.52 -1.41 0.38
-8.26 -1.14 0.69
-10.05 -1.30 0.44
-10.04 -1.27 0.44
-10.02 -1.21 0.44
-9.18 -0.96 0.56
-9.80 -0.95 0.48
-9.06 -0.84 0.58
-8.88 -0.66 0.60
-9.11 -0.64 0.57
-6.98 -0.50 0.86
-7.48 -0.51 0.80
-9.06 -0.56 0.58
-9.23 -0.54 0.55
-9.00 -0.50 0.59
-7.95 -0.43 0.73
-8.49 -0.43 0.66
-8.81 -0.41 0.61
-8.70 -0.38 0.63
-8.70 -0.35 0.63
-8.81 -0.33 0.61
-9.16 -0.31 0.57
-8.98 -0.28 0.59
-8.56 -0.24 0.65
-8.83 -0.22 0.61
-8.77 -0.19 0.62
-9.73 -0.12 0.49
-9.68 -0.09 0.49
-9.55 -0.06 0.51
-9.09 0.51 0.84
-9.16 0.58 0.82
-9.30 0.61 0.80
-9.41 0.67 0.79
-9.50 0.72 0.77
-9.46 0.76 0.78
-9.64 0.80 0.75
-6.26 -0.98 0.89
-10.48 -1.41 0.28
-9.83 -1.19 0.37
-9.33 -1.11 0.45
-9.62 -1.08 0.40
-9.69 -0.88 0.40
-9.10 -0.81 0.48
-8.72 -0.71 0.54
-9.30 -0.71 0.45
-8.98 -0.67 0.50
-9.18 -0.65 0.47
-8.93 -0.61 0.51
-7.13 -0.49 0.77
-8.77 -0.55 0.53
-9.16 -0.54 0.47
-8.84 -0.49 0.52
-8.91 -0.44 0.51
-8.89 -0.41 0.51
-6.44 -0.95 0.80
-9.73 -1.09 0.30
-9.90 -1.04 0.27
-9.80 -1.01 0.29
-9.88 -0.95 0.28
-9.11 -0.70 0.39
-9.54 -0.70 0.33
-9.52 -0.67 0.33
-9.18 -0.62 0.38
-9.01 -0.58 0.41
-9.05 -0.56 0.40
-8.95 -0.52 0.42
-8.77 -0.49 0.44
-9.19 0.63 0.67
-9.42 0.67 0.63
-9.22 0.68 0.67
-9.29 0.71 0.66
-9.13 0.72 0.68
-8.97 0.81 0.70
-8.18 0.83 0.83
-8.99 1.02 0.69
-8.34 0.97 0.80
-8.67 1.05 0.74
-8.69 1.07 0.74
-5.89 1.00 1.18
-10.89 -1.68 0.00
-10.88 -1.65 0.01
-10.83 -1.61 0.01
-10.78 -1.57 0.02
-10.77 -1.54 0.02
-10.77 -1.51 0.02
-10.64 -1.46 0.05
-10.62 -1.43 0.05
-10.77 -1.41 0.03
-10.49 -1.35 0.07
-10.58 -1.33 0.06
-10.66 -1.30 0.04
-8.21 -1.04 0.44
-10.54 -1.23 0.07
-10.63 -1.21 0.05
-10.41 -1.15 0.09
-10.48 -1.13 0.08
-10.47 -1.10 0.08
-7.37 -0.81 0.57
-10.30 -1.02 0.10
-8.51 -0.85 0.39
-10.34 -0.96 0.10
-10.30 -0.93 0.11
-10.48 -0.91 0.08
-10.42 -0.87 0.09
-10.33 -0.84 0.10
-10.45 -0.81 0.08
-10.48 -0.78 0.08
-10.19 -0.74 0.12
-10.50 -0.72 0.07
-10.55 -0.10 0.46
-5.73 -0.00 0.77
-9.01 0.44 0.63
-8.83 0.58 0.66
-8.76 0.60 0.67
-8.76 0.62 0.67
-9.02 0.66 0.63
-8.95 0.68 0.64
-9.36 0.76 0.57
-9.62 0.80 0.53
-9.36 0.80 0.57
-8.80 0.78 0.66
-8.30 0.75 0.74
-8.03 0.77 0.79
-8.30 0.82 0.74
-8.14 0.82 0.77
-8.55 0.88 0.70
-8.27 0.87 0.75
-8.13 0.88 0.77
-8.37 0.93 0.73
-8.12 0.92 0.77
-8.20 0.95 0.76
-8.41 0.99 0.72
-8.19 1.01 0.76
-6.21 1.00 1.08
-6.07 1.01 1.10
-5.90 1.00 1.13
-5.92 1.01 1.13
-5.93 1.03 1.13
-5.93 1.04 1.13
-5.86 1.05 1.14
-5.98 1.08 1.12
-5.99 1.10 1.11
-5.97 1.11 1.12
-5.98 1.13 1.11
-5.97 1.15 1.12
-6.01 1.17 1.11
-6.01 1.18 1.11
-6.04 1.21 1.10
-6.00 1.21 1.11
-5.96 1.22 1.11
-10.18 -1.68 0.02
-10.20 -1.65 0.01
-10.19 -1.62 0.02
-10.12 -1.58 0.03
-10.15 -1.56 0.02
-10.16 -1.53 0.02
-10.17 -1.50 0.02
-10.15 -1.46 0.02
-6.10 -0.98 0.71
-10.15 -1.40 0.03
-10.20 -1.38 0.02
-10.00 -1.33 0.05
-10.06 -1.30 0.04
-10.05 -1.27 0.04
-10.02 -1.24 0.05
-10.00 -1.21 0.05
-10.09 -1.18 0.04
-9.72 -1.12 0.10
-9.95 -1.11 0.06
-9.80 -1.07 0.09
-9.87 -1.04 0.08
-9.84 -1.01 0.08
-9.87 -0.98 0.08
-9.86 -0.95 0.08
-9.76 -0.92 0.10
-9.84 -0.89 0.08
-9.84 -0.86 0.08
-9.88 -0.84 0.07
-9.95 -0.81 0.06
-9.77 -0.77 0.09
-9.57 -0.73 0.13
-8.78 -0.65 0.26
-8.28 -0.60 0.34
-7.94 -0.56 0.40
-9.08 -0.59 0.21
-8.48 -0.53 0.31
-7.89 -0.48 0.41
-6.87 -0.41 0.58
-6.23 -0.36 0.69
-7.88 -0.40 0.41
-6.45 -0.33 0.65
-8.74 -0.38 0.27
-8.66 -0.35 0.28
-7.71 -0.30 0.44
-8.59 -0.30 0.29
-8.38 -0.26 0.33
-6.38 -0.19 0.66
-8.33 -0.21 0.34
-7.84 -0.18 0.42
-8.67 -0.16 0.28
-5.59 -0.06 0.80
-5.84 -0.04 0.75
-5.77 -0.02 0.77
-9.42 0.27 0.48
-8.95 0.31 0.57
-8.97 0.35 0.56
-9.01 0.37 0.56
-8.95 0.42 0.56
-9.00 0.44 0.56
-8.97 0.46 0.56
-9.04 0.49 0.55
-9.06 0.51 0.54
-8.80 0.52 0.59
-8.84 0.58 0.58
-8.80 0.60 0.59
-8.95 0.68 0.56
-9.20 0.72 0.52
-9.10 0.74 0.53
-8.01 0.83 0.72
-7.90 0.84 0.74
-7.83 0.85 0.75
-7.94 0.90 0.73
-6.02 1.08 1.06
-6.70 -1.38 0.52
-6.55 -1.34 0.55
-6.66 -1.33 0.53
-6.57 -1.30 0.55
-6.62 -1.28 0.54
-9.59 -1.67 0.01
-6.72 -1.25 0.52
-9.47 -1.59 0.04
-9.51 -1.57 0.03
-9.47 -1.53 0.04
-9.50 -1.51 0.03
-9.52 -1.48 0.03
-9.52 -1.45 0.03
-9.54 -1.42 0.02
-9.52 -1.39 0.03
-9.46 -1.36 0.04
-9.48 -1.33 0.04
-9.46 -1.30 0.04
-9.55 -1.28 0.02
-9.41 -1.24 0.05
-9.45 -1.21 0.04
-9.43 -1.18 0.05
-9.52 -1.16 0.03
-9.48 -1.13 0.04
-9.50 -1.10 0.03
-7.38 -0.88 0.41
-9.41 -1.04 0.05
-9.21 -0.99 0.09
-9.25 -0.96 0.08
-8.06 -0.84 0.29
-7.92 -0.81 0.32
-7.78 -0.77 0.34
-7.68 -0.74 0.36
-9.36 -0.83 0.06
-9.27 -0.80 0.08
-9.30 -0.77 0.07
-9.16 -0.73 0.10
-9.15 -0.70 0.10
-8.90 -0.66 0.14
-8.93 -0.64 0.14
-8.88 -0.61 0.15
-8.64 -0.57 0.19
-8.87 -0.55 0.15
-8.70 -0.52 0.18
-8.35 -0.47 0.24
-8.68 -0.46 0.18
-8.82 -0.44 0.16
-6.60 -0.33 0.55
-6.29 -0.30 0.60
-6.33 -0.28 0.60
-6.37 -0.26 0.59
-6.38 -0.24 0.59
-6.55 -0.22 0.56
-6.99 -0.21 0.48
-8.34 -0.00 0.15
-8.53 0.02 0.11
-8.34 0.05 0.15
-8.55 0.08 0.11
-8.49 0.10 0.12
-8.49 0.13 0.12
-8.57 0.16 0.10
-4.31 0.12 0.89
-4.70 0.14 0.82
-8.42 0.23 0.13
-3.95 0.16 0.96
-4.13 0.18 0.92
-9.75 0.33 0.34
-9.16 0.38 0.45
-9.03 0.42 0.47
-8.95 0.48 0.48
-9.05 0.51 0.47
-8.96 0.52 0.48
-8.83 0.58 0.50
-9.16 0.63 0.44
-9.04 0.64 0.46
-9.02 0.66 0.47
-8.88 0.67 0.49
-9.51 0.74 0.38
-9.23 0.74 0.43
-9.22 0.79 0.43
-9.07 0.80 0.46
-9.17 0.83 0.44
-7.76 0.76 0.70
-7.82 0.83 0.68
-7.73 0.84 0.70
-7.73 0.86 0.70
-6.35 0.97 0.95
-6.15 0.97 0.98
-5.95 0.96 1.02
-6.25 1.02 0.96
-6.00 0.99 1.01
-5.95 1.00 1.02
-6.02 1.03 1.00
-6.02 1.04 1.00
-5.98 1.05 1.01
-5.80 1.04 1.04
-5.93 1.07 1.02
-5.94 1.09 1.01
-6.14 1.14 0.98
-6.02 1.14 1.00
-6.02 1.15 1.00
-5.95 1.16 1.01
-6.00 1.18 1.00
-6.00 1.20 1.00
-5.89 1.19 1.02
-6.04 1.24 0.99
-7.11 -1.46 0.37
-6.51 -1.33 0.48
-7.11 -1.40 0.37
-7.02 -1.34 0.38
-6.93 -1.30 0.40
-8.87 -1.54 0.04
-8.84 -1.51 0.04
-6.63 -1.19 0.46
-8.76 -1.44 0.06
-8.55 -1.39 0.10
-8.85 -1.40 0.05
-8.88 -1.37 0.04
-8.85 -1.34 0.05
-8.80 -1.31 0.06
-8.74 -1.27 0.07
-8.68 -1.24 0.08
-8.92 -1.24 0.03
-8.77 -1.20 0.06
-8.90 -1.18 0.04
-8.85 -1.12 0.05
-8.80 -1.09 0.06
-5.72 -0.78 0.63
-5.51 -0.74 0.67
-8.74 -1.00 0.07
-8.62 -0.97 0.09
-8.77 -0.95 0.07
-8.69 -0.92 0.08
-8.63 -0.89 0.09
-8.56 -0.85 0.10
-8.71 -0.84 0.08
-8.71 -0.81 0.08
-8.45 -0.77 0.13
-8.80 -0.76 0.06
-8.50 -0.72 0.12
-8.78 -0.71 0.06
-8.68 -0.67 0.08
-8.79 -0.65 0.06
-8.73 -0.62 0.07
-8.50 -0.58 0.12
-8.64 -0.57 0.09
-8.58 -0.54 0.10
-8.56 -0.51 0.11
-6.35 -0.39 0.52
-8.51 -0.45 0.12
-7.12 -0.37 0.37
-7.11 -0.35 0.38
-6.47 -0.30 0.49
-6.19 -0.27 0.54
-8.52 -0.32 0.11
-7.27 -0.26 0.35
-7.23 -0.24 0.35
-7.21 -0.21 0.36
-8.32 -0.21 0.15
-8.10 -0.18 0.19
-7.80 -0.15 0.25
-8.30 -0.13 0.15
-8.20 -0.11 0.17
-8.42 -0.08 0.13
-8.41 -0.05 0.13
-8.24 -0.03 0.16
-9.30 0.25 0.34
-8.96 0.35 0.40
-9.17 0.43 0.36
-8.96 0.44 0.40
-9.02 0.46 0.39
-9.02 0.48 0.39
-9.10 0.51 0.37
-9.12 0.54 0.37
-9.16 0.56 0.36
-9.05 0.58 0.38
-9.09 0.60 0.37
-9.17 0.63 0.36
-8.83 0.63 0.42
-8.81 0.67 0.42
-8.92 0.72 0.40
-8.98 0.75 0.39
-6.29 1.16 0.89
-8.41 -1.67 0.02
-8.34 -1.63 0.04
-6.76 -1.35 0.35
-6.51 -1.27 0.40
-6.71 -1.25 0.36
-8.06 -1.38 0.10
-8.10 -1.33 0.09
-8.27 -1.30 0.06
-8.12 -1.23 0.09
-8.02 -1.07 0.11
-8.08 -1.02 0.10
-8.05 -0.97 0.10
-8.02 -0.92 0.11
-8.23 -0.88 0.07
-8.16 -0.83 0.08
-8.19 -0.78 0.08
-8.16 -0.72 0.08
-7.95 -0.66 0.12
-8.00 -0.61 0.12
-8.25 -0.57 0.07
-6.04 -0.42 0.50
-6.30 -0.34 0.45
-10.32 -0.15 0.15
-10.43 -0.13 0.12
-10.52 -0.10 0.11
-10.48 -0.08 0.12
-7.61 -0.00 0.10
-7.64 0.02 0.10
-7.69 0.05 0.09
-3.72 0.05 0.89
-7.67 0.10 0.09
-7.62 0.12 0.10
-4.11 0.10 0.81
-7.62 0.17 0.10
-7.53 0.19 0.12
-7.61 0.22 0.10
-3.77 0.15 0.88
-7.49 0.26 0.13
-3.74 0.18 0.89
-7.55 0.31 0.11
-7.55 0.34 0.11
-7.43 0.36 0.14
-7.40 0.38 0.14
-7.49 0.41 0.12
-7.50 0.43 0.12
-9.81 0.53 0.15
-9.61 0.54 0.19
-8.94 0.52 0.33
-9.73 0.59 0.17
-9.02 0.57 0.31
-9.08 0.60 0.30
-8.88 0.61 0.34
-7.34 0.58 0.65
-7.57 0.61 0.60
-7.82 0.65 0.55
-7.41 0.64 0.63
-7.79 0.69 0.56
-7.83 0.71 0.55
-7.76 0.84 0.56
-7.92 0.90 0.52
-8.21 1.03 0.46
-7.83 1.00 0.54
-7.93 1.04 0.52
-6.33 0.93 0.84
-6.36 0.95 0.83
-6.47 1.00 0.81
-6.12 0.97 0.88
-6.30 1.02 0.84
-5.73 0.95 0.95
-6.40 1.07 0.82
-5.86 1.00 0.93
-5.94 1.03 0.91
-6.16 1.08 0.86
-5.95 1.06 0.91
-6.14 1.11 0.87
-6.14 1.13 0.87
-6.51 1.21 0.79
-5.96 1.13 0.90
-6.09 1.18 0.87
-6.11 1.20 0.87
-8.01 -1.68 0.01
-8.01 -1.65 0.01
-8.02 -1.63 0.01
-7.97 -1.59 0.02
-7.95 -1.57 0.03
-7.95 -1.54 0.03
-7.91 -1.51 0.04
-7.90 -1.48 0.04
-7.87 -1.45 0.05
-7.88 -1.43 0.05
-7.81 -1.39 0.06
-7.71 -1.36 0.08
-7.71 -1.33 0.08
-7.77 -1.32 0.07
-7.51 -1.26 0.12
-7.83 -1.27 0.06
-7.74 -1.24 0.08
-4.84 -0.87 0.67
-6.12 -0.98 0.40
-6.48 -1.00 0.33
-5.11 -0.83 0.61
-5.28 -0.83 0.58
-5.59 -0.84 0.51
-6.27 -0.89 0.38
-6.18 -0.86 0.40
-6.08 -0.83 0.42
-6.30 -0.83 0.37
-6.42 -0.82 0.35
-6.19 -0.78 0.39
-5.88 -0.73 0.46
-7.77 -0.87 0.07
-7.81 -0.85 0.07
-7.73 -0.81 0.08
-7.89 -0.80 0.05
-7.74 -0.77 0.08
-7.88 -0.75 0.05
-7.67 -0.71 0.10
-7.86 -0.70 0.06
-7.82 -0.65 0.06
-7.77 -0.62 0.08
-7.78 -0.60 0.07
-7.81 -0.57 0.07
-7.75 -0.54 0.08
-7.52 -0.51 0.13
-7.54 -0.49 0.12
-6.43 -0.39 0.35
-5.66 -0.34 0.50
-7.66 -0.39 0.10
-7.62 -0.37 0.11
-7.80 -0.35 0.07
-7.60 -0.32 0.11
-5.31 -0.23 0.57
-7.68 -0.27 0.09
-7.37 -0.19 0.15
-7.43 -0.15 0.14
-7.36 -0.12 0.16
-7.46 -0.10 0.14
-7.52 -0.07 0.12
-7.51 -0.05 0.13
-7.54 -0.03 0.12
-8.64 0.25 0.30
-8.79 0.39 0.27
-8.27 0.43 0.38
-7.69 0.42 0.50
-9.43 0.97 0.12
-9.13 1.01 0.18
-7.40 0.94 0.54
-7.49 -1.67 0.01
-7.53 -1.66 0.01
-7.49 -1.63 0.01
-7.50 -1.60 0.01
-7.52 -1.58 0.01
-7.50 -1.55 0.01
-7.48 -1.53 0.02
-7.44 -1.50 0.03
-7.46 -1.47 0.03
-7.41 -1.44 0.04
-7.36 -1.41 0.05
-7.30 -1.38 0.06
-7.38 -1.37 0.04
-7.32 -1.33 0.06
-7.34 -1.31 0.05
-7.28 -1.28 0.07
-7.29 -1.26 0.06
-7.18 -1.22 0.09
-7.24 -1.21 0.08
-7.15 -1.17 0.09
-6.94 -1.12 0.14
-6.92 -1.10 0.15
-6.98 -1.08 0.13
-6.77 -1.04 0.18
-9.43 -0.51 0.14
-6.89 -0.34 0.68
-9.38 -0.44 0.15
-9.34 -0.41 0.16
-9.26 -0.36 0.18
-9.11 -0.31 0.21
-6.78 0.02 0.09
-6.72 0.04 0.10
-8.80 0.17 0.19
-8.62 0.21 0.23
-8.90 0.24 0.16
-8.83 0.26 0.18
-8.87 0.28 0.17
-9.05 0.31 0.13
-8.88 0.32 0.17
-9.02 0.35 0.14
-7.52 0.31 0.47
-8.83 0.39 0.18
-8.56 0.40 0.24
-8.01 0.39 0.36
-8.12 0.42 0.33
-7.52 0.41 0.46
-7.52 0.44 0.46
-7.39 0.45 0.49
-9.01 0.95 0.12
-9.07 0.98 0.11
-7.12 0.86 0.54
-7.19 0.91 0.52
-7.12 0.92 0.54
-7.27 0.96 0.50
-7.10 0.95 0.54
-6.09 0.84 0.76
-6.26 0.89 0.72
-6.48 0.96 0.67
-6.59 0.99 0.65
-6.29 1.01 0.71
-6.51 1.06 0.66
-6.19 1.02 0.73
-6.10 1.03 0.75
-6.26 1.07 0.72
-6.20 1.07 0.73
-6.43 1.13 0.68
-6.03 1.08 0.76
-5.86 1.06 0.80
-5.83 1.07 0.81
-5.93 1.11 0.79
-5.72 1.08 0.83
-5.88 1.13 0.79
-5.75 1.12 0.82
-5.38 1.07 0.90
-5.88 1.17 0.79
-5.94 1.20 0.78
-5.84 1.20 0.80
-5.89 1.22 0.78
-7.10 -1.68 0.01
-7.08 -1.65 0.01
-7.08 -1.63 0.01
-7.11 -1.61 0.01
-7.07 -1.58 0.01
-7.11 -1.56 0.01
-7.05 -1.53 0.02
-7.09 -1.51 0.01
-7.00 -1.45 0.03
-7.04 -1.43 0.02
-6.96 -1.40 0.04
-6.99 -1.38 0.04
-6.99 -1.36 0.04
-6.95 -1.33 0.05
-6.97 -1.31 0.04
-7.01 -1.29 0.03
-6.94 -1.26 0.05
-6.92 -1.23 0.06
-6.79 -1.19 0.08
-6.85 -1.18 0.07
-6.91 -1.16 0.06
-6.59 -1.10 0.13
-6.51 -1.07 0.15
-6.32 -0.98 0.19
-6.13 -0.94 0.23
-6.24 -0.87 0.21
-6.40 -0.86 0.17
-6.06 -0.48 0.25
-6.39 -0.47 0.18
-6.39 -0.45 0.18
-6.50 -0.44 0.15
-6.43 -0.41 0.17
-6.53 -0.39 0.15
-6.62 -0.38 0.13
-6.63 -0.36 0.12
-6.64 -0.33 0.12
-6.57 -0.31 0.14
-6.62 -0.29 0.13
-6.59 -0.27 0.13
-6.66 -0.25 0.12
-6.64 -0.22 0.12
-6.64 -0.20 0.12
-6.54 -0.18 0.15
-6.62 -0.16 0.13
-6.57 -0.13 0.14
-6.67 -0.11 0.12
-6.69 -0.09 0.11
-6.60 -0.07 0.13
-8.55 0.25 0.15
-8.49 0.27 0.16
-8.46 0.77 0.16
-8.57 0.82 0.13
-8.58 0.84 0.13
-8.42 0.85 0.16
-6.65 -1.67 0.01
-6.66 -1.65 0.01
-6.66 -1.62 0.01
-6.64 -1.60 0.01
-6.66 -1.58 0.01
-6.64 -1.55 0.01
-6.65 -1.53 0.01
-6.62 -1.51 0.02
-6.66 -1.49 0.01
-6.65 -1.47 0.01
-6.62 -1.44 0.02
-6.62 -1.42 0.02
-6.62 -1.39 0.02
-6.62 -1.37 0.02
-6.61 -1.35 0.03
-6.57 -1.32 0.04
-6.59 -1.30 0.03
-6.58 -1.28 0.03
-6.60 -1.26 0.03
-6.64 -1.24 0.02
-6.59 -1.21 0.03
-6.55 -1.19 0.04
-6.48 -1.15 0.06
-6.48 -1.13 0.06
-5.96 -0.37 0.19
-5.96 -0.33 0.19
-6.13 -0.27 0.15
-10.69 -0.60 1.79
-10.94 -0.52 1.73
-10.64 -0.35 1.74
-10.73 -0.54 1.69
-10.53 -0.44 1.69
-10.52 -0.38 1.69
-10.52 -0.34 1.69
-11.48 0.20 1.71
-11.52 0.31 1.71
-12.91 0.88 1.65
-10.89 0.03 1.57
-11.12 0.13 1.56
-10.91 0.16 1.57
-12.05 0.38 1.52
-12.15 0.60 1.52
-11.35 0.08 1.62
-11.34 0.11 1.62
-11.42 0.17 1.62
-11.42 0.19 1.62
-11.52 0.22 1.61
-11.40 0.31 1.62
-12.21 0.48 1.58
-12.49 0.52 1.57
-12.67 0.55 1.56
-14.26 0.83 1.48
-12.89 0.82 1.54
-12.84 0.91 1.55
-13.08 0.99 1.54
-10.91 -0.56 1.64
-11.07 -0.54 1.64
-10.83 -0.47 1.65
-11.05 -0.46 1.64
-11.17 -0.41 1.63
-10.85 -0.34 1.65
-10.75 -0.31 1.65
-10.80 -0.29 1.65
-10.83 -0.26 1.65
-10.99 -0.24 1.64
-11.03 -0.21 1.64
-11.03 -0.19 1.64
-11.01 -0.16 1.64
-10.89 -0.13 1.65
-10.84 -0.10 1.65
-10.67 -0.08 1.66
-10.59 -0.00 1.47
-10.66 0.03 1.47
-11.03 0.11 1.59
-12.35 0.48 1.52
-12.95 0.98 1.48
-10.63 0.03 1.56
-10.75 0.05 1.55
-10.81 0.08 1.55
-10.86 0.11 1.54
-10.74 0.16 1.55
-11.20 0.25 1.52
-11.10 0.30 1.53
-10.95 0.32 1.54
-12.58 0.43 1.44
-12.51 0.46 1.45
-12.44 0.48 1.45
-12.46 0.51 1.45
-15.49 1.09 1.27
-13.12 0.99 1.41
-13.83 1.11 1.37
-10.73 -0.10 1.55
-10.97 -0.05 1.54
-11.02 0.00 1.54
-10.79 0.03 1.33
-10.66 0.06 1.34
-10.95 0.10 1.32
-10.77 0.16 1.33
-10.70 0.19 1.34
-10.59 0.25 1.35
-11.45 0.30 1.29
-11.50 0.33 1.29
-14.88 0.47 1.24
-12.04 0.47 1.42
-14.58 0.64 1.26
-15.29 1.11 1.21
-13.88 1.04 1.30
-15.32 1.19 1.21
-15.75 1.30 1.18
-15.69 1.41 1.19
-13.77 -0.94 1.15
-10.72 -0.03 1.34
-10.55 0.03 1.46
-10.75 0.05 1.45
-10.75 0.08 1.45
-10.61 0.10 1.45
-11.14 0.14 1.42
-10.82 0.16 1.44
-14.16 0.24 1.22
-10.98 0.21 1.43
-11.14 0.24 1.42
-11.04 0.27 1.42
-11.42 0.31 1.40
-11.67 0.34 1.38
-11.90 0.38 1.37
-12.35 0.42 1.34
-12.26 0.45 1.34
-12.09 0.47 1.35
-12.20 0.50 1.35
-12.30 0.54 1.34
-10.62 0.49 1.45
-11.86 0.61 1.37
-10.71 0.63 1.44
-15.45 0.97 1.13
-14.64 0.96 1.18
-15.12 1.03 1.15
-15.59 1.10 1.12
-15.16 1.10 1.14
-15.34 1.15 1.13
-15.46 1.20 1.12
-15.59 1.25 1.11
-15.55 1.28 1.12
-15.66 1.33 1.11
-15.62 1.36 1.11
-15.86 1.58 1.09
-14.03 -1.07 1.05
-13.95 -1.03 1.05
-13.87 -0.98 1.06
-13.74 -0.94 1.07
-10.87 -0.37 1.44
-10.84 -0.32 1.44
-10.86 -0.29 1.44
-10.85 -0.26 1.44
-10.84 -0.24 1.44
-10.88 -0.21 1.44
-10.76 -0.18 1.45
-10.87 -0.16 1.44
-11.16 -0.14 1.42
-10.78 -0.10 1.44
-10.62 -0.05 1.45
-10.70 -0.03 1.45
-10.65 0.00 1.45
-10.71 0.06 1.20
-10.64 0.09 1.21
-10.77 0.22 1.19
-10.93 0.29 1.18
-10.59 0.31 1.21
-11.99 0.49 1.10
-13.88 0.67 0.96
-11.90 0.62 1.11
-11.95 0.66 1.11
-12.57 0.70 1.25
-15.55 0.98 1.04
-15.12 0.99 1.07
-15.23 1.07 1.06
-15.35 1.12 1.05
-15.41 1.16 1.04
-15.43 1.20 1.04
-15.33 1.22 1.05
