# .PCD v0.7 - Point Cloud Data file format
VERSION 0.7
FIELDS x y z
SIZE 4 4 4
TYPE F F F
COUNT 1 1 1
WIDTH 2878
HEIGHT 1
VIEWPOINT 0 0 0 1 0 0 0
POINTS 2878
DATA ASCII
-8.69 0.43 1.33
-8.73 0.45 1.32
-8.32 0.45 1.36
-8.02 0.46 1.39
-7.99 0.47 1.39
-8.09 0.52 1.38
-8.04 0.54 1.39
-8.13 0.56 1.38
-7.88 0.58 1.40
-8.02 0.61 1.39
-7.93 0.63 1.40
-7.96 0.67 1.39
-8.07 0.70 1.38
-8.13 0.72 1.38
-8.23 0.77 1.37
-8.72 0.84 1.32
-8.82 0.89 1.31
-8.82 0.91 1.31
-8.89 0.94 1.30
-8.94 0.97 1.30
-5.14 -0.93 1.44
-5.17 -0.91 1.44
-5.14 -0.89 1.44
-5.05 -0.86 1.45
-4.95 -0.83 1.46
-4.80 -0.80 1.47
-4.83 -0.78 1.47
-4.92 -0.78 1.46
-4.94 -0.76 1.46
-4.90 -0.74 1.46
-4.83 -0.71 1.47
-4.79 -0.69 1.47
-4.84 -0.68 1.47
-4.96 -0.67 1.46
-5.41 -0.69 1.42
-4.88 -0.63 1.47
-5.15 -0.63 1.44
-5.26 -0.62 1.43
-5.15 -0.60 1.44
-5.19 -0.58 1.44
-5.15 -0.56 1.44
-5.25 -0.55 1.43
-5.21 -0.52 1.44
-5.38 -0.52 1.42
-5.15 -0.48 1.44
-5.22 -0.47 1.43
-5.05 -0.44 1.45
-5.12 -0.43 1.44
-5.18 -0.41 1.44
-5.13 -0.39 1.44
-5.18 -0.37 1.44
-5.45 -0.37 1.41
-5.20 -0.34 1.44
-6.12 -0.36 1.35
-5.51 -0.31 1.41
-5.28 -0.29 1.43
-5.23 -0.27 1.43
-5.23 -0.25 1.43
-5.09 -0.22 1.45
-9.31 -0.32 1.04
-9.62 -0.30 1.01
-5.14 -0.17 1.44
-9.10 -0.23 1.06
-9.02 -0.20 1.07
-9.09 -0.17 1.07
-8.89 -0.14 1.08
-8.80 -0.11 1.09
-8.67 -0.09 1.10
-8.80 -0.06 1.09
-8.91 -0.03 1.08
-10.29 0.08 1.11
-10.38 0.11 1.10
-10.29 0.13 1.11
-9.41 0.14 1.20
-9.47 0.17 1.19
-9.28 0.21 1.21
-9.42 0.23 1.20
-9.06 0.25 1.23
-9.37 0.28 1.20
-9.02 0.29 1.24
-9.06 0.31 1.23
-8.95 0.33 1.24
-8.96 0.35 1.24
-8.87 0.37 1.25
-8.88 0.39 1.25
-8.78 0.41 1.26
-8.45 0.42 1.29
-8.30 0.43 1.31
-7.97 0.43 1.34
-7.90 0.45 1.35
-7.74 0.46 1.36
-8.05 0.50 1.33
-7.97 0.51 1.34
-7.90 0.53 1.35
-7.82 0.54 1.35
-7.98 0.57 1.34
-7.95 0.59 1.34
-7.88 0.61 1.35
-8.04 0.64 1.33
-8.04 0.66 1.33
-7.84 0.66 1.35
-7.69 0.67 1.37
-7.65 0.68 1.37
-7.86 0.72 1.35
-7.88 0.74 1.35
-7.93 0.77 1.34
-7.97 0.79 1.34
-8.71 0.88 1.26
-8.67 0.90 1.26
-8.52 0.91 1.28
-9.06 0.98 1.22
-8.84 0.98 1.25
-9.05 1.03 1.22
-8.96 1.04 1.23
-8.98 1.07 1.23
-8.99 1.09 1.23
-8.91 1.10 1.24
-8.76 1.11 1.25
-8.90 1.15 1.24
-8.90 1.17 1.24
-8.20 1.22 1.30
-3.14 -0.79 1.59
-5.29 -1.01 1.37
-5.15 -0.97 1.39
-5.23 -0.96 1.38
-5.25 -0.94 1.38
-5.16 -0.91 1.39
-2.57 -0.60 1.65
-2.76 -0.61 1.63
-4.90 -0.83 1.41
-4.72 -0.79 1.43
-4.90 -0.79 1.41
-4.79 -0.76 1.43
-4.79 -0.75 1.42
-4.84 -0.73 1.42
-4.87 -0.72 1.42
-4.81 -0.70 1.42
-4.74 -0.67 1.43
-4.80 -0.66 1.42
-4.71 -0.63 1.43
-4.79 -0.62 1.42
-4.86 -0.61 1.42
-5.29 -0.63 1.38
-4.97 -0.56 1.41
-4.90 -0.54 1.41
-5.03 -0.53 1.40
-5.08 -0.52 1.40
-4.98 -0.49 1.41
-4.97 -0.47 1.41
-5.16 -0.47 1.39
-5.00 -0.42 1.40
-4.93 -0.40 1.41
-4.97 -0.38 1.41
-4.90 -0.36 1.41
-4.92 -0.35 1.41
-5.04 -0.33 1.40
-4.91 -0.31 1.41
-5.00 -0.28 1.40
-10.51 -0.33 1.09
-10.06 -0.27 1.13
-9.87 -0.24 1.15
-9.52 -0.20 1.19
-9.38 -0.18 1.20
-9.65 -0.16 1.18
-9.74 -0.14 1.17
-9.42 -0.11 1.20
-6.10 -0.06 1.54
-6.02 -0.04 1.54
-9.62 -0.04 1.18
-9.95 -0.02 1.14
-10.30 0.00 1.11
-8.73 -0.00 0.95
-9.90 0.02 0.82
-6.12 0.04 1.23
-8.67 0.08 0.96
-10.22 0.12 0.79
-6.71 0.13 1.17
-6.54 0.15 1.19
-10.49 0.24 0.76
-6.87 0.20 1.15
-6.55 0.21 1.19
-6.43 0.23 1.20
-6.51 0.28 1.19
-6.94 0.32 1.14
-8.16 0.38 1.01
-7.55 0.38 1.08
-8.02 0.43 1.03
-7.86 0.45 1.04
-7.94 0.47 1.03
-8.74 0.47 1.21
-8.56 0.49 1.23
-8.24 0.49 1.26
-8.45 0.54 1.24
-8.24 0.55 1.26
-8.34 0.58 1.25
-8.33 0.62 1.25
-8.48 0.65 1.23
-8.06 0.64 1.28
-8.43 0.71 1.24
-9.00 0.80 1.17
-9.02 0.84 1.17
-9.02 0.87 1.17
-8.95 0.88 1.18
-7.42 0.77 1.34
-8.42 0.89 1.23
-5.40 -0.96 1.31
-5.20 -0.92 1.33
-5.14 -0.89 1.34
-5.43 -0.90 1.31
-4.87 -0.82 1.37
-5.09 -0.83 1.35
-5.11 -0.81 1.34
-5.04 -0.79 1.35
-10.47 -1.31 0.76
-5.22 -0.77 1.33
-4.85 -0.71 1.37
-5.00 -0.71 1.36
-5.02 -0.69 1.35
-5.05 -0.68 1.35
-4.89 -0.65 1.37
-5.04 -0.64 1.35
-5.04 -0.62 1.35
-5.36 -0.63 1.32
-5.60 -0.63 1.29
-5.38 -0.59 1.32
-5.77 -0.60 1.27
-5.42 -0.56 1.31
-5.71 -0.56 1.28
-5.30 -0.51 1.32
-6.02 -0.54 1.25
-5.54 -0.49 1.30
-5.89 -0.49 1.26
-5.64 -0.46 1.29
-5.77 -0.44 1.27
-4.71 -0.37 1.39
-5.07 -0.37 1.35
-5.18 -0.36 1.34
-5.11 -0.33 1.34
-5.06 -0.31 1.35
-5.06 -0.30 1.35
-5.00 -0.27 1.36
-9.30 -0.40 0.89
-5.16 -0.24 1.34
-9.01 -0.34 0.92
-4.93 -0.20 1.36
-5.06 -0.19 1.35
-8.90 -0.25 0.93
-8.93 -0.22 0.93
-8.50 -0.19 0.98
-9.06 -0.17 0.92
-8.67 -0.14 0.96
-8.54 -0.11 0.97
-8.69 -0.09 0.96
-8.52 -0.06 0.97
-8.62 -0.03 0.96
-9.64 0.03 1.04
-10.09 0.05 0.99
-10.38 0.08 0.96
-10.36 0.10 0.96
-10.54 0.13 0.94
-10.41 0.18 0.95
-9.41 0.19 1.07
-9.23 0.21 1.09
-9.12 0.23 1.10
-9.12 0.25 1.10
-9.06 0.27 1.11
-8.80 0.28 1.14
-8.58 0.30 1.16
-8.57 0.32 1.16
-8.55 0.34 1.17
-8.57 0.36 1.16
-7.71 0.34 1.26
-8.66 0.41 1.15
-8.62 0.43 1.16
-8.59 0.45 1.16
-8.34 0.45 1.19
-8.53 0.48 1.17
-8.34 0.50 1.19
-8.54 0.53 1.16
-8.04 0.52 1.22
-8.24 0.55 1.20
-8.30 0.58 1.19
-8.12 0.58 1.21
-7.90 0.59 1.24
-7.75 0.60 1.25
-7.98 0.63 1.23
-7.70 0.63 1.26
-7.73 0.65 1.25
-7.46 0.65 1.29
-6.96 0.62 1.34
-7.14 0.66 1.32
-7.43 0.70 1.29
-7.80 0.76 1.25
-8.29 0.82 1.19
-7.58 0.77 1.27
-7.86 0.82 1.24
-7.97 0.85 1.22
-7.87 0.86 1.23
-7.75 0.87 1.25
-7.46 0.85 1.28
-8.79 1.02 1.13
-7.16 0.86 1.32
-7.28 0.89 1.30
-7.31 0.91 1.30
-8.84 1.12 1.12
-8.69 1.12 1.14
-9.00 1.20 1.10
-9.06 1.24 1.09
-8.88 1.23 1.11
-8.97 1.27 1.10
-9.07 1.30 1.09
-5.28 -1.14 1.27
-5.30 -1.12 1.26
-5.30 -1.10 1.26
-3.02 -0.77 1.53
-3.14 -0.78 1.51
-3.12 -0.76 1.52
-3.07 -0.74 1.52
-2.89 -0.69 1.54
-2.82 -0.67 1.55
-2.94 -0.67 1.54
-2.91 -0.65 1.54
-2.75 -0.62 1.56
-4.92 -0.85 1.31
-5.24 -0.87 1.27
-5.23 -0.83 1.27
-2.57 -0.54 1.58
-2.89 -0.56 1.54
-5.10 -0.76 1.29
-5.01 -0.73 1.30
-4.83 -0.70 1.32
-4.82 -0.68 1.32
-4.83 -0.64 1.32
-4.90 -0.63 1.31
-4.93 -0.62 1.31
-4.90 -0.60 1.31
-4.80 -0.57 1.32
-4.97 -0.57 1.30
-5.05 -0.55 1.29
-5.02 -0.51 1.30
-5.84 -0.55 1.20
-5.98 -0.54 1.19
-5.89 -0.51 1.20
-6.08 -0.50 1.18
-5.92 -0.47 1.20
-6.82 -0.35 1.37
-7.02 -0.34 1.35
-10.38 -0.48 0.96
-10.39 -0.45 0.96
-10.34 -0.42 0.96
-10.06 -0.39 1.00
-9.74 -0.35 1.03
-9.63 -0.33 1.04
-9.72 -0.30 1.04
-9.62 -0.28 1.05
-9.84 -0.26 1.02
-9.60 -0.23 1.05
-6.41 -0.14 1.42
-9.70 -0.19 1.04
-10.27 -0.17 0.97
-6.12 -0.09 1.45
-10.59 -0.13 0.93
-9.47 -0.04 1.06
-10.31 -0.02 0.97
-9.85 0.00 1.02
-5.88 -0.00 1.14
-8.72 0.02 0.80
-6.75 0.04 1.04
-9.77 0.12 0.96
-10.38 0.16 0.89
-9.99 0.17 0.93
-10.30 0.20 0.90
-9.20 0.21 1.03
-9.10 0.23 1.04
-8.94 0.24 1.06
-8.85 0.26 1.07
-8.78 0.28 1.08
-8.64 0.30 1.10
-8.60 0.32 1.10
-8.48 0.34 1.12
-8.41 0.35 1.13
-8.57 0.38 1.11
-8.55 0.40 1.11
-8.72 0.43 1.09
-7.92 0.41 1.18
-8.48 0.46 1.12
-8.32 0.47 1.13
-8.65 0.51 1.09
-8.34 0.51 1.13
-8.38 0.54 1.13
-8.21 0.55 1.15
-7.86 0.54 1.19
-7.98 0.57 1.17
-7.91 0.59 1.18
-7.99 0.61 1.17
-8.30 0.66 1.13
-8.15 0.66 1.15
-8.65 0.72 1.09
-7.55 0.65 1.22
-7.59 0.68 1.22
-7.61 0.70 1.22
-7.72 0.73 1.20
-7.59 0.73 1.22
-7.69 0.76 1.21
-8.93 0.90 1.05
-7.88 0.82 1.18
-7.75 0.83 1.20
-7.93 0.86 1.17
-8.15 0.91 1.15
-8.75 0.99 1.07
-8.73 1.01 1.08
-8.80 1.04 1.07
-8.92 1.08 1.05
-9.00 1.11 1.04
-8.87 1.12 1.06
-8.81 1.13 1.06
-8.82 1.16 1.06
-9.04 1.21 1.03
-8.90 1.21 1.05
-8.91 1.24 1.05
-8.94 1.26 1.04
-8.94 1.28 1.04
-9.05 1.32 1.03
-8.27 1.27 1.12
-5.30 -1.18 1.21
-5.27 -1.15 1.21
-5.45 -1.16 1.19
-5.46 -1.14 1.19
-5.37 -1.11 1.20
-3.24 -0.80 1.46
-3.11 -0.77 1.48
-2.98 -0.74 1.50
-3.05 -0.73 1.49
-3.05 -0.72 1.49
-3.02 -0.70 1.49
-3.13 -0.70 1.48
-2.99 -0.67 1.50
-2.91 -0.65 1.50
-2.99 -0.65 1.50
-2.90 -0.62 1.51
-2.92 -0.61 1.50
-2.61 -0.56 1.54
-2.81 -0.57 1.52
-6.22 -0.91 1.10
-3.00 -0.57 1.50
-5.24 -0.77 1.22
-5.23 -0.75 1.22
-3.04 -0.53 1.49
-5.40 -0.73 1.20
-4.95 -0.67 1.26
-5.03 -0.66 1.25
-4.99 -0.64 1.25
-4.91 -0.61 1.26
-4.88 -0.59 1.27
-5.01 -0.58 1.25
-5.05 -0.57 1.25
-5.01 -0.55 1.25
-5.09 -0.54 1.24
-5.14 -0.52 1.24
-5.33 -0.51 1.21
-5.11 -0.48 1.24
-5.62 -0.49 1.18
-5.31 -0.46 1.21
-5.47 -0.45 1.19
-5.67 -0.44 1.17
-5.57 -0.41 1.18
-5.48 -0.39 1.19
-5.31 -0.36 1.21
-5.38 -0.35 1.21
-5.46 -0.33 1.20
-5.52 -0.31 1.19
-5.41 -0.29 1.20
-5.70 -0.28 1.17
-5.58 -0.26 1.18
-5.59 -0.24 1.18
-5.25 -0.21 1.22
-5.36 -0.19 1.21
-5.18 -0.17 1.23
-5.37 -0.16 1.21
-5.30 -0.14 1.21
-5.14 -0.11 1.23
-5.97 -0.11 1.13
-5.55 -0.08 1.18
-5.56 -0.06 1.18
-5.88 -0.04 1.14
-5.51 -0.02 1.19
-5.41 0.02 1.45
-9.30 0.05 0.95
-9.26 0.07 0.96
-9.67 0.10 0.90
-5.52 0.07 1.44
-5.53 0.08 1.44
-9.66 0.17 0.90
-9.36 0.19 0.94
-5.57 0.13 1.43
-9.00 0.22 0.99
-8.95 0.24 0.99
-8.92 0.26 1.00
-8.77 0.28 1.02
-8.73 0.30 1.02
-8.70 0.32 1.02
-8.54 0.34 1.04
-8.53 0.36 1.05
-8.53 0.38 1.05
-7.86 0.37 1.13
-7.64 0.38 1.16
-7.78 0.40 1.14
-8.20 0.45 1.09
-7.85 0.45 1.13
-7.84 0.47 1.13
-8.09 0.50 1.10
-8.11 0.52 1.10
-7.94 0.53 1.12
-8.30 0.57 1.07
-7.45 0.54 1.18
-7.55 0.56 1.17
-7.20 0.55 1.21
-7.61 0.60 1.16
-7.73 0.63 1.14
-7.14 0.60 1.22
-6.79 0.59 1.26
-6.86 0.61 1.26
-7.33 0.67 1.19
-6.83 0.65 1.26
-7.00 0.68 1.24
-7.78 0.77 1.13
-7.00 0.71 1.24
-7.54 0.79 1.17
-8.04 0.86 1.10
-8.41 0.92 1.05
-8.67 0.96 1.02
-8.55 0.97 1.03
-8.60 1.00 1.03
-8.84 1.05 0.99
-8.80 1.07 1.00
-8.79 1.09 1.00
-8.84 1.11 0.99
-8.87 1.14 0.99
-8.89 1.17 0.98
-9.16 1.22 0.95
-8.73 1.19 1.00
-8.76 1.21 1.00
-8.70 1.23 1.01
-8.72 1.25 1.00
-8.77 1.28 1.00
-9.04 1.34 0.96
-8.71 1.32 1.00
-8.55 1.32 1.03
-8.68 1.36 1.01
-8.20 1.35 1.07
-5.18 -1.29 1.17
-5.34 -1.28 1.15
-5.14 -1.23 1.17
-5.32 -1.24 1.15
-5.28 -1.21 1.16
-5.26 -1.19 1.16
-5.38 -1.17 1.14
-5.31 -1.14 1.15
-3.19 -0.82 1.43
-3.13 -0.80 1.44
-3.10 -0.78 1.44
-3.08 -0.77 1.44
-3.07 -0.75 1.44
-2.98 -0.71 1.45
-2.96 -0.70 1.46
-3.00 -0.69 1.45
-2.94 -0.67 1.46
-3.03 -0.66 1.45
-2.98 -0.64 1.46
-3.00 -0.63 1.45
-2.88 -0.59 1.47
-2.90 -0.58 1.47
-5.31 -0.82 1.16
-5.52 -0.82 1.13
-5.59 -0.81 1.12
-5.39 -0.77 1.14
-5.08 -0.72 1.18
-5.09 -0.68 1.18
-5.08 -0.67 1.18
-4.96 -0.64 1.20
-4.93 -0.62 1.21
-4.89 -0.59 1.21
-4.98 -0.58 1.20
-5.56 -0.61 1.12
-5.46 -0.56 1.14
-4.91 -0.51 1.21
-5.23 -0.51 1.17
-5.00 -0.48 1.20
-4.94 -0.45 1.20
-5.46 -0.47 1.14
-5.41 -0.44 1.14
-5.55 -0.41 1.12
-5.15 -0.37 1.18
-5.17 -0.36 1.17
-5.13 -0.34 1.18
-4.99 -0.31 1.20
-5.19 -0.30 1.17
-5.64 -0.30 1.11
-5.22 -0.25 1.17
-5.25 -0.23 1.16
-5.50 -0.22 1.13
-5.05 -0.19 1.19
-5.34 -0.17 1.15
-5.23 -0.15 1.17
-5.20 -0.13 1.17
-5.65 -0.07 1.42
-5.75 -0.05 1.41
-5.63 -0.04 1.42
-5.46 -0.02 1.45
-5.29 -0.01 1.47
-5.29 0.00 1.47
-5.60 -0.00 1.06
-5.41 0.02 1.08
-5.71 0.04 1.04
-5.91 0.06 1.02
-5.61 0.07 1.06
-5.81 0.10 1.03
-5.90 0.12 1.02
-6.07 0.14 0.99
-6.20 0.16 0.98
-7.34 0.21 0.82
-6.70 0.22 0.91
-7.07 0.25 0.86
-8.65 0.28 0.97
-8.72 0.30 0.96
-8.83 0.33 0.94
-6.65 0.27 1.24
-7.99 0.34 1.06
-7.06 0.32 1.18
-7.89 0.37 1.07
-7.46 0.37 1.13
-7.66 0.40 1.10
-7.37 0.40 1.14
-7.55 0.43 1.12
-7.78 0.46 1.08
-8.55 0.53 0.98
-7.71 0.50 1.09
-7.00 0.47 1.19
-7.25 0.50 1.16
-7.13 0.51 1.17
-7.00 0.52 1.19
-7.59 0.58 1.11
-6.76 0.54 1.22
-7.48 0.61 1.12
-7.27 0.61 1.15
-6.80 0.59 1.21
-6.67 0.60 1.23
-7.35 0.67 1.14
-6.97 0.66 1.19
-6.86 0.66 1.21
-6.80 0.68 1.21
-7.54 0.77 1.11
-9.02 0.93 0.91
-8.85 0.94 0.93
-8.59 0.93 0.97
-8.80 0.98 0.94
-8.95 1.01 0.92
-8.85 1.03 0.93
-9.03 1.07 0.90
-8.72 1.05 0.95
-8.81 1.09 0.93
-8.81 1.11 0.93
-8.78 1.13 0.93
-8.66 1.13 0.95
-8.71 1.16 0.94
-8.74 1.19 0.94
-8.75 1.21 0.94
-8.80 1.24 0.93
-8.70 1.25 0.94
-8.87 1.29 0.92
-8.73 1.30 0.94
-8.81 1.33 0.93
-8.79 1.35 0.93
-8.75 1.37 0.93
-8.52 1.35 0.97
-8.27 1.33 1.00
-5.38 -1.26 1.08
-5.37 -1.24 1.09
-5.21 -1.20 1.11
-5.14 -1.17 1.12
-5.25 -1.17 1.10
-5.38 -1.17 1.09
-3.12 -0.82 1.40
-3.03 -0.80 1.41
-3.05 -0.79 1.41
-3.07 -0.77 1.40
-2.88 -0.74 1.43
-2.99 -0.74 1.41
-2.80 -0.70 1.44
-2.76 -0.68 1.45
-2.66 -0.66 1.46
-2.65 -0.64 1.46
-2.72 -0.64 1.45
-2.95 -0.65 1.42
-2.91 -0.63 1.43
-2.92 -0.62 1.42
-2.90 -0.61 1.43
-2.81 -0.58 1.44
-2.79 -0.57 1.44
-5.84 -0.87 1.03
-2.74 -0.54 1.45
-5.76 -0.82 1.04
-6.12 -0.84 0.99
-2.82 -0.51 1.44
-5.45 -0.73 1.08
-5.11 -0.68 1.13
-4.99 -0.66 1.14
-5.27 -0.66 1.10
-5.29 -0.64 1.10
-5.28 -0.62 1.10
-5.04 -0.59 1.14
-5.67 -0.62 1.05
-5.88 -0.61 1.02
-5.39 -0.56 1.09
-5.21 -0.53 1.11
-5.21 -0.51 1.11
-5.16 -0.49 1.12
-5.39 -0.48 1.09
-5.49 -0.47 1.08
-5.29 -0.44 1.10
-5.39 -0.42 1.09
-5.23 -0.40 1.11
-5.30 -0.38 1.10
-5.20 -0.36 1.12
-5.19 -0.34 1.12
-5.43 -0.33 1.08
-5.51 -0.31 1.07
-5.38 -0.29 1.09
-5.26 -0.27 1.11
-5.55 -0.26 1.07
-5.78 -0.24 1.04
-5.29 -0.21 1.10
-5.24 -0.19 1.11
-5.17 -0.17 1.12
-5.17 -0.15 1.12
-5.27 -0.14 1.11
-5.27 -0.12 1.10
-5.48 -0.10 1.08
-5.34 -0.08 1.09
-5.68 -0.06 1.05
-5.57 -0.04 1.06
-5.70 -0.02 1.05
-5.90 0.02 1.30
-5.94 0.03 1.29
-6.05 0.05 1.27
-6.00 0.08 1.28
-8.90 0.16 0.86
-6.32 0.14 1.24
-6.21 0.16 1.25
-6.66 0.18 1.18
-6.53 0.21 1.20
-6.45 0.24 1.21
-6.36 0.27 1.23
-6.77 0.30 1.17
-7.81 0.37 1.02
-7.54 0.39 1.06
-7.20 0.41 1.10
-7.52 0.45 1.06
-7.60 0.47 1.04
-6.99 0.45 1.13
-7.12 0.48 1.11
-6.72 0.47 1.17
-6.91 0.50 1.14
-7.16 0.53 1.11
-6.56 0.51 1.19
-7.74 0.61 1.02
-7.59 0.62 1.04
-7.59 0.64 1.04
-7.01 0.61 1.13
-6.61 0.61 1.18
-6.79 0.66 1.16
-6.93 0.69 1.14
-7.29 0.74 1.08
-7.11 0.74 1.11
-7.95 0.85 0.99
-8.54 0.93 0.90
-8.55 0.95 0.90
-8.26 0.94 0.94
-8.60 1.00 0.89
-8.88 1.05 0.85
-8.59 1.04 0.89
-8.54 1.06 0.90
-8.58 1.08 0.89
-5.60 0.75 1.32
-5.51 0.77 1.34
-5.49 0.79 1.34
-5.53 0.81 1.33
-8.66 1.27 0.88
-8.70 1.32 0.87
-8.66 1.33 0.87
-8.77 1.37 0.86
-9.04 1.46 0.82
-8.73 1.43 0.86
-5.22 -1.28 1.04
-5.21 -1.26 1.04
-3.14 -0.91 1.34
-5.11 -1.21 1.06
-2.85 -0.84 1.39
-2.65 -0.80 1.42
-5.22 -1.17 1.04
-2.91 -0.81 1.38
-2.99 -0.81 1.37
-3.06 -0.80 1.36
-3.09 -0.79 1.35
-3.11 -0.78 1.35
-2.96 -0.75 1.37
-2.96 -0.74 1.37
-2.98 -0.73 1.37
-2.98 -0.71 1.37
-2.97 -0.70 1.37
-3.46 -0.75 1.30
-3.10 -0.69 1.35
-2.93 -0.65 1.38
-2.86 -0.63 1.39
-2.93 -0.63 1.38
-2.94 -0.61 1.38
-2.94 -0.60 1.38
-3.10 -0.60 1.35
-6.15 -0.90 0.91
-6.18 -0.89 0.91
-3.16 -0.57 1.34
-2.89 -0.53 1.38
-2.65 -0.49 1.42
-2.71 -0.49 1.41
-4.84 -0.66 1.10
-2.47 -0.44 1.44
-4.84 -0.63 1.10
-5.23 -0.64 1.05
-5.09 -0.61 1.07
-2.61 -0.40 1.43
-5.41 -0.60 1.02
-5.12 -0.56 1.06
-5.15 -0.54 1.06
-5.20 -0.53 1.05
-5.04 -0.50 1.08
-5.29 -0.49 1.04
-5.24 -0.47 1.05
-5.35 -0.46 1.03
-5.33 -0.44 1.03
-5.54 -0.43 1.00
-5.27 -0.40 1.04
-5.41 -0.39 1.02
-6.08 -0.40 0.93
-5.82 -0.37 0.96
-5.51 -0.33 1.01
-5.33 -0.31 1.03
-5.23 -0.29 1.05
-7.00 -0.22 1.14
-9.52 -0.25 0.78
-5.43 -0.12 1.37
-5.73 -0.10 1.32
-5.65 -0.08 1.33
-5.85 -0.07 1.30
-5.88 -0.04 1.30
-6.12 -0.01 1.27
-5.73 0.02 0.91
-8.31 0.05 0.52
-8.14 0.07 0.55
-8.20 0.10 0.54
-8.14 0.15 0.55
-8.84 0.19 0.44
-7.66 0.22 0.62
-7.36 0.23 0.66
-7.37 0.26 0.66
-7.81 0.29 0.60
-7.45 0.31 0.65
-7.16 0.32 0.69
-6.90 0.34 0.73
-6.66 0.35 0.77
-7.38 0.40 0.66
-7.29 0.42 0.67
-7.50 0.45 0.64
-7.73 0.40 0.97
-7.96 0.43 0.93
-7.49 0.43 1.01
-7.44 0.44 1.01
-7.48 0.46 1.01
-7.16 0.46 1.06
-6.62 0.44 1.14
-9.29 0.64 0.73
-6.85 0.49 1.10
-10.30 0.78 0.58
-9.89 0.82 0.64
-9.75 0.84 0.66
-9.83 0.87 0.65
-9.73 0.88 0.66
-9.02 1.04 0.76
-8.83 1.04 0.79
-9.06 1.09 0.75
-9.00 1.11 0.76
-8.12 1.02 0.90
-9.26 1.19 0.72
-8.99 1.17 0.76
-8.98 1.20 0.76
-8.86 1.22 0.78
-9.03 1.27 0.75
-8.85 1.29 0.78
-8.79 1.30 0.79
-8.70 1.31 0.80
-8.80 1.35 0.79
-8.96 1.40 0.76
-6.36 -1.12 0.81
-6.20 -1.08 0.84
-6.39 -1.08 0.81
-2.83 -0.64 1.35
-6.86 -1.09 0.74
-2.68 -0.58 1.38
-6.80 -1.01 0.75
-6.60 -0.97 0.78
-6.66 -0.95 0.77
-6.76 -0.94 0.76
-6.69 -0.91 0.77
-6.52 -0.87 0.79
-7.04 -0.90 0.72
-6.14 -0.80 0.85
-5.60 -0.73 0.93
-5.83 -0.73 0.90
-5.55 -0.68 0.94
-5.35 -0.63 0.97
-2.18 -0.34 1.45
-6.01 -0.60 0.87
-5.68 -0.56 0.92
-9.47 -0.78 0.35
-5.56 -0.51 0.94
-5.27 -0.47 0.98
-5.49 -0.47 0.95
-5.63 -0.46 0.93
-8.57 -0.59 0.48
-5.72 -0.42 0.92
-5.74 -0.38 0.91
-8.13 -0.47 0.55
-5.21 -0.28 0.99
-8.95 -0.39 0.43
-5.71 -0.26 0.92
-5.38 -0.23 0.97
-8.47 -0.30 0.50
-5.73 -0.20 0.91
-8.73 -0.25 0.46
-8.45 -0.22 0.50
-5.32 -0.14 0.98
-8.24 -0.16 0.53
-8.23 -0.13 0.53
-5.00 -0.08 1.02
-8.07 -0.08 0.56
-8.27 -0.06 0.53
-8.38 -0.03 0.51
-5.84 0.02 1.21
-5.84 0.03 1.21
-5.98 0.05 1.19
-5.93 0.06 1.20
-5.84 0.07 1.21
-5.89 0.09 1.20
-8.96 0.16 0.71
-6.12 0.12 1.16
-6.12 0.14 1.16
-6.13 0.17 1.16
-6.15 0.19 1.16
-8.77 0.28 0.74
-8.67 0.30 0.75
-6.60 0.25 1.08
-8.70 0.34 0.75
-7.70 0.32 0.91
-7.96 0.35 0.87
-7.97 0.37 0.87
-8.10 0.40 0.84
-8.43 0.44 0.79
-7.82 0.43 0.89
-7.21 0.41 0.98
-7.55 0.45 0.93
-7.52 0.47 0.94
-7.26 0.47 0.98
-7.17 0.48 0.99
-7.07 0.49 1.00
-6.72 0.49 1.06
-7.49 0.56 0.94
-6.70 0.52 1.06
-7.03 0.56 1.01
-6.90 0.57 1.03
-6.81 0.58 1.05
-6.79 0.59 1.05
-6.91 0.62 1.03
-6.97 0.64 1.02
-7.09 0.67 1.00
-6.97 0.68 1.02
-7.11 0.71 0.99
-7.16 0.73 0.99
-7.28 0.76 0.97
-7.77 0.83 0.89
-8.35 0.91 0.79
-7.38 0.83 0.95
-7.88 0.90 0.87
-8.05 0.94 0.84
-8.37 1.00 0.79
-8.87 1.07 0.71
-8.14 1.01 0.82
-8.71 1.10 0.73
-9.33 1.20 0.63
-9.26 1.21 0.64
-9.15 1.22 0.66
-9.61 1.31 0.58
-8.77 1.22 0.72
-9.13 1.29 0.66
-8.96 1.29 0.69
-8.97 1.31 0.68
-8.33 1.24 0.79
-8.35 1.27 0.78
-8.57 1.32 0.75
-8.77 1.37 0.71
-8.84 1.41 0.70
-8.83 1.43 0.70
-8.90 1.46 0.69
-8.78 1.46 0.71
-8.93 1.51 0.69
-5.08 -1.30 0.94
-4.96 -1.26 0.96
-4.95 -1.24 0.96
-4.95 -1.22 0.96
-5.09 -1.22 0.94
-4.98 -1.19 0.96
-5.31 -1.22 0.91
-5.64 -1.23 0.85
-5.62 -1.21 0.86
-5.76 -1.21 0.83
-5.56 -1.16 0.87
-5.46 -1.12 0.88
-2.95 -0.76 1.29
-3.20 -0.78 1.25
-5.82 -1.12 0.83
-6.10 -1.13 0.78
-3.41 -0.77 1.21
-6.14 -1.09 0.78
-3.33 -0.73 1.23
-3.31 -0.71 1.23
-3.25 -0.69 1.24
-3.10 -0.66 1.26
-2.98 -0.63 1.28
-2.95 -0.62 1.29
-3.16 -0.63 1.25
-3.10 -0.60 1.26
-2.96 -0.58 1.29
-3.17 -0.59 1.25
-2.99 -0.55 1.28
-2.86 -0.53 1.30
-6.54 -0.86 0.71
-5.67 -0.76 0.85
-5.09 -0.69 0.95
-5.72 -0.72 0.85
-2.39 -0.42 1.38
-6.79 -0.77 0.67
-4.84 -0.59 0.99
-5.55 -0.63 0.87
-5.41 -0.60 0.90
-5.56 -0.59 0.87
-5.43 -0.56 0.89
-2.10 -0.32 1.42
-5.04 -0.50 0.95
-1.87 -0.28 1.46
-5.28 -0.48 0.92
-1.90 -0.26 1.45
-7.79 -0.58 0.52
-6.35 -0.33 1.13
-6.11 -0.30 1.17
-5.82 -0.27 1.21
-5.93 -0.26 1.20
-5.94 -0.25 1.20
-6.17 -0.24 1.16
-9.62 -0.35 0.61
-9.78 -0.33 0.58
-9.66 -0.30 0.60
-9.65 -0.28 0.61
-9.38 -0.25 0.65
-6.01 -0.15 1.18
-5.75 -0.13 1.22
-6.04 -0.12 1.18
-5.94 -0.10 1.19
-5.73 -0.08 1.23
-8.83 -0.11 0.73
-8.80 -0.08 0.74
-5.60 -0.04 1.25
-5.57 -0.03 1.25
-5.54 -0.01 1.26
-5.78 0.00 1.22
-4.11 -0.00 1.05
-3.81 0.01 1.10
-4.24 0.03 1.03
-4.00 0.04 1.07
-5.73 0.07 1.18
-5.72 0.09 1.18
-5.84 0.10 1.16
-5.93 0.12 1.15
-5.98 0.14 1.14
-5.86 0.15 1.16
-5.98 0.16 1.14
-5.86 0.18 1.16
-6.43 0.21 1.06
-6.75 0.23 1.01
-5.94 0.22 1.14
-8.37 0.33 0.74
-7.47 0.31 0.89
-8.17 0.36 0.77
-7.52 0.35 0.88
-7.46 0.37 0.89
-7.17 0.37 0.94
-7.91 0.43 0.81
-7.24 0.41 0.92
-7.20 0.43 0.93
-7.06 0.44 0.95
-6.46 0.42 1.05
-6.19 0.42 1.10
-6.79 0.47 1.00
-4.04 0.30 1.46
-6.72 0.50 1.01
-6.69 0.52 1.01
-7.55 0.60 0.87
-6.91 0.57 0.98
-6.71 0.57 1.01
-6.61 0.58 1.03
-7.88 0.70 0.81
-6.66 0.61 1.01
-7.50 0.71 0.87
-6.73 0.65 1.00
-7.24 0.72 0.92
-7.24 0.74 0.92
-7.21 0.75 0.92
-7.80 0.83 0.82
-7.60 0.83 0.85
-7.53 0.84 0.87
-7.95 0.91 0.79
-7.84 0.91 0.81
-7.91 0.94 0.80
-8.25 1.00 0.74
-7.83 0.97 0.81
-8.03 1.01 0.78
-7.81 1.01 0.81
-7.57 1.00 0.85
-7.62 1.02 0.84
-7.68 1.05 0.83
-7.55 1.05 0.85
-4.34 0.63 1.40
-7.39 1.07 0.88
-8.10 1.19 0.76
-4.37 0.67 1.39
-4.09 0.64 1.44
-4.59 0.73 1.35
-4.31 0.70 1.40
-4.06 0.67 1.44
-8.54 1.38 0.68
-7.33 1.21 0.89
-4.33 0.75 1.39
-8.78 1.48 0.64
-8.47 1.45 0.69
-4.33 0.78 1.39
-4.08 0.75 1.44
-8.47 1.52 0.69
-8.22 1.50 0.73
-8.14 1.50 0.74
-5.01 1.39 1.25
-1.24 -0.96 1.53
-5.61 -1.48 0.79
-5.27 -1.38 0.85
-5.11 -1.33 0.88
-5.29 -1.35 0.85
-5.05 -1.29 0.89
-5.27 -1.30 0.85
-4.97 -1.24 0.90
-5.01 -1.22 0.89
-5.21 -1.24 0.86
-5.04 -1.19 0.89
-3.98 -1.01 1.07
-5.03 -1.16 0.89
-4.93 -1.12 0.91
-5.14 -1.13 0.87
-5.12 -1.11 0.88
-5.20 -1.11 0.86
-5.75 -1.16 0.77
-5.82 -1.15 0.76
-5.68 -1.11 0.78
-5.96 -1.13 0.74
-5.88 -1.10 0.75
-5.99 -1.09 0.73
-6.44 -1.13 0.66
-6.98 -1.17 0.57
-6.58 -1.10 0.63
-4.01 -0.78 1.07
-3.48 -0.70 1.16
-3.43 -0.68 1.17
-3.37 -0.66 1.17
-3.38 -0.65 1.17
-3.48 -0.64 1.16
-3.23 -0.60 1.20
-3.33 -0.60 1.18
-6.53 -0.90 0.65
-6.41 -0.86 0.67
-6.40 -0.84 0.67
-6.34 -0.82 0.68
-6.21 -0.78 0.70
-5.28 -0.68 0.86
-5.15 -0.65 0.88
-2.16 -0.39 1.38
-5.11 -0.61 0.88
-1.89 -0.35 1.42
-5.61 -0.61 0.80
-5.09 -0.56 0.89
-5.13 -0.54 0.88
-1.92 -0.31 1.42
-5.31 -0.51 0.85
-2.00 -0.29 1.40
-2.50 -0.31 1.32
-2.04 -0.27 1.40
-5.30 -0.44 0.85
-1.92 -0.24 1.42
-5.38 -0.40 0.84
-5.39 -0.39 0.84
-5.19 -0.36 0.87
-5.17 -0.34 0.87
-5.26 -0.32 0.86
-5.25 -0.30 0.86
-4.68 -0.26 0.96
-5.48 -0.27 0.82
-5.34 -0.25 0.85
-5.05 -0.22 0.89
-5.27 -0.21 0.86
-5.39 -0.19 0.84
-4.68 -0.16 0.96
-5.29 -0.15 0.85
-5.07 -0.13 0.89
-4.74 -0.11 0.95
-5.04 -0.09 0.90
-4.61 -0.07 0.97
-4.76 -0.06 0.94
-4.32 -0.04 1.01
-4.68 -0.02 0.95
-5.96 0.02 1.09
-5.77 0.03 1.12
-5.81 0.05 1.12
-5.84 0.06 1.11
-5.84 0.07 1.11
-5.87 0.09 1.11
-5.74 0.10 1.13
-5.85 0.12 1.11
-5.89 0.13 1.10
-5.82 0.15 1.11
-5.91 0.16 1.10
-5.90 0.18 1.10
-6.03 0.20 1.08
-6.16 0.22 1.05
-6.41 0.24 1.01
-7.89 0.31 0.75
-7.50 0.32 0.82
-7.06 0.32 0.89
-6.77 0.32 0.94
-6.77 0.34 0.94
-7.09 0.37 0.89
-6.95 0.38 0.91
-7.18 0.41 0.87
-7.54 0.47 0.81
-7.10 0.46 0.88
-6.74 0.45 0.95
-6.77 0.47 0.94
-6.71 0.48 0.95
-6.83 0.51 0.93
-6.54 0.50 0.98
-6.71 0.55 0.95
-7.77 0.65 0.76
-7.42 0.64 0.82
-7.16 0.64 0.87
-7.19 0.66 0.86
-7.07 0.67 0.88
-7.05 0.68 0.89
-7.15 0.73 0.87
-7.47 0.78 0.81
-7.49 0.80 0.81
-7.57 0.83 0.79
-7.55 0.84 0.79
-7.40 0.85 0.82
-8.14 0.95 0.69
-7.34 0.89 0.83
-7.46 0.95 0.81
-7.55 0.98 0.79
-7.50 0.99 0.80
-7.58 1.02 0.78
-7.47 1.02 0.80
-7.81 1.09 0.74
-7.10 1.01 0.87
-7.66 1.13 0.77
-7.54 1.13 0.79
-8.26 1.27 0.66
-4.36 0.71 1.35
-4.19 0.69 1.38
-4.14 0.70 1.39
-4.35 0.74 1.35
-7.87 1.31 0.72
-7.87 1.33 0.72
-7.86 1.35 0.73
-7.94 1.39 0.71
-7.90 1.40 0.72
-7.87 1.43 0.72
-7.80 1.44 0.73
-5.02 1.11 1.22
-4.84 1.15 1.25
-5.43 -1.55 0.75
-5.45 -1.51 0.75
-5.34 -1.47 0.77
-5.16 -1.42 0.80
-5.00 -1.37 0.83
-5.10 -1.37 0.81
-5.05 -1.34 0.82
-5.04 -1.32 0.82
-4.96 -1.29 0.84
-4.86 -1.26 0.85
-4.93 -1.25 0.84
-4.82 -1.21 0.86
-4.79 -1.19 0.87
-4.79 -1.17 0.87
-4.89 -1.17 0.85
-4.93 -1.16 0.84
-5.00 -1.15 0.83
-5.22 -1.17 0.79
-5.40 -1.17 0.76
-5.46 -1.16 0.75
-5.69 -1.18 0.71
-5.64 -1.15 0.72
-5.37 -1.09 0.77
-5.40 -1.08 0.76
-5.54 -1.08 0.74
-5.40 -1.04 0.76
-5.68 -1.05 0.71
-5.60 -1.03 0.73
-5.58 -1.00 0.73
-5.65 -0.99 0.72
-6.52 -1.07 0.57
-5.77 -0.97 0.70
-6.03 -0.98 0.65
-5.78 -0.93 0.70
-5.68 -0.90 0.72
-5.86 -0.90 0.68
-6.27 -0.92 0.61
-5.68 -0.84 0.72
-6.22 -0.87 0.62
-6.01 -0.83 0.66
-4.65 -0.68 0.90
-4.93 -0.69 0.85
-4.76 -0.66 0.88
-4.73 -0.64 0.89
-4.81 -0.62 0.87
-4.78 -0.60 0.88
-4.96 -0.60 0.84
-5.11 -0.59 0.82
-4.99 -0.57 0.84
-5.92 -0.62 0.68
-5.00 -0.53 0.84
-2.14 -0.32 1.34
-2.05 -0.30 1.36
-5.32 -0.50 0.78
-1.98 -0.28 1.37
-5.29 -0.46 0.79
-5.35 -0.44 0.78
-5.07 -0.41 0.83
-5.29 -0.40 0.79
-5.03 -0.37 0.83
-5.35 -0.37 0.78
-5.33 -0.35 0.78
-5.22 -0.32 0.80
-5.18 -0.30 0.81
-5.22 -0.28 0.80
-5.07 -0.26 0.83
-5.43 -0.25 0.76
-5.39 -0.23 0.77
-5.35 -0.21 0.78
-4.39 -0.17 0.94
-4.43 -0.16 0.94
-4.34 -0.14 0.95
-4.63 -0.12 0.90
-5.68 -0.07 1.14
-5.70 -0.05 1.14
-5.66 -0.04 1.14
-5.78 -0.03 1.12
-5.81 -0.01 1.12
-5.82 0.00 1.12
-4.10 -0.00 0.94
-4.07 0.01 0.94
-4.18 0.03 0.92
-4.02 0.04 0.95
-4.09 0.06 0.94
-4.00 0.08 0.95
-3.28 0.08 1.09
-2.66 0.09 1.20
-3.06 0.11 1.13
-3.00 0.12 1.14
-2.74 0.13 1.19
-2.25 0.13 1.28
-6.00 0.19 1.03
-6.16 0.21 1.00
-8.02 0.30 0.65
-7.98 0.31 0.66
-8.34 0.35 0.60
-7.63 0.34 0.73
-7.95 0.37 0.67
-7.32 0.36 0.78
-7.19 0.37 0.81
-7.44 0.40 0.76
-7.25 0.41 0.79
-7.43 0.44 0.76
-7.29 0.45 0.79
-7.46 0.48 0.75
-7.36 0.49 0.77
-6.87 0.48 0.86
-7.19 0.52 0.80
-6.46 0.48 0.94
-7.84 0.60 0.68
-7.23 0.57 0.79
-7.87 0.64 0.68
-7.50 0.63 0.74
-7.25 0.63 0.79
-7.76 0.69 0.69
-7.31 0.67 0.78
-7.36 0.69 0.77
-7.11 0.69 0.81
-7.44 0.74 0.75
-7.45 0.76 0.75
-7.38 0.77 0.76
-7.26 0.77 0.78
-7.11 0.78 0.81
-7.34 0.82 0.77
-7.71 0.88 0.70
-7.17 0.84 0.80
-7.17 0.86 0.80
-7.21 0.88 0.79
-7.21 0.90 0.79
-7.31 0.93 0.77
-7.52 0.97 0.73
-7.51 0.99 0.73
-7.27 0.98 0.77
-7.66 1.05 0.70
-7.78 1.08 0.68
-7.84 1.11 0.67
-5.82 0.85 1.04
-8.02 1.17 0.63
-5.08 0.77 1.18
-5.16 0.80 1.17
-4.17 0.66 1.35
-5.54 0.88 1.09
-4.23 0.70 1.34
-4.25 0.71 1.33
-7.61 1.25 0.70
-7.58 1.27 0.71
-7.25 1.23 0.77
-4.78 0.84 1.23
-5.11 0.91 1.17
-4.85 0.88 1.22
-7.77 1.40 0.67
-4.26 0.80 1.33
-7.80 1.44 0.66
-8.43 1.57 0.54
-4.31 0.86 1.31
-4.36 0.88 1.30
-4.52 0.92 1.27
-4.53 0.93 1.27
-4.53 0.94 1.27
-4.77 1.08 1.22
-0.76 -0.79 1.55
-5.42 -1.56 0.68
-5.46 -1.55 0.67
-5.28 -1.50 0.71
-5.25 -1.47 0.71
-5.12 -1.43 0.74
-5.04 -1.40 0.75
-5.08 -1.38 0.75
-5.07 -1.36 0.75
-4.95 -1.32 0.77
-4.99 -1.31 0.76
-1.63 -0.72 1.39
-1.60 -0.71 1.40
-1.70 -0.71 1.38
-1.75 -0.71 1.37
-1.88 -0.72 1.35
-2.23 -0.77 1.28
-1.95 -0.71 1.33
-2.02 -0.71 1.32
-4.86 -1.13 0.79
-5.26 -1.17 0.72
-5.30 -1.16 0.71
-5.51 -1.17 0.67
-5.54 -1.15 0.67
-5.40 -1.11 0.69
-5.59 -1.12 0.66
-5.41 -1.08 0.69
-5.28 -1.04 0.72
-3.72 -0.82 1.01
-3.70 -0.80 1.01
-3.27 -0.73 1.09
-3.23 -0.71 1.10
-3.65 -0.75 1.02
-3.62 -0.73 1.02
-3.29 -0.68 1.09
-3.57 -0.70 1.04
-3.46 -0.67 1.06
-3.55 -0.66 1.04
-4.98 -0.80 0.77
-3.82 -0.66 0.99
-4.49 -0.71 0.87
-4.64 -0.71 0.84
-4.45 -0.68 0.87
-4.46 -0.66 0.87
-4.41 -0.64 0.88
-4.71 -0.65 0.83
-4.61 -0.62 0.84
-4.63 -0.61 0.84
-4.70 -0.60 0.83
-4.64 -0.57 0.84
-4.73 -0.56 0.82
-2.77 -0.40 1.18
-2.39 -0.36 1.25
-2.21 -0.34 1.29
-2.23 -0.33 1.28
-2.23 -0.31 1.28
-2.18 -0.30 1.29
-2.26 -0.29 1.28
-2.32 -0.29 1.27
-5.39 -0.44 0.70
-2.53 -0.27 1.23
-5.26 -0.40 0.73
-5.30 -0.38 0.72
-4.68 -0.33 0.83
-5.02 -0.33 0.77
-4.63 -0.30 0.84
-4.75 -0.28 0.82
-4.25 -0.25 0.91
-4.18 -0.23 0.92
-4.16 -0.21 0.93
-3.95 -0.19 0.97
-4.10 -0.18 0.94
-4.16 -0.16 0.93
-4.13 -0.15 0.93
-4.09 -0.13 0.94
-4.32 -0.12 0.90
-3.78 -0.09 1.00
-4.15 -0.08 0.93
-4.29 -0.07 0.90
-3.88 -0.05 0.98
-4.14 -0.04 0.93
-3.64 -0.02 1.02
-5.71 0.02 1.03
-5.74 0.03 1.02
-5.77 0.04 1.02
-5.80 0.06 1.01
-5.80 0.07 1.01
-5.84 0.09 1.00
-5.79 0.10 1.01
-5.87 0.12 1.00
-5.88 0.13 1.00
-5.95 0.15 0.98
-6.28 0.17 0.92
-6.28 0.19 0.92
-8.09 0.26 0.57
-8.04 0.28 0.58
-8.27 0.31 0.53
-8.36 0.33 0.51
-8.15 0.34 0.55
-7.62 0.34 0.66
-7.70 0.36 0.64
-7.50 0.37 0.68
-7.57 0.39 0.66
-7.23 0.39 0.73
-7.28 0.42 0.72
-7.40 0.44 0.70
-7.42 0.46 0.69
-7.29 0.47 0.72
-7.26 0.49 0.72
-7.10 0.49 0.75
-7.19 0.52 0.73
-7.10 0.53 0.75
-7.46 0.57 0.68
-7.39 0.59 0.70
-7.29 0.60 0.71
-7.31 0.62 0.71
-7.54 0.65 0.67
-7.42 0.66 0.69
-7.56 0.69 0.66
-7.57 0.71 0.66
-8.13 0.78 0.55
-7.32 0.73 0.70
-6.88 0.70 0.79
-7.19 0.75 0.73
-7.07 0.76 0.75
-6.89 0.76 0.79
-6.70 0.75 0.82
-7.40 0.85 0.69
-6.92 0.81 0.78
-7.18 0.86 0.73
-6.97 0.85 0.77
-7.33 0.91 0.70
-7.16 0.91 0.73
-7.21 0.94 0.72
-7.27 0.96 0.71
-7.33 0.99 0.69
-7.69 1.05 0.62
-7.69 1.07 0.62
-7.56 1.07 0.65
-8.17 1.18 0.53
-7.95 1.17 0.57
-5.90 0.89 0.97
-5.77 0.89 0.99
-7.98 1.23 0.56
-7.93 1.24 0.57
-7.82 1.25 0.59
-7.85 1.27 0.58
-7.77 1.28 0.60
-5.38 0.92 1.07
-7.73 1.31 0.60
-4.66 0.83 1.21
-7.64 1.34 0.62
-7.79 1.38 0.59
-7.86 1.41 0.58
-5.23 0.98 1.09
-5.19 0.98 1.10
-4.63 0.89 1.21
-4.60 0.90 1.21
-4.76 0.94 1.18
-4.75 0.95 1.18
-4.76 0.97 1.18
-4.56 0.94 1.22
-4.66 0.97 1.20
-4.72 1.00 1.18
-4.71 1.02 1.19
-4.80 1.05 1.17
-5.34 -1.63 0.62
-5.45 -1.63 0.60
-5.31 -1.58 0.63
-5.34 -1.57 0.62
-5.36 -1.56 0.62
-5.32 -1.53 0.63
-5.33 -1.51 0.63
-5.38 -1.50 0.62
-5.28 -1.46 0.64
-5.05 -1.40 0.68
-5.10 -1.39 0.67
-5.13 -1.38 0.67
-2.38 -0.88 1.20
-5.00 -1.32 0.69
-5.02 -1.30 0.69
-2.11 -0.80 1.26
-2.24 -0.81 1.23
-2.27 -0.80 1.23
-4.81 -1.20 0.73
-4.79 -1.18 0.74
-4.81 -1.16 0.73
-4.64 -1.12 0.77
-4.54 -1.08 0.79
-4.64 -1.08 0.77
-4.71 -1.07 0.75
-4.71 -1.06 0.75
-4.61 -1.02 0.77
-4.46 -0.99 0.80
-4.40 -0.96 0.82
-4.16 -0.91 0.86
-5.54 -1.08 0.59
-5.70 -1.08 0.56
-3.46 -0.77 1.00
-3.70 -0.79 0.95
-3.45 -0.74 1.00
-3.57 -0.74 0.98
-3.98 -0.78 0.90
-6.07 -1.00 0.49
-4.74 -0.83 0.75
-5.43 -0.89 0.62
-3.73 -0.69 0.95
-4.00 -0.70 0.90
-3.49 -0.63 0.99
-3.62 -0.63 0.97
-3.95 -0.65 0.91
-4.45 -0.68 0.81
-4.49 -0.67 0.80
-4.67 -0.67 0.77
-4.66 -0.65 0.77
-4.64 -0.63 0.77
-4.60 -0.61 0.78
-4.64 -0.59 0.77
-4.57 -0.57 0.79
-4.52 -0.55 0.80
-4.52 -0.53 0.80
-4.57 -0.52 0.79
-4.75 -0.51 0.75
-4.82 -0.50 0.74
-4.83 -0.48 0.74
-4.71 -0.46 0.76
-4.77 -0.45 0.75
-6.24 -0.51 0.46
-5.40 -0.44 0.63
-5.14 -0.41 0.68
-5.02 -0.39 0.70
-4.86 -0.36 0.73
-4.72 -0.34 0.76
-5.05 -0.33 0.69
-4.31 -0.29 0.84
-4.21 -0.26 0.86
-4.35 -0.25 0.83
-5.76 -0.18 1.02
-5.86 -0.17 1.00
-5.67 -0.15 1.04
-5.73 -0.14 1.03
-5.66 -0.12 1.04
-5.56 -0.11 1.06
-5.69 -0.10 1.04
-5.67 -0.08 1.04
-5.57 -0.07 1.06
-5.50 -0.05 1.07
-5.56 -0.04 1.06
-5.61 -0.03 1.05
-5.66 -0.01 1.04
-5.71 0.00 1.03
-3.73 -0.00 0.90
-3.88 0.01 0.87
-3.71 0.03 0.90
-3.78 0.04 0.89
-3.01 0.05 1.04
-1.92 0.05 1.26
-2.85 0.08 1.07
-1.93 0.07 1.26
-1.90 0.08 1.26
-1.78 0.09 1.29
-1.91 0.11 1.26
-1.88 0.12 1.27
-1.96 0.13 1.25
-1.85 0.14 1.27
-1.85 0.15 1.27
-1.78 0.16 1.29
-1.98 0.17 1.25
-1.71 0.18 1.30
-1.79 0.19 1.28
-1.93 0.21 1.25
-2.02 0.22 1.24
-4.46 0.25 1.23
-4.24 0.25 1.27
-4.16 0.25 1.29
-4.75 0.31 1.17
-6.99 0.47 0.72
-5.47 0.38 1.02
-4.02 0.30 1.32
-6.67 0.50 0.78
-5.83 0.48 0.95
-6.30 0.53 0.85
-4.21 0.37 1.28
-4.49 0.41 1.22
-6.76 0.62 0.76
-5.36 0.51 1.04
-5.96 0.58 0.92
-7.03 0.70 0.70
-7.19 0.73 0.67
-7.24 0.75 0.66
-6.57 0.70 0.79
-4.53 0.51 1.21
-4.59 0.52 1.19
-4.55 0.53 1.20
-4.47 0.53 1.22
-4.39 0.54 1.24
-4.31 0.54 1.25
-4.27 0.54 1.26
-4.27 0.56 1.26
-4.33 0.57 1.24
-4.47 0.60 1.22
-4.34 0.60 1.24
-4.65 0.65 1.18
-4.81 0.68 1.14
-4.79 0.69 1.15
-4.90 0.72 1.12
-4.61 0.69 1.18
-4.32 0.66 1.24
-4.41 0.69 1.22
-4.16 0.66 1.27
-4.34 0.70 1.24
-4.26 0.70 1.25
-4.10 0.68 1.29
-4.27 0.72 1.25
-4.14 0.71 1.28
-4.00 0.70 1.30
-4.20 0.75 1.26
-4.12 0.74 1.28
-7.84 1.39 0.51
-4.73 0.87 1.15
-4.43 0.83 1.21
-4.48 0.85 1.20
-4.44 0.85 1.21
-4.55 0.89 1.19
-4.32 0.86 1.23
-4.37 0.88 1.22
-4.28 0.87 1.24
-4.43 0.91 1.21
-4.28 0.89 1.24
-4.01 0.85 1.29
-5.10 1.37 1.05
-5.46 -1.57 0.53
-5.29 -1.52 0.57
-5.02 -1.43 0.63
-5.23 -1.45 0.58
-5.38 -1.46 0.55
-5.48 -1.45 0.53
-2.28 -0.84 1.19
-1.89 -0.76 1.27
-1.89 -0.75 1.27
-1.90 -0.75 1.27
-1.82 -0.72 1.28
-1.94 -0.73 1.26
-1.79 -0.69 1.29
-1.77 -0.68 1.29
-2.00 -0.71 1.25
-1.73 -0.65 1.30
-1.87 -0.67 1.27
-2.21 -0.70 1.20
-2.90 -0.79 1.06
-4.47 -1.00 0.75
-4.14 -0.94 0.81
-3.71 -0.86 0.90
-4.15 -0.91 0.81
-4.43 -0.93 0.75
-3.44 -0.78 0.95
-3.26 -0.74 0.99
-3.30 -0.74 0.98
-3.10 -0.70 1.02
-3.19 -0.69 1.01
-3.03 -0.66 1.04
-2.86 -0.63 1.07
-3.02 -0.63 1.04
-3.06 -0.62 1.03
-2.93 -0.60 1.06
-2.95 -0.59 1.06
-2.68 -0.54 1.11
-7.73 -1.04 0.09
-2.98 -0.55 1.05
-7.76 -0.99 0.08
-4.48 -0.66 0.75
-4.47 -0.64 0.75
-4.45 -0.63 0.75
-4.44 -0.61 0.76
-4.47 -0.59 0.75
-4.42 -0.57 0.76
-3.69 -0.50 0.91
-3.66 -0.48 0.91
-4.13 -0.50 0.82
-2.88 -0.40 1.07
-2.94 -0.39 1.06
-7.93 -0.71 0.05
-2.52 -0.33 1.14
-2.78 -0.34 1.09
-7.85 -0.63 0.07
-2.07 -0.27 1.23
-7.83 -0.58 0.07
-7.85 -0.55 0.07
-7.75 -0.52 0.09
-7.78 -0.50 0.08
-7.71 -0.47 0.10
-3.02 -0.24 1.04
-7.75 -0.42 0.09
-7.70 -0.40 0.10
-7.73 -0.37 0.09
-2.13 -0.16 1.22
-2.78 -0.17 1.09
-7.76 -0.30 0.09
-7.80 -0.28 0.08
-7.86 -0.25 0.07
-3.19 -0.13 1.01
-3.76 -0.12 0.89
-3.67 -0.11 0.91
-3.65 -0.09 0.91
-3.81 -0.08 0.88
-3.69 -0.06 0.91
-3.62 -0.05 0.92
-3.88 -0.03 0.87
-3.65 -0.02 0.91
-5.38 0.01 0.99
-5.36 0.03 0.99
-5.31 0.04 1.00
-5.42 0.06 0.98
-5.35 0.07 1.00
-5.58 0.08 0.95
-6.09 0.11 0.84
-9.34 0.18 0.15
-5.54 0.13 0.95
-9.43 0.23 0.13
-5.66 0.16 0.93
-5.56 0.17 0.95
-9.49 0.30 0.12
-8.24 0.28 0.38
-9.45 0.35 0.13
-9.38 0.37 0.14
-8.19 0.34 0.39
-7.82 0.35 0.47
-7.39 0.35 0.56
-7.32 0.36 0.57
-7.73 0.40 0.49
-7.04 0.38 0.63
-7.02 0.40 0.64
-6.90 0.41 0.66
-7.04 0.44 0.63
-7.11 0.46 0.62
-6.98 0.47 0.64
-6.84 0.48 0.67
-6.77 0.49 0.69
-6.80 0.51 0.68
-6.69 0.52 0.70
-6.66 0.53 0.71
-6.64 0.55 0.71
-6.63 0.56 0.71
-6.60 0.58 0.72
-6.61 0.59 0.72
-6.68 0.62 0.70
-7.43 0.70 0.54
-7.59 0.73 0.51
-6.76 0.67 0.68
-6.54 0.67 0.73
-7.31 0.76 0.57
-5.23 0.57 1.01
-6.95 0.76 0.64
-7.21 0.81 0.58
-4.79 0.56 1.10
-5.22 0.62 1.01
-4.98 0.61 1.06
-4.90 0.61 1.07
-4.96 0.63 1.06
-5.69 0.73 0.90
-6.82 0.89 0.66
-5.79 0.77 0.88
-6.63 0.90 0.70
-6.77 0.93 0.67
-7.46 1.04 0.52
-7.39 1.05 0.54
-7.48 1.08 0.52
-7.47 1.10 0.52
-4.67 0.72 1.12
-7.46 1.14 0.52
-5.02 0.79 1.04
-4.61 0.75 1.13
-4.53 0.75 1.14
-4.35 0.73 1.18
-4.25 0.72 1.20
-4.48 0.77 1.15
-4.56 0.80 1.13
-4.48 0.80 1.15
-4.57 0.82 1.13
-4.45 0.81 1.16
-4.47 0.83 1.15
-4.42 0.83 1.16
-4.45 0.85 1.15
-4.59 0.89 1.12
-4.50 0.88 1.14
-4.54 0.90 1.13
-4.53 0.91 1.13
-4.58 0.94 1.12
-4.44 0.92 1.15
-4.41 0.93 1.16
-4.33 0.94 1.17
-4.29 0.96 1.18
-4.00 0.91 1.24
-4.41 1.01 1.15
-4.46 1.05 1.14
-4.48 1.06 1.13
-4.73 1.13 1.08
-4.54 1.14 1.12
-4.65 1.19 1.09
-4.80 1.24 1.06
-5.16 1.34 0.98
-5.08 1.33 1.00
-4.81 1.28 1.05
-4.90 1.33 1.03
-5.05 1.38 1.00
-4.92 1.36 1.03
-4.82 1.35 1.05
-5.23 -1.67 0.49
-2.98 -1.16 0.98
-5.22 -1.61 0.50
-5.05 -1.55 0.54
-2.55 -1.02 1.07
-2.70 -1.04 1.04
-5.19 -1.50 0.51
-2.76 -1.01 1.03
-2.29 -0.91 1.13
-2.76 -0.98 1.03
-4.89 -1.34 0.57
-4.88 -1.32 0.58
-4.90 -1.30 0.57
-4.68 -1.23 0.62
-4.62 -1.20 0.63
-4.59 -1.18 0.64
-4.63 -1.15 0.63
-4.56 -1.12 0.65
-4.49 -1.09 0.66
-4.59 -1.07 0.64
-4.29 -1.01 0.71
-4.44 -1.02 0.68
-4.70 -1.02 0.62
-4.54 -0.98 0.66
-3.19 -0.78 0.94
-3.48 -0.79 0.88
-3.93 -0.83 0.79
-3.36 -0.75 0.91
-3.45 -0.73 0.89
-3.33 -0.70 0.91
-3.46 -0.70 0.89
-3.74 -0.70 0.83
-3.50 -0.66 0.88
-4.35 -0.74 0.70
-3.81 -0.65 0.81
-4.26 -0.68 0.72
-4.00 -0.64 0.77
-4.18 -0.62 0.74
-4.31 -0.62 0.71
-4.28 -0.60 0.72
-4.25 -0.56 0.72
-4.33 -0.55 0.70
-4.21 -0.53 0.73
-4.04 -0.48 0.77
-3.94 -0.46 0.79
-4.14 -0.46 0.75
-4.22 -0.43 0.73
-3.97 -0.40 0.78
-4.25 -0.40 0.72
-5.53 -0.30 0.96
-5.32 -0.28 1.01
-9.13 -0.44 0.20
-5.54 -0.26 0.96
-6.05 -0.27 0.85
-6.16 -0.26 0.83
-9.27 -0.36 0.17
-6.57 -0.24 0.74
-9.38 -0.32 0.15
-9.31 -0.29 0.16
-9.43 -0.27 0.14
-9.43 -0.25 0.14
-5.77 -0.14 0.91
-5.43 -0.12 0.98
-5.53 -0.11 0.96
-5.88 -0.10 0.89
-9.45 -0.14 0.13
-5.74 -0.07 0.92
-5.32 -0.05 1.00
-5.26 -0.04 1.02
-5.51 -0.03 0.96
-5.48 -0.01 0.97
-5.35 0.00 1.00
-3.84 -0.00 0.75
-1.75 0.01 1.21
-1.91 0.02 1.17
-3.89 0.04 0.74
-5.17 0.07 0.99
-5.34 0.08 0.95
-5.26 0.09 0.96
-5.29 0.11 0.96
-5.26 0.12 0.96
-5.04 0.13 1.01
-4.89 0.14 1.05
-5.11 0.15 1.00
-5.27 0.17 0.96
-8.99 0.31 0.14
-9.14 0.34 0.11
-5.58 0.22 0.89
-7.31 0.31 0.51
-6.91 0.31 0.60
-6.88 0.32 0.60
-6.90 0.34 0.60
-6.94 0.36 0.59
-7.11 0.39 0.55
-5.81 0.33 0.84
-6.55 0.39 0.67
-7.10 0.44 0.55
-6.86 0.44 0.61
-6.90 0.46 0.59
-6.66 0.46 0.65
-6.87 0.49 0.60
-6.52 0.49 0.68
-6.10 0.47 0.77
-6.20 0.49 0.75
-6.54 0.54 0.67
-6.62 0.56 0.65
-6.55 0.57 0.67
-6.72 0.60 0.63
-4.87 0.46 1.04
-4.79 0.46 1.06
-5.61 0.55 0.87
-4.72 0.48 1.07
-4.70 0.49 1.08
-4.64 0.49 1.09
-4.64 0.51 1.09
-4.83 0.54 1.04
-4.83 0.55 1.04
-4.85 0.56 1.04
-4.91 0.58 1.03
-4.85 0.59 1.04
-4.92 0.61 1.02
-5.24 0.66 0.95
-5.46 0.70 0.90
-5.23 0.69 0.95
-5.86 0.78 0.81
-5.76 0.78 0.83
-5.12 0.71 0.98
-7.28 1.01 0.49
-7.25 1.03 0.50
-4.61 0.68 1.09
-4.58 0.69 1.09
-4.37 0.67 1.14
-4.20 0.66 1.18
-4.29 0.68 1.16
-4.29 0.69 1.16
-4.21 0.69 1.17
-4.22 0.71 1.17
-4.19 0.71 1.18
-4.34 0.75 1.14
-4.30 0.75 1.15
-4.39 0.78 1.13
-4.25 0.77 1.16
-4.39 0.80 1.13
-4.14 0.77 1.18
-4.04 0.76 1.21
-4.21 0.80 1.17
-4.28 0.83 1.15
-4.30 0.84 1.15
-4.27 0.85 1.15
-4.18 0.84 1.17
-4.38 0.89 1.12
-4.19 0.87 1.17
-4.30 0.90 1.14
-4.29 0.91 1.14
-4.37 0.94 1.12
-4.21 0.92 1.16
-5.23 -1.66 0.42
-5.24 -1.64 0.42
-5.07 -1.59 0.46
-4.95 -1.55 0.49
-4.81 -1.50 0.52
-5.04 -1.53 0.47
-4.99 -1.50 0.48
-5.14 -1.51 0.45
-5.24 -1.51 0.42
-2.29 -0.93 1.09
-2.62 -0.97 1.01
-2.34 -0.90 1.08
-2.44 -0.91 1.05
-4.88 -1.33 0.51
-2.35 -0.87 1.07
-2.26 -0.84 1.09
-2.32 -0.84 1.08
-2.30 -0.82 1.09
-2.50 -0.85 1.04
-2.42 -0.82 1.06
-4.63 -1.17 0.57
-4.67 -1.15 0.56
-2.88 -0.86 0.96
-4.71 -1.12 0.55
-4.68 -1.10 0.56
-4.74 -1.09 0.54
-4.03 -0.97 0.70
-2.94 -0.80 0.95
-4.58 -1.02 0.58
-4.34 -0.97 0.63
-4.56 -0.98 0.58
-2.77 -0.72 0.98
-3.15 -0.76 0.90
-3.08 -0.74 0.92
-3.32 -0.75 0.86
-3.36 -0.74 0.85
-3.27 -0.72 0.88
-3.14 -0.69 0.90
-2.85 -0.64 0.97
-3.01 -0.65 0.93
-3.35 -0.67 0.86
-3.27 -0.65 0.87
-3.30 -0.64 0.87
-3.27 -0.62 0.87
-3.74 -0.66 0.77
-4.02 -0.67 0.71
-3.94 -0.64 0.73
-3.76 -0.61 0.77
-3.60 -0.58 0.80
-4.09 -0.61 0.69
-4.00 -0.59 0.71
-4.11 -0.58 0.69
-3.93 -0.55 0.73
-3.83 -0.53 0.75
-3.94 -0.52 0.73
-3.86 -0.50 0.75
-3.46 -0.45 0.83
-3.58 -0.45 0.81
-3.40 -0.42 0.85
-3.31 -0.40 0.87
-3.70 -0.41 0.78
-3.52 -0.38 0.82
-3.38 -0.36 0.85
-3.70 -0.36 0.78
-3.72 -0.35 0.78
-3.86 -0.34 0.74
-3.47 -0.31 0.83
-3.50 -0.29 0.83
-3.57 -0.28 0.81
-3.78 -0.28 0.76
-3.54 -0.25 0.81
-3.63 -0.24 0.79
-3.67 -0.23 0.79
-3.64 -0.21 0.79
-3.60 -0.20 0.80
-3.54 -0.18 0.82
-3.56 -0.17 0.81
-3.65 -0.15 0.79
-3.59 -0.14 0.80
-3.59 -0.12 0.80
-3.59 -0.11 0.80
-3.53 -0.09 0.82
-3.66 -0.08 0.79
-3.68 -0.06 0.78
-3.57 -0.05 0.81
-3.52 -0.03 0.82
-3.86 -0.02 0.74
-8.62 0.06 0.14
-8.70 0.09 0.12
-8.60 0.11 0.14
-8.72 0.13 0.11
-8.77 0.15 0.10
-8.84 0.17 0.08
-8.80 0.20 0.09
-8.85 0.22 0.08
-5.08 0.14 0.95
-5.27 0.16 0.90
-6.55 0.21 0.61
-8.89 0.31 0.07
-8.86 0.33 0.08
-8.91 0.35 0.06
-8.88 0.37 0.07
-8.84 0.39 0.08
-8.88 0.41 0.07
-8.82 0.43 0.08
-7.06 0.40 0.49
-6.58 0.39 0.60
-6.50 0.40 0.62
-6.83 0.44 0.54
-6.35 0.43 0.65
-7.21 0.50 0.45
-7.14 0.51 0.46
-7.18 0.53 0.46
-7.11 0.56 0.47
-7.08 0.60 0.48
-6.89 0.60 0.52
-6.48 0.58 0.61
-7.04 0.65 0.49
-7.37 0.69 0.41
-7.14 0.69 0.46
-6.99 0.69 0.49
-5.59 0.58 0.82
-5.43 0.57 0.85
-5.28 0.57 0.89
-5.31 0.59 0.88
-5.51 0.62 0.83
-5.22 0.61 0.90
-5.79 0.68 0.77
-7.21 0.86 0.44
-7.32 0.89 0.41
-7.27 0.90 0.42
-6.99 0.89 0.49
-7.36 0.95 0.40
-7.35 0.97 0.40
-7.29 0.98 0.41
-7.26 0.99 0.42
-7.17 1.00 0.44
-7.05 1.00 0.47
-7.14 1.03 0.45
-7.31 1.08 0.41
-7.28 1.09 0.41
-7.44 1.13 0.37
-7.47 1.15 0.37
-7.55 1.19 0.35
-4.45 0.74 1.07
-4.56 0.78 1.04
-4.62 0.81 1.03
-4.29 0.76 1.10
-4.10 0.74 1.15
-4.25 0.78 1.11
-4.38 0.81 1.08
-4.52 0.85 1.05
-4.84 0.92 0.97
-4.37 0.85 1.08
-4.42 0.87 1.07
-6.61 -1.68 0.03
-6.57 -1.66 0.03
-6.59 -1.64 0.03
-6.60 -1.62 0.03
-6.57 -1.59 0.04
-6.57 -1.57 0.04
-2.45 -0.85 1.00
-4.59 -1.20 0.50
-4.89 -1.23 0.43
-4.70 -1.18 0.48
-4.32 -1.10 0.57
-4.96 -1.18 0.42
-4.70 -1.12 0.48
-4.73 -1.11 0.47
-4.70 -1.09 0.48
-4.75 -1.08 0.47
-4.76 -1.06 0.46
-6.38 -1.27 0.09
-6.51 -1.27 0.06
-4.32 -0.95 0.57
-4.29 -0.93 0.57
-6.47 -1.20 0.07
-6.50 -1.18 0.06
-3.72 -0.81 0.71
-6.48 -1.13 0.07
-3.62 -0.76 0.73
-6.52 -1.10 0.06
-3.79 -0.75 0.69
-3.35 -0.69 0.79
-3.64 -0.71 0.73
-3.11 -0.63 0.85
-3.60 -0.67 0.74
-3.70 -0.67 0.71
-3.59 -0.64 0.74
-3.79 -0.65 0.69
-3.85 -0.64 0.68
-3.79 -0.62 0.70
-3.93 -0.61 0.66
-3.87 -0.59 0.68
-4.10 -0.60 0.62
-4.17 -0.59 0.61
-4.29 -0.58 0.58
-4.20 -0.56 0.60
-4.15 -0.54 0.61
-4.02 -0.51 0.64
-4.11 -0.50 0.62
-3.88 -0.47 0.67
-3.98 -0.46 0.65
-3.51 -0.41 0.76
-3.32 -0.39 0.80
-3.47 -0.38 0.77
-3.22 -0.35 0.83
-3.59 -0.36 0.74
-3.80 -0.36 0.69
-3.66 -0.33 0.73
-3.80 -0.33 0.69
-3.73 -0.31 0.71
-6.45 -0.42 0.08
-4.21 -0.30 0.60
-3.66 -0.26 0.72
-3.74 -0.25 0.71
-3.80 -0.23 0.69
-4.00 -0.23 0.65
-3.82 -0.20 0.69
-3.74 -0.19 0.71
-3.74 -0.17 0.71
-3.73 -0.16 0.71
-3.49 -0.13 0.76
-3.63 -0.12 0.73
-3.63 -0.11 0.73
-8.80 -0.11 0.09
-8.81 -0.08 0.09
-8.66 -0.06 0.13
-3.41 0.39 0.49
-3.39 0.04 0.44
-2.82 0.59 0.35
-3.06 0.56 0.32
-3.01 0.59 0.32
-2.97 0.64 0.32
-2.72 0.63 0.34
-3.69 0.58 0.24
-3.64 0.62 0.25
-3.32 0.57 0.28
-3.04 0.56 0.30
-3.03 0.60 0.30
-2.98 0.65 0.30
-3.68 0.58 0.22
-3.29 0.56 0.25
-3.26 0.60 0.26
-3.06 0.57 0.28
-3.03 0.60 0.28
-3.67 0.58 0.19
-3.08 0.57 0.25
-3.07 0.44 0.24
-3.38 0.13 0.18
-3.02 0.47 0.16
-2.51 -1.66 0.03
-2.28 -1.65 0.02
-4.59 -0.52 1.62
-10.26 -0.71 1.17
-10.46 -0.78 1.09
-10.60 -0.76 1.08
-10.54 -0.73 1.08
-10.55 -0.66 1.08
-10.51 -0.63 1.09
-10.43 -0.60 1.09
-10.31 -0.56 1.10
-10.38 -0.53 1.10
-10.34 -0.50 1.10
-9.81 -0.42 1.14
-9.69 -0.39 1.16
-9.53 -0.35 1.17
-9.34 -0.32 1.18
-9.11 -0.23 1.20
-4.90 -0.69 1.50
-10.67 -0.92 0.99
-10.50 -0.88 1.00
-10.46 -0.85 1.01
-10.45 -0.81 1.01
-10.37 -0.78 1.01
-10.14 -0.73 1.04
-10.42 -0.72 1.01
-10.50 -0.69 1.00
-10.30 -0.65 1.02
-10.20 -0.62 1.03
-10.37 -0.59 1.01
-10.11 -0.55 1.04
-9.14 -0.48 1.12
-9.88 -0.48 1.06
-10.09 -0.46 1.04
-9.88 -0.39 1.06
-9.98 -0.37 1.05
-9.13 -0.29 1.12
-8.89 -0.00 1.08
-8.68 0.02 1.10
-10.61 0.15 0.92
-10.26 0.18 0.95
-10.43 0.24 0.94
-8.91 0.24 1.08
-8.77 0.27 1.09
-10.44 -1.28 0.93
-10.45 -1.25 0.93
-10.51 -1.22 0.93
-10.62 -1.20 0.92
-10.70 -1.18 0.91
-10.41 -0.94 0.94
-10.63 -0.92 0.92
-10.25 -0.86 0.95
-10.22 -0.83 0.96
-10.30 -0.80 0.95
-10.09 -0.76 0.97
-10.12 -0.73 0.97
-10.25 -0.71 0.95
-10.66 -0.70 0.92
-10.51 -0.66 0.93
-10.29 -0.62 0.95
-9.73 -0.56 1.00
-10.05 -0.55 0.97
-9.71 -0.50 1.01
-9.74 -0.48 1.00
-10.14 -0.46 0.96
-10.08 -0.43 0.97
-10.10 -0.40 0.97
-9.61 -0.35 1.02
-9.41 -0.26 1.03
-5.44 -1.10 1.36
-4.97 -0.87 1.41
-4.83 -0.84 1.42
-10.63 -1.30 0.83
-10.54 -1.26 0.84
-10.61 -1.24 0.83
-10.52 -1.20 0.84
-10.57 -1.17 0.84
-10.52 -1.07 0.84
-10.30 -0.93 0.86
-10.02 -0.88 0.89
-10.13 -0.86 0.88
-10.09 -0.82 0.89
-10.00 -0.79 0.90
-9.99 -0.76 0.90
-9.88 -0.69 0.91
-9.79 -0.66 0.92
-9.99 -0.64 0.90
-9.84 -0.60 0.91
-9.59 -0.56 0.94
-9.57 -0.53 0.94
-9.77 -0.51 0.92
-9.50 -0.44 0.95
-9.70 -0.09 1.17
-9.97 -0.07 1.14
-8.52 0.26 0.97
-10.50 -1.35 0.76
-10.70 -1.30 0.74
-10.44 -1.25 0.76
-10.31 -1.21 0.78
-10.66 -1.08 0.74
-10.63 -0.98 0.75
-10.16 -0.92 0.80
-9.81 -0.83 0.83
-10.13 -0.82 0.80
-10.44 -0.81 0.77
-10.21 -0.74 0.79
-10.33 -0.71 0.78
-9.98 -0.66 0.82
-10.02 -0.64 0.81
-9.79 -0.59 0.84
-9.52 -0.55 0.87
-9.47 -0.52 0.87
-9.53 -0.50 0.87
-9.44 -0.46 0.88
-9.16 -0.43 0.91
-9.30 -0.37 0.89
-8.98 -0.31 0.93
-9.06 -0.28 0.92
-5.29 -1.08 1.26
-5.25 -1.06 1.27
-5.01 -1.01 1.30
-5.09 -1.00 1.29
-5.17 -0.97 1.28
-5.31 -0.97 1.26
-5.28 -0.95 1.27
-5.22 -0.92 1.27
-5.08 -0.89 1.29
-10.63 -1.46 0.65
-10.45 -1.38 0.67
-5.18 -0.81 1.28
-5.12 -0.78 1.29
-10.48 -1.29 0.67
-10.70 -1.28 0.64
-10.27 -1.21 0.69
-10.20 -1.17 0.70
-10.26 -0.96 0.70
-9.55 -0.88 0.78
-9.77 -0.83 0.75
-9.64 -0.80 0.77
-9.66 -0.77 0.77
-9.95 -0.76 0.73
-9.84 -0.72 0.75
-9.73 -0.68 0.76
-9.99 -0.51 1.00
-9.83 -0.48 1.02
-10.17 -0.22 0.98
-8.84 -0.01 0.78
-9.86 0.05 0.66
-5.28 -1.08 1.21
-5.23 -1.05 1.22
-5.25 -1.04 1.22
-5.34 -1.03 1.21
-5.42 -1.02 1.20
-5.31 -0.99 1.21
-5.33 -0.97 1.21
-5.45 -0.97 1.19
-5.26 -0.92 1.22
-5.18 -0.90 1.23
-5.25 -0.89 1.22
-5.29 -0.87 1.22
-5.52 -0.88 1.19
-6.41 -0.95 1.08
-10.59 -1.36 0.57
-5.89 -0.86 1.14
-10.75 -1.28 0.55
-5.12 -0.72 1.24
-10.54 -1.17 0.58
-10.55 -1.13 0.58
-10.59 -1.01 0.57
-10.30 -0.96 0.61
-10.09 -0.91 0.63
-9.77 -0.86 0.67
-9.78 -0.83 0.67
-9.77 -0.80 0.67
-9.75 -0.77 0.67
-9.52 -0.73 0.70
-9.88 -0.72 0.66
-9.64 -0.68 0.69
-9.84 -0.66 0.66
-9.23 -0.60 0.74
-9.32 -0.57 0.73
-9.07 -0.53 0.76
-8.84 -0.50 0.78
-9.17 -0.48 0.74
-9.12 -0.45 0.75
-9.10 -0.42 0.75
-8.93 -0.39 0.77
-8.95 -0.36 0.77
-8.94 -0.34 0.77
-8.87 -0.31 0.78
-8.66 -0.27 0.81
-8.59 -0.25 0.81
-8.73 -0.22 0.80
-8.91 -0.20 0.78
-8.52 -0.16 0.82
-8.37 -0.14 0.84
-8.70 -0.11 0.80
-8.61 -0.09 0.81
-8.61 -0.06 0.81
-8.44 -0.03 0.83
-9.25 0.03 0.96
-9.40 0.12 0.94
-9.35 0.14 0.94
-9.23 0.21 0.96
-5.37 -1.13 1.14
-5.44 -1.12 1.14
-5.32 -1.08 1.15
-5.26 -1.06 1.16
-5.07 -1.01 1.18
-5.35 -1.01 1.15
-5.57 -1.02 1.12
-5.59 -1.00 1.12
-5.97 -1.03 1.07
-5.90 -1.00 1.08
-5.86 -0.98 1.08
-5.08 -0.87 1.18
-5.48 -0.87 1.13
-5.47 -0.85 1.13
-10.65 -1.37 0.46
-10.48 -1.32 0.49
-10.52 -1.29 0.48
-10.40 -1.15 0.50
-10.52 -1.13 0.48
-10.35 -1.09 0.50
-10.28 -1.05 0.51
-10.22 -1.02 0.52
-9.90 -0.96 0.56
-9.95 -0.93 0.56
-9.91 -0.87 0.56
-9.78 -0.83 0.58
-9.67 -0.80 0.59
-8.78 -0.71 0.71
-9.27 -0.71 0.64
-9.23 -0.68 0.65
-9.26 -0.66 0.65
-9.52 -0.61 0.61
-9.60 -0.59 0.60
-8.77 -0.52 0.71
-8.74 -0.49 0.71
-8.77 -0.47 0.71
-8.84 -0.44 0.70
-9.05 -0.42 0.67
-9.12 -0.37 0.67
-8.89 -0.33 0.69
-9.02 -0.31 0.68
-8.75 -0.28 0.71
-8.70 -0.25 0.72
-8.58 -0.22 0.73
-8.45 -0.19 0.75
-9.43 -0.11 0.93
-9.20 -0.09 0.96
-9.25 -0.06 0.96
-9.25 -0.04 0.96
-9.18 -0.02 0.97
-9.38 0.00 0.94
-8.34 -0.00 0.69
-8.34 0.02 0.69
-8.55 0.05 0.66
-8.35 0.07 0.68
-8.47 0.10 0.67
-10.15 0.15 0.44
-8.30 0.15 0.69
-10.03 0.21 0.45
-10.07 0.24 0.45
-9.63 0.78 0.83
-9.65 0.81 0.82
-9.66 0.83 0.82
-9.61 0.85 0.83
-9.41 0.86 0.86
-9.57 0.89 0.83
-9.52 0.91 0.84
-9.56 0.94 0.83
-5.82 -1.21 1.03
-5.59 -1.16 1.06
-5.30 -1.10 1.10
-5.23 -1.07 1.11
-5.27 -1.06 1.10
-5.07 -1.01 1.13
-5.36 -1.03 1.09
-5.52 -1.03 1.07
-5.75 -1.04 1.04
-5.78 -1.02 1.03
-5.86 -1.01 1.02
-6.29 -1.04 0.96
-5.93 -0.98 1.01
-6.10 -0.98 0.99
-6.07 -0.96 0.99
-5.65 -0.89 1.05
-5.73 -0.88 1.04
-10.06 -1.30 0.45
-6.05 -0.87 1.00
-10.41 -1.28 0.40
-10.67 -1.27 0.37
-5.72 -0.78 1.04
-10.02 -1.12 0.46
-10.42 -1.12 0.40
-10.41 -1.09 0.40
-10.34 -1.05 0.41
-10.65 -1.05 0.37
-9.94 -0.96 0.47
-10.39 -0.97 0.41
-9.91 -0.90 0.47
-9.93 -0.87 0.47
-9.89 -0.84 0.48
-9.52 -0.78 0.53
-9.59 -0.76 0.52
-9.59 -0.73 0.52
-9.50 -0.70 0.53
-9.34 -0.66 0.55
-10.49 -0.69 0.39
-10.16 -0.64 0.44
-8.95 -0.56 0.60
-8.88 -0.53 0.61
-9.06 -0.51 0.59
-8.73 -0.46 0.63
-8.89 -0.44 0.61
-9.01 -0.42 0.60
-9.23 -0.40 0.57
-8.87 -0.36 0.62
-8.81 -0.33 0.62
-8.77 -0.30 0.63
-8.66 -0.27 0.64
-8.63 -0.25 0.65
-8.76 -0.22 0.63
-8.90 -0.20 0.61
-8.91 -0.17 0.61
-8.58 -0.14 0.65
-8.52 -0.11 0.66
-8.51 -0.08 0.66
-8.40 -0.06 0.68
-8.23 -0.03 0.70
-8.91 0.02 0.86
-9.15 0.05 0.83
-9.12 0.07 0.83
-9.27 0.12 0.81
-8.80 0.20 0.88
-8.85 0.22 0.87
-8.98 0.24 0.85
-8.71 0.28 0.89
-9.21 0.61 0.81
-9.52 0.77 0.77
-9.45 0.79 0.78
-9.68 0.83 0.74
-9.52 0.87 0.76
-9.02 0.93 0.83
-8.55 1.12 0.89
-8.82 1.20 0.86
-8.82 1.25 0.85
-8.77 1.26 0.86
-5.04 -1.21 1.07
-5.19 -1.20 1.05
-5.14 -1.17 1.06
-5.17 -1.14 1.05
-5.23 -1.13 1.04
-5.24 -1.11 1.04
-5.18 -1.08 1.05
-5.16 -1.06 1.05
-5.33 -1.07 1.03
-5.34 -1.05 1.03
-5.61 -1.07 0.99
-5.87 -1.08 0.95
-6.11 -1.09 0.92
-6.05 -1.06 0.93
-5.93 -1.03 0.94
-6.07 -1.02 0.92
-6.10 -1.00 0.92
-5.97 -0.97 0.94
-6.34 -0.99 0.89
-5.40 -0.87 1.02
-6.10 -0.92 0.92
-9.95 -1.26 0.37
-6.11 -0.86 0.92
-5.80 -0.81 0.96
-5.41 -0.75 1.02
-4.99 -0.69 1.08
-10.10 -1.13 0.35
-5.50 -0.70 1.01
-10.52 -1.10 0.29
-10.26 -1.05 0.32
-9.98 -1.00 0.36
-5.11 -0.59 1.07
-9.97 -0.94 0.37
-10.09 -0.91 0.35
-9.99 -0.88 0.36
-9.86 -0.84 0.38
-9.55 -0.79 0.43
-9.78 -0.77 0.39
-9.09 -0.70 0.49
-9.32 -0.69 0.46
-8.95 -0.64 0.51
-9.12 -0.59 0.49
-8.24 -0.52 0.62
-8.15 -0.47 0.63
-8.30 -0.45 0.61
-9.46 -0.47 0.44
-8.71 -0.41 0.55
-9.62 -0.30 0.76
-9.27 -0.20 0.81
-9.41 -0.16 0.79
-9.35 -0.13 0.80
-9.26 -0.11 0.81
-9.01 -0.06 0.85
-9.12 -0.02 0.83
-8.57 0.02 0.48
-9.50 0.68 0.70
-6.21 -1.03 0.84
-7.05 -1.06 0.71
-7.05 -0.69 0.71
-9.82 -0.77 0.30
-9.45 -0.72 0.35
-8.84 -0.63 0.44
-8.88 -0.58 0.44
-8.73 -0.52 0.46
-9.20 -0.43 0.39
-9.01 -0.36 0.42
-9.11 -0.34 0.40
-8.23 -0.26 0.54
-8.45 -0.19 0.50
-8.18 -0.11 0.54
-8.99 0.02 0.71
-8.98 0.05 0.71
-9.08 0.07 0.69
-9.05 0.09 0.70
-8.97 0.11 0.71
-8.98 0.13 0.71
-9.09 0.18 0.69
-9.43 0.21 0.64
-10.53 0.29 0.46
-9.01 0.27 0.70
-9.47 0.35 0.63
-9.52 0.66 0.61
-9.91 0.76 0.55
-9.69 0.76 0.59
-9.63 0.78 0.59
-9.67 0.81 0.59
-9.97 0.88 0.54
-9.90 0.90 0.55
-10.00 0.93 0.53
-10.41 1.00 0.47
-10.12 0.99 0.51
-10.17 1.03 0.50
-9.12 1.01 0.67
-5.49 -1.11 0.88
-5.46 -1.09 0.88
-6.08 -1.11 0.78
-6.21 -1.08 0.77
-6.19 -1.06 0.77
-6.22 -1.04 0.76
-6.82 -1.09 0.67
-6.86 -1.07 0.66
-6.75 -1.04 0.68
-6.61 -1.00 0.70
-6.71 -0.99 0.69
-6.50 -0.94 0.72
-6.46 -0.92 0.73
-6.18 -0.87 0.77
-6.57 -0.88 0.71
-10.62 -1.24 0.06
-10.66 -1.21 0.06
-10.60 -1.17 0.07
-10.62 -1.14 0.06
-6.52 -0.77 0.72
-10.60 -1.08 0.07
-10.61 -1.05 0.07
-10.59 -1.01 0.07
-10.62 -0.99 0.06
-10.48 -0.94 0.09
-10.41 -0.91 0.10
-5.26 -0.53 0.92
-10.57 -0.86 0.07
-5.59 -0.51 0.87
-10.41 -0.78 0.10
-5.33 -0.46 0.91
-10.41 -0.72 0.10
-9.69 -0.49 0.60
-9.87 -0.48 0.57
-9.97 -0.46 0.55
-9.77 -0.43 0.59
-9.92 -0.41 0.56
-9.73 -0.38 0.59
-9.24 -0.22 0.67
-9.22 -0.20 0.67
-9.19 -0.18 0.68
-9.12 -0.15 0.69
-9.09 -0.13 0.69
-9.06 -0.06 0.70
-8.87 -0.04 0.73
-9.18 -0.02 0.68
-8.97 0.00 0.71
-8.53 -0.01 0.31
-8.45 0.02 0.32
-8.34 0.05 0.34
-7.73 0.07 0.44
-8.91 0.11 0.65
-8.93 0.13 0.65
-8.88 0.15 0.65
-8.60 0.17 0.70
-8.74 0.19 0.68
-8.69 0.21 0.69
-8.68 0.24 0.69
-8.48 0.25 0.72
-8.35 0.27 0.74
-8.50 0.31 0.71
-9.20 0.63 0.59
