# .PCD v0.7 - Point Cloud Data file format
VERSION 0.7
FIELDS x y z
SIZE 4 4 4
TYPE F F F
COUNT 1 1 1
WIDTH 2892
HEIGHT 1
VIEWPOINT 0 0 0 1 0 0 0
POINTS 2892
DATA ASCII
-2.03 0.68 0.29
-1.99 0.68 0.30
-1.90 0.71 0.30
-1.85 0.71 0.31
-2.57 0.42 0.21
-2.22 0.65 0.26
-2.01 0.59 0.29
-2.07 0.65 0.28
-1.96 0.58 0.30
-2.23 0.79 0.24
-2.16 0.76 0.25
-2.04 0.68 0.28
-1.90 0.73 0.29
-0.44 -0.21 0.36
-0.46 -0.25 0.37
-1.93 0.44 0.31
-2.16 0.65 0.25
-2.17 0.67 0.25
-2.12 0.67 0.25
-2.08 0.67 0.26
-1.99 0.70 0.27
-1.95 0.71 0.28
-1.90 0.71 0.28
-1.85 0.71 0.29
-1.81 0.72 0.29
-1.77 0.82 0.29
-0.47 -0.25 0.36
-0.52 -0.58 0.34
-0.49 -0.69 0.32
-1.92 0.44 0.30
-2.12 0.67 0.24
-1.96 0.59 0.28
-2.04 0.68 0.25
-1.99 0.68 0.26
-1.84 0.60 0.29
-1.94 0.70 0.27
-1.85 0.71 0.28
-1.76 0.82 0.28
-0.50 -0.39 0.35
-0.54 -0.55 0.33
-0.52 -0.61 0.33
-0.56 -0.68 0.32
-2.25 0.47 0.23
-1.92 0.44 0.29
-2.03 0.54 0.26
-2.00 0.57 0.26
-2.12 0.67 0.23
-1.96 0.57 0.27
-1.97 0.60 0.26
-2.03 0.66 0.25
-2.04 0.69 0.24
-1.94 0.70 0.25
-1.89 0.70 0.26
-1.85 0.72 0.27
-1.91 0.82 0.24
-1.80 0.72 0.27
-1.77 0.84 0.26
-0.54 -0.56 0.32
-0.54 -0.57 0.32
-0.52 -0.68 0.31
-1.91 0.57 0.26
-1.88 0.59 0.27
-1.94 0.71 0.24
-1.90 0.71 0.25
-1.90 0.73 0.25
-1.81 0.72 0.26
-1.77 0.82 0.25
-0.42 -0.19 0.33
-0.48 -0.26 0.34
-0.52 -0.61 0.31
-2.00 0.55 0.24
-1.96 0.58 0.24
-1.88 0.59 0.26
-1.94 0.69 0.23
-1.94 0.70 0.23
-1.85 0.72 0.24
-0.46 -0.25 0.33
-0.50 -0.25 0.33
-0.48 -0.30 0.32
-0.51 -0.45 0.31
-0.54 -0.58 0.30
-0.54 -0.73 0.28
-1.88 0.57 0.25
-0.41 -0.02 0.32
-0.43 -0.06 0.32
-0.46 -0.07 0.33
-0.47 -0.09 0.33
-0.46 -0.25 0.32
-0.53 -0.23 0.33
-0.49 -0.36 0.31
-0.50 -0.37 0.31
-0.55 -0.56 0.30
-0.55 -0.57 0.30
-1.92 0.56 0.23
-1.88 0.59 0.24
-0.45 -0.04 0.32
-0.50 -0.42 0.30
-0.55 -0.56 0.29
-0.53 -0.60 0.28
-1.93 0.45 0.24
-0.44 -0.02 0.31
-0.49 -0.33 0.30
-0.50 -0.39 0.30
-0.51 -0.11 0.31
-0.56 -0.22 0.32
-0.56 -0.27 0.31
-0.48 -0.32 0.29
-0.58 -0.35 0.31
-0.55 -0.24 0.31
-0.49 -0.34 0.28
-0.49 -0.35 0.28
-0.66 -0.58 0.28
-0.48 -0.05 0.29
-0.49 -0.07 0.30
-0.53 -0.12 0.30
-0.54 -0.24 0.29
-0.52 -0.12 0.29
-0.55 -0.23 0.29
-0.69 -0.23 0.30
-0.66 -0.17 0.28
-3.32 1.17 2.22
-1.04 -0.39 2.21
-1.18 -0.90 2.18
-0.90 -1.11 2.15
-1.25 -0.87 2.15
-1.21 -0.86 2.14
-6.78 -0.11 2.07
-0.90 -1.08 2.10
-6.57 -0.31 1.96
-6.39 -0.07 1.97
-8.53 -0.08 1.96
-1.19 -1.20 2.07
-1.54 -1.19 2.06
-6.05 -0.25 1.92
-6.16 -0.19 1.92
-6.05 -0.17 1.92
-9.87 0.51 1.86
-9.84 0.55 1.86
-10.07 0.61 1.85
-6.21 -0.28 1.88
-6.21 -0.26 1.88
-6.36 -0.24 1.88
-6.19 -0.21 1.88
-6.19 -0.19 1.88
-3.79 0.48 2.04
-5.25 -0.49 1.88
-4.89 -0.38 1.90
-6.46 -0.31 1.84
-6.20 -0.25 1.85
-6.17 -0.17 1.85
-10.00 0.56 1.78
-9.91 0.58 1.78
-9.85 0.60 1.78
-9.88 0.55 1.74
-9.87 0.58 1.74
-1.65 -0.91 1.99
-6.14 -0.13 1.78
-6.00 -0.08 1.79
-9.95 0.46 1.69
-9.92 0.48 1.69
-9.84 0.53 1.70
-9.93 0.56 1.69
-9.80 0.58 1.70
-9.65 0.59 1.71
-9.81 0.65 1.70
-9.98 0.68 1.69
-1.43 -1.42 1.97
-1.99 -1.21 1.95
-9.79 0.50 1.66
-9.79 0.53 1.66
-9.62 0.56 1.66
-1.40 -1.42 1.96
-1.42 -0.78 1.96
-1.33 -0.25 1.97
-5.46 -0.43 1.74
-5.75 -0.42 1.73
-5.53 -0.39 1.74
-5.64 -0.38 1.73
-5.82 -0.36 1.72
-6.02 -0.35 1.71
-5.54 -0.31 1.74
-5.69 -0.30 1.73
-5.86 -0.29 1.72
-5.97 -0.19 1.71
-6.00 -0.15 1.71
-6.33 -0.09 1.69
-5.97 -0.06 1.71
-7.88 0.35 1.72
-10.19 0.50 1.58
-9.85 0.53 1.60
-9.48 0.56 1.62
-9.02 0.95 1.65
-9.07 1.00 1.64
-1.64 -0.83 1.93
-5.50 -0.49 1.70
-5.24 -0.43 1.72
-5.51 -0.43 1.70
-5.72 -0.42 1.69
-5.65 -0.40 1.69
-5.42 -0.37 1.71
-5.62 -0.36 1.69
-5.62 -0.34 1.69
-5.65 -0.32 1.69
-5.77 -0.30 1.68
-5.76 -0.28 1.68
-5.79 -0.26 1.68
-5.93 -0.25 1.67
-5.75 -0.22 1.68
-5.54 -0.20 1.70
-5.64 -0.18 1.69
-5.79 -0.16 1.68
-5.44 -0.14 1.70
-8.24 0.30 1.66
-9.95 0.41 1.55
-8.97 0.39 1.61
-9.23 0.59 1.60
-9.70 0.92 1.56
-9.10 0.89 1.60
-9.02 1.00 1.60
-8.83 1.00 1.62
-0.85 -0.84 1.96
-1.36 -0.78 1.93
-5.56 -0.41 1.66
-5.89 -0.39 1.64
-5.80 -0.36 1.64
-5.67 -0.34 1.65
-5.34 -0.31 1.67
-5.64 -0.30 1.65
-5.87 -0.29 1.64
-5.65 -0.26 1.65
-6.06 -0.25 1.63
-5.67 -0.22 1.65
-5.43 -0.19 1.67
-5.45 -0.18 1.67
-5.34 -0.15 1.67
-5.62 -0.14 1.65
-5.50 -0.12 1.66
-5.43 -0.10 1.67
-5.55 -0.08 1.66
-5.57 -0.06 1.66
-5.47 -0.04 1.66
-8.34 0.27 1.61
-8.30 0.31 1.61
-8.23 0.32 1.62
-8.20 0.34 1.62
-9.95 0.46 1.50
-9.90 0.51 1.50
-9.84 0.53 1.51
-9.09 0.51 1.56
-9.23 0.54 1.55
-9.27 0.57 1.54
-10.12 0.67 1.49
-9.28 0.86 1.54
-9.22 0.88 1.54
-9.11 0.89 1.55
-9.13 0.92 1.55
-9.12 0.94 1.55
-8.98 0.95 1.56
-9.10 0.98 1.55
-8.85 0.98 1.57
-1.05 -1.14 1.93
-0.92 -0.84 1.94
-4.64 -0.42 1.68
-5.80 -0.46 1.60
-5.90 -0.41 1.59
-5.53 -0.37 1.62
-5.62 -0.36 1.61
-5.49 -0.33 1.62
-5.75 -0.32 1.60
-6.02 0.20 1.54
-9.73 0.55 1.46
-9.62 0.61 1.47
-9.81 0.67 1.46
-8.91 0.85 1.52
-8.95 0.90 1.51
-9.02 0.93 1.51
-6.29 -0.53 1.52
-6.20 -0.46 1.53
-5.79 -0.40 1.56
-5.58 -0.37 1.57
-5.65 -0.36 1.57
-5.46 -0.33 1.58
-5.59 -0.32 1.57
-5.49 -0.29 1.58
-5.54 -0.27 1.58
-5.04 -0.24 1.61
-5.11 -0.22 1.61
-5.20 -0.21 1.60
-5.15 -0.19 1.60
-5.32 -0.17 1.59
-5.32 -0.15 1.59
-5.11 -0.13 1.61
-5.62 -0.12 1.57
-5.44 -0.10 1.58
-5.43 -0.08 1.58
-5.25 -0.06 1.60
-5.73 -0.02 1.56
-8.59 0.27 1.50
-8.64 0.30 1.49
-8.60 0.32 1.49
-9.99 0.39 1.39
-9.74 0.40 1.40
-9.52 0.42 1.42
-9.84 0.46 1.40
-9.41 0.46 1.43
-9.83 0.50 1.40
-9.42 0.51 1.43
-9.95 0.56 1.39
-9.63 0.57 1.41
-9.54 0.58 1.42
-9.38 0.60 1.43
-9.31 0.64 1.44
-9.50 0.67 1.42
-9.37 0.69 1.43
-9.36 0.71 1.43
-9.79 0.79 1.40
-8.92 0.79 1.46
-8.84 0.83 1.47
-8.94 0.86 1.46
-9.00 0.88 1.46
-9.23 0.95 1.44
-9.13 1.03 1.45
-8.89 1.03 1.46
-9.04 1.07 1.45
-1.58 -0.86 1.84
-6.34 -0.99 1.46
-6.28 -0.96 1.47
-6.16 -0.93 1.48
-6.23 -0.89 1.47
-7.07 -0.90 1.41
-6.59 -0.77 1.44
-6.34 -0.67 1.46
-6.55 -0.66 1.45
-4.50 -0.50 1.61
-6.16 -0.59 1.48
-6.55 -0.59 1.45
-6.41 -0.56 1.46
-6.43 -0.54 1.46
-6.99 -0.37 1.62
-7.04 -0.34 1.62
-6.52 -0.30 1.66
-7.04 -0.31 1.62
-6.87 -0.28 1.63
-6.74 -0.26 1.64
-6.82 -0.25 1.64
-6.76 -0.23 1.64
-7.00 -0.20 1.62
-6.94 -0.19 1.63
-7.12 -0.10 1.61
-8.79 -0.04 1.48
-5.45 -0.00 1.50
-5.41 0.04 1.50
-8.40 0.23 1.47
-8.63 0.30 1.45
-8.47 0.31 1.46
-8.52 0.33 1.46
-9.80 0.41 1.35
-8.59 0.42 1.45
-9.80 0.50 1.35
-9.66 0.52 1.36
-9.49 0.53 1.38
-9.34 0.59 1.39
-8.62 0.57 1.45
-9.56 0.70 1.37
-9.41 0.71 1.38
-9.68 0.80 1.36
-9.43 0.81 1.38
-9.09 0.82 1.40
-8.91 0.83 1.42
-8.80 0.84 1.43
-8.92 0.88 1.42
-8.99 0.90 1.41
-8.74 0.90 1.43
-9.09 0.96 1.40
-8.83 0.95 1.42
-8.98 0.99 1.41
-9.09 1.03 1.40
-9.11 1.05 1.40
-9.19 1.08 1.39
-9.24 1.11 1.39
-6.43 -1.04 1.41
-6.17 -0.97 1.43
-6.27 -0.96 1.43
-6.23 -0.93 1.43
-6.28 -0.91 1.42
-6.49 -0.91 1.41
-6.51 -0.89 1.41
-6.50 -0.87 1.41
-6.62 -0.66 1.40
-6.63 -0.64 1.40
-6.32 -0.60 1.42
-6.51 -0.59 1.41
-5.92 -0.53 1.46
-6.31 -0.53 1.42
-6.14 -0.50 1.44
-5.67 -0.44 1.48
-5.57 -0.41 1.49
-5.46 -0.39 1.49
-5.61 -0.38 1.48
-5.32 -0.34 1.51
-5.20 -0.32 1.52
-5.29 -0.30 1.51
-5.31 -0.27 1.51
-5.22 -0.25 1.52
-5.04 -0.22 1.53
-5.02 -0.20 1.53
-5.13 -0.19 1.52
-5.23 -0.17 1.51
-5.18 -0.15 1.52
-5.21 -0.12 1.51
-5.75 -0.10 1.47
-5.30 -0.08 1.51
-5.18 -0.06 1.52
-5.42 -0.04 1.50
-5.49 -0.02 1.49
-6.70 0.04 1.57
-7.24 0.07 1.52
-7.23 0.09 1.52
-7.50 0.11 1.49
-7.15 0.12 1.52
-7.26 0.14 1.51
-8.51 0.19 1.40
-8.59 0.23 1.40
-8.37 0.25 1.42
-8.75 0.28 1.38
-8.95 0.31 1.36
-9.20 0.34 1.34
-8.23 0.32 1.43
-8.85 0.39 1.37
-8.44 0.39 1.41
-9.48 0.46 1.31
-9.82 0.50 1.28
-8.55 0.46 1.40
-8.39 0.47 1.41
-8.66 0.51 1.39
-8.92 0.55 1.36
-9.05 0.58 1.35
-9.91 0.65 1.27
-9.24 0.66 1.33
-9.44 0.69 1.32
-9.48 0.72 1.31
-9.85 0.77 1.28
-9.65 0.80 1.29
-9.04 0.77 1.35
-8.77 0.77 1.37
-8.72 0.79 1.38
-9.00 0.84 1.35
-8.95 0.86 1.36
-8.85 0.87 1.37
-8.84 0.89 1.37
-9.04 0.93 1.35
-8.97 0.95 1.35
-8.94 0.97 1.36
-8.93 0.99 1.36
-9.02 1.02 1.35
-9.20 1.06 1.33
-9.08 1.07 1.34
-9.09 1.09 1.34
-9.29 1.14 1.32
-9.16 1.15 1.33
-9.03 1.16 1.34
-6.13 -1.11 1.38
-6.18 -1.09 1.38
-6.17 -1.07 1.38
-6.19 -1.05 1.38
-6.22 -1.04 1.37
-6.12 -1.00 1.38
-6.20 -0.97 1.37
-6.29 -0.96 1.37
-6.33 -0.94 1.36
-6.33 -0.92 1.36
-6.29 -0.89 1.37
-6.32 -0.88 1.36
-6.56 -0.88 1.34
-6.62 -0.84 1.34
-6.68 -0.82 1.33
-6.74 -0.81 1.33
-6.57 -0.75 1.34
-3.96 -0.46 1.58
-6.80 -0.63 1.32
-4.36 -0.45 1.54
-4.67 -0.45 1.52
-6.65 -0.56 1.33
-6.78 -0.54 1.32
-6.78 -0.50 1.32
-6.47 -0.46 1.35
-5.92 -0.41 1.40
-5.23 -0.36 1.46
-5.27 -0.34 1.46
-5.19 -0.32 1.47
-5.28 -0.29 1.46
-5.12 -0.26 1.47
-5.30 -0.25 1.46
-5.20 -0.23 1.47
-5.27 -0.21 1.46
-5.32 -0.19 1.46
-5.22 -0.17 1.46
-5.20 -0.15 1.46
-9.51 -0.11 1.32
-7.16 -0.05 1.52
-7.63 -0.02 1.48
-9.27 0.00 1.34
-4.91 -0.00 1.45
-5.01 0.01 1.44
-4.95 0.03 1.45
-10.34 0.09 0.92
-5.20 0.07 1.42
-5.59 0.09 1.38
-10.56 0.18 0.90
-6.68 0.15 1.28
-5.79 0.16 1.36
-6.80 0.20 1.27
-6.95 0.22 1.25
-8.97 0.39 1.31
-9.80 0.45 1.23
-9.87 0.50 1.22
-8.13 0.46 1.39
-8.40 0.49 1.36
-8.27 0.51 1.38
-8.53 0.56 1.35
-9.33 0.64 1.27
-9.13 0.67 1.29
-9.54 0.72 1.25
-9.07 0.71 1.30
-9.46 0.76 1.26
-9.73 0.81 1.23
-8.93 0.76 1.31
-9.23 0.81 1.28
-8.96 0.81 1.31
-8.89 0.83 1.31
-8.88 0.85 1.31
-9.10 0.89 1.29
-9.05 0.91 1.29
-8.91 0.92 1.31
-8.88 0.94 1.31
-9.02 0.97 1.30
-9.01 0.99 1.30
-8.95 1.01 1.30
-9.10 1.05 1.29
-9.05 1.07 1.29
-9.14 1.10 1.28
-8.97 1.10 1.30
-9.16 1.15 1.28
-1.94 -1.38 1.73
-6.23 -1.06 1.32
-6.09 -1.00 1.34
-6.17 -0.99 1.33
-6.18 -0.95 1.33
-6.50 -0.96 1.30
-6.53 -0.94 1.29
-6.50 -0.91 1.30
-6.55 -0.90 1.29
-6.67 -0.89 1.28
-6.61 -0.86 1.29
-6.65 -0.84 1.28
-6.61 -0.82 1.29
-6.51 -0.78 1.30
-6.63 -0.77 1.29
-6.87 -0.77 1.26
-6.82 -0.72 1.27
-6.50 -0.68 1.30
-6.48 -0.65 1.30
-3.54 -0.43 1.59
-6.88 -0.64 1.26
-3.96 -0.43 1.54
-6.91 -0.59 1.26
-6.99 -0.57 1.25
-6.88 -0.54 1.26
-6.55 -0.50 1.29
-5.59 -0.43 1.39
-5.51 -0.41 1.39
-6.94 -0.46 1.26
-5.37 -0.36 1.41
-5.20 -0.34 1.42
-5.06 -0.31 1.44
-5.21 -0.30 1.42
-5.24 -0.28 1.42
-2.98 -0.19 1.64
-5.17 -0.24 1.43
-5.24 -0.23 1.42
-5.23 -0.21 1.42
-5.12 -0.19 1.43
-5.30 -0.17 1.41
-5.31 -0.15 1.41
-5.30 -0.14 1.41
-5.38 -0.12 1.41
-5.27 -0.10 1.42
-5.13 -0.08 1.43
-5.09 -0.06 1.43
-5.04 -0.04 1.44
-4.79 -0.02 1.46
-7.38 0.02 1.41
-6.56 0.05 1.50
-6.36 0.06 1.52
-6.42 0.08 1.51
-6.14 0.09 1.54
-6.62 0.12 1.49
-6.44 0.13 1.51
-6.56 0.16 1.50
-8.60 0.25 1.29
-8.45 0.27 1.30
-7.43 0.26 1.41
-9.48 0.35 1.20
-9.16 0.36 1.23
-9.76 0.40 1.17
-9.54 0.42 1.19
-8.34 0.39 1.31
-9.64 0.47 1.18
-8.06 0.42 1.34
-7.75 0.42 1.37
-8.16 0.46 1.33
-7.77 0.46 1.37
-9.34 0.57 1.21
-8.66 0.55 1.28
-8.92 0.59 1.25
-9.13 0.63 1.23
-9.92 0.70 1.15
-9.00 0.66 1.24
-7.44 0.57 1.40
-9.17 0.72 1.22
-9.27 0.75 1.22
-8.91 0.74 1.25
-9.78 0.84 1.16
-9.81 0.86 1.16
-9.29 0.84 1.21
-9.73 0.90 1.17
-8.75 0.84 1.27
-9.75 0.95 1.16
-9.99 1.00 1.14
-10.00 1.03 1.14
-9.66 1.02 1.17
-8.80 0.95 1.26
-8.99 0.99 1.24
-9.02 1.02 1.24
-8.96 1.04 1.24
-9.00 1.06 1.24
-8.93 1.08 1.24
-8.97 1.10 1.24
-9.09 1.14 1.23
-9.02 1.15 1.23
-9.02 1.18 1.23
-9.09 1.23 1.22
-9.02 1.25 1.23
-6.25 -1.00 1.26
-6.29 -0.98 1.26
-6.42 -0.97 1.25
-6.47 -0.96 1.24
-6.43 -0.93 1.24
-6.47 -0.91 1.24
-6.49 -0.89 1.24
-6.46 -0.87 1.24
-6.52 -0.85 1.24
-6.61 -0.84 1.23
-6.43 -0.80 1.24
-6.74 -0.81 1.21
-6.93 -0.80 1.19
-7.20 -0.80 1.17
-7.58 -0.81 1.13
-7.38 -0.77 1.15
-7.48 -0.75 1.14
-7.16 -0.70 1.17
-7.08 -0.67 1.18
-7.05 -0.65 1.18
-7.00 -0.62 1.19
-7.02 -0.60 1.18
-7.01 -0.58 1.18
-6.87 -0.55 1.20
-6.94 -0.53 1.19
-5.65 -0.44 1.33
-5.49 -0.41 1.34
-5.29 -0.38 1.36
-5.21 -0.36 1.37
-5.02 -0.33 1.39
-5.11 -0.32 1.38
-5.12 -0.30 1.38
-7.38 -0.25 1.42
-7.64 -0.24 1.39
-7.79 -0.23 1.37
-7.69 -0.21 1.38
-7.70 -0.19 1.38
-7.65 -0.17 1.39
-10.60 -0.15 1.09
-7.33 -0.07 1.42
-7.43 -0.02 1.41
-6.90 0.00 1.46
-4.58 -0.00 1.39
-10.56 0.09 0.73
-10.52 0.12 0.73
-10.35 0.15 0.75
-7.22 0.14 1.10
-7.04 0.16 1.12
-6.98 0.18 1.12
-7.03 0.20 1.12
-7.09 0.23 1.11
-6.99 0.25 1.12
-6.89 0.27 1.13
-6.92 0.29 1.13
-7.27 0.33 1.09
-7.39 0.35 1.08
-7.14 0.37 1.11
-9.72 0.50 0.82
-7.02 0.41 1.12
-6.60 0.41 1.16
-9.19 0.65 1.16
-10.05 0.73 1.07
-10.27 0.80 1.05
-10.12 0.81 1.06
-10.07 0.83 1.07
-9.92 0.85 1.08
-10.09 0.88 1.06
-9.93 0.90 1.08
-9.84 0.91 1.09
-10.02 0.95 1.07
-10.12 0.99 1.06
-10.01 1.00 1.07
-10.27 1.13 1.04
-10.17 1.19 1.05
-9.12 1.12 1.16
-8.92 1.12 1.19
-8.93 1.14 1.18
-6.64 -0.99 1.16
-6.71 -0.98 1.16
-6.56 -0.94 1.17
-6.66 -0.93 1.16
-6.53 -0.90 1.18
-6.61 -0.88 1.17
-7.38 -0.91 1.08
-7.11 -0.86 1.11
-7.12 -0.84 1.11
-7.42 -0.81 1.08
-7.42 -0.79 1.08
-7.22 -0.75 1.10
-7.11 -0.70 1.11
-7.12 -0.67 1.11
-7.43 -0.67 1.08
-7.20 -0.63 1.10
-6.78 -0.58 1.15
-7.46 -0.60 1.07
-7.29 -0.57 1.09
-7.95 -0.56 1.02
-7.70 -0.52 1.05
-5.62 -0.36 1.28
-5.36 -0.33 1.31
-5.22 -0.30 1.32
-5.32 -0.29 1.31
-5.12 -0.26 1.33
-5.14 -0.24 1.33
-5.29 -0.23 1.31
-5.09 -0.20 1.33
-5.17 -0.19 1.33
-5.36 -0.17 1.31
-5.65 -0.16 1.27
-5.18 -0.13 1.32
-5.28 -0.12 1.31
-10.25 -0.16 0.77
-5.09 -0.08 1.33
-4.86 -0.04 1.36
-4.84 -0.02 1.36
-6.44 0.02 1.42
-5.80 0.03 1.49
-5.99 0.05 1.47
-6.02 0.06 1.47
-6.08 0.09 1.46
-6.45 0.13 1.42
-6.56 0.15 1.40
-6.57 0.18 1.40
-9.51 0.30 1.07
-9.69 0.33 1.04
-7.95 0.31 1.24
-7.76 0.32 1.26
-8.03 0.36 1.23
-9.42 0.44 1.07
-8.14 0.40 1.22
-8.18 0.42 1.21
-9.51 0.51 1.06
-9.56 0.54 1.06
-9.62 0.56 1.05
-9.35 0.57 1.08
-9.78 0.62 1.03
-9.94 0.65 1.01
-9.46 0.65 1.07
-9.86 0.70 1.02
-9.99 0.73 1.00
-9.85 0.75 1.02
-9.80 0.77 1.03
-10.01 0.81 1.00
-9.79 0.81 1.03
-9.77 0.84 1.03
-8.99 0.79 1.12
-8.87 0.81 1.13
-9.78 0.91 1.03
-9.45 0.90 1.06
-9.69 0.95 1.04
-9.69 0.97 1.04
-10.04 1.03 0.99
-10.29 1.08 0.97
-10.12 1.09 0.98
-6.81 0.76 1.37
-10.30 1.16 0.96
-9.00 1.04 1.11
-9.09 1.07 1.10
-9.08 1.09 1.10
-9.20 1.13 1.09
-9.37 1.17 1.07
-9.30 1.19 1.07
-9.72 1.27 1.03
-9.25 1.23 1.08
-9.00 1.22 1.11
-8.88 1.23 1.12
-9.14 1.28 1.09
-9.09 1.30 1.10
-6.98 1.03 1.34
-6.88 1.03 1.35
-1.44 -1.04 1.70
-6.30 -1.26 1.13
-6.70 -1.09 1.09
-6.55 -1.05 1.11
-6.67 -1.05 1.09
-6.63 -1.02 1.10
-6.58 -0.99 1.10
-6.65 -0.98 1.10
-6.59 -0.95 1.10
-6.80 -0.95 1.08
-6.67 -0.91 1.09
-6.74 -0.90 1.09
-6.65 -0.87 1.10
-6.50 -0.83 1.11
-7.09 -0.86 1.04
-6.44 -0.78 1.12
-7.21 -0.82 1.03
-6.62 -0.73 1.10
-6.97 -0.74 1.06
-6.97 -0.71 1.06
-7.47 -0.73 1.00
-6.29 -0.62 1.14
-6.39 -0.61 1.13
-6.79 -0.61 1.08
-6.16 -0.55 1.15
-5.93 -0.51 1.18
-5.92 -0.49 1.18
-6.55 -0.35 1.41
-6.40 -0.33 1.43
-6.36 -0.31 1.43
-6.26 -0.29 1.44
-6.31 -0.28 1.44
-6.23 -0.26 1.45
-6.16 -0.24 1.45
-6.30 -0.23 1.44
-6.23 -0.21 1.44
-6.23 -0.20 1.44
-6.12 -0.18 1.46
-6.23 -0.17 1.44
-6.15 -0.15 1.45
-6.10 -0.13 1.46
-6.22 -0.12 1.45
-6.25 -0.11 1.44
-6.02 -0.09 1.47
-6.21 -0.07 1.45
-6.24 -0.06 1.44
-6.06 -0.04 1.46
-6.22 -0.03 1.44
-7.10 -0.02 1.34
-6.26 0.00 1.44
-4.75 -0.00 1.27
-4.62 0.01 1.29
-6.00 0.05 1.43
-6.29 0.06 1.39
-6.42 0.11 1.38
-9.68 0.24 0.98
-9.66 0.26 0.98
-7.60 0.24 1.23
-9.05 0.33 1.06
-9.39 0.37 1.01
-9.52 0.39 1.00
-8.67 0.38 1.10
-9.07 0.42 1.05
-9.37 0.46 1.02
-9.51 0.49 1.00
-9.75 0.52 0.97
-9.77 0.55 0.97
-9.51 0.56 1.00
-9.52 0.58 1.00
-9.73 0.62 0.97
-9.68 0.64 0.98
-9.28 0.63 1.03
-9.47 0.67 1.00
-9.57 0.70 0.99
-9.68 0.73 0.98
-9.80 0.77 0.96
-9.05 0.73 1.05
-7.12 0.60 1.29
-7.32 0.63 1.26
-9.05 0.80 1.05
-9.37 0.85 1.01
-6.91 0.65 1.31
-9.61 0.92 0.98
-6.97 0.69 1.30
-8.44 0.85 1.12
-7.04 0.73 1.29
-6.91 0.74 1.31
-6.96 0.76 1.30
-9.88 1.09 0.94
-9.73 1.09 0.96
-9.84 1.13 0.95
-9.84 1.16 0.95
-8.97 1.10 1.05
-9.74 1.22 0.96
-9.83 1.25 0.95
-7.04 0.93 1.29
-6.95 0.93 1.30
-6.83 0.93 1.31
-6.84 0.95 1.31
-7.04 1.01 1.29
-7.03 1.03 1.29
-7.11 1.08 1.28
-6.98 1.08 1.29
-9.05 1.41 1.04
-6.25 -1.29 1.08
-6.35 -1.29 1.07
-6.28 -1.26 1.08
-6.38 -1.23 1.07
-6.42 -1.21 1.06
-6.59 -1.21 1.04
-6.65 -1.20 1.03
-6.59 -1.17 1.04
-6.51 -1.13 1.05
-6.63 -1.13 1.04
-6.66 -1.11 1.03
-6.67 -1.09 1.03
-6.68 -1.07 1.03
-6.65 -1.04 1.04
-6.59 -1.01 1.04
-6.70 -1.00 1.03
-6.64 -0.97 1.04
-6.59 -0.95 1.04
-6.64 -0.93 1.04
-6.74 -0.92 1.03
-6.58 -0.88 1.04
-6.38 -0.84 1.07
-6.23 -0.80 1.09
-5.88 -0.75 1.13
-6.38 -0.77 1.07
-1.47 -0.34 1.68
-3.79 -0.52 1.39
-6.22 -0.70 1.09
-6.32 -0.68 1.08
-6.55 -0.68 1.05
-7.09 -0.70 0.98
-7.21 -0.68 0.97
-6.75 -0.63 1.02
-6.60 -0.60 1.04
-6.29 -0.56 1.08
-6.23 -0.53 1.09
-6.12 -0.50 1.10
-5.50 -0.45 1.18
-5.47 -0.43 1.18
-5.19 -0.39 1.22
-5.72 -0.40 1.15
-5.76 -0.38 1.15
-5.82 -0.37 1.14
-5.34 -0.33 1.20
-5.26 -0.30 1.21
-5.39 -0.29 1.19
-5.41 -0.27 1.19
-5.36 -0.25 1.20
-5.08 -0.22 1.23
-5.17 -0.21 1.22
-5.18 -0.19 1.22
-5.26 -0.17 1.21
-5.14 -0.15 1.22
-5.24 -0.13 1.21
-5.38 -0.12 1.19
-4.95 -0.09 1.25
-4.91 -0.08 1.25
-4.80 -0.06 1.26
-4.87 -0.04 1.26
-4.80 -0.02 1.26
-6.18 0.02 1.36
-6.07 0.03 1.37
-7.48 0.07 1.19
-7.53 0.09 1.19
-9.07 0.13 0.99
-7.26 0.14 1.22
-9.27 0.20 0.96
-10.48 0.25 0.81
-9.55 0.26 0.93
-8.95 0.28 1.00
-9.38 0.34 0.95
-9.38 0.37 0.95
-9.25 0.38 0.96
-9.13 0.40 0.98
-9.10 0.42 0.98
-9.25 0.45 0.96
-9.27 0.47 0.96
-9.32 0.50 0.95
-9.53 0.53 0.92
-9.61 0.56 0.91
-9.52 0.58 0.93
-9.13 0.58 0.97
-9.47 0.62 0.93
-9.14 0.63 0.97
-9.25 0.66 0.96
-7.64 0.56 1.17
-9.45 0.72 0.93
-9.50 0.74 0.93
-7.57 0.62 1.17
-9.33 0.78 0.95
-7.38 0.64 1.20
-9.14 0.81 0.97
-8.96 0.81 0.99
-9.09 0.85 0.98
-7.83 0.75 1.14
-7.19 0.71 1.22
-7.96 0.80 1.12
-8.23 0.85 1.09
-9.36 0.99 0.94
-6.84 0.75 1.26
-6.94 0.77 1.25
-6.95 0.79 1.25
-9.59 1.10 0.91
-8.26 0.98 1.08
-9.56 1.15 0.91
-8.39 1.03 1.06
-9.77 1.22 0.88
-6.88 0.89 1.26
-6.96 0.92 1.25
-6.86 0.92 1.26
-6.90 0.94 1.25
-6.91 0.96 1.25
-7.00 0.99 1.24
-6.77 0.98 1.27
-7.21 1.06 1.21
-6.89 1.03 1.25
-8.97 1.35 0.98
-8.83 1.35 1.00
-6.91 1.08 1.25
-7.01 1.12 1.23
-9.02 1.45 0.97
-9.00 1.47 0.97
-8.74 1.45 1.01
-6.25 -1.38 1.02
-6.31 -1.37 1.01
-6.23 -1.33 1.02
-6.23 -1.31 1.02
-6.21 -1.29 1.02
-6.13 -1.26 1.03
-6.23 -1.25 1.02
-6.18 -1.22 1.03
-6.29 -1.22 1.01
-6.55 -1.23 0.98
-6.43 -1.19 0.99
-6.63 -1.20 0.97
-6.52 -1.16 0.98
-6.58 -1.14 0.98
-6.43 -1.10 0.99
-6.48 -1.09 0.99
-6.52 -1.07 0.98
-6.62 -1.06 0.97
-6.57 -1.03 0.98
-6.66 -1.02 0.97
-6.73 -1.01 0.96
-6.60 -0.97 0.97
-6.64 -0.95 0.97
-6.47 -0.91 0.99
-6.39 -0.88 1.00
-6.13 -0.84 1.04
-6.14 -0.82 1.04
-5.91 -0.78 1.07
-5.85 -0.75 1.07
-5.86 -0.73 1.07
-5.83 -0.71 1.08
-5.90 -0.69 1.07
-5.54 -0.65 1.11
-5.95 -0.66 1.06
-5.73 -0.62 1.09
-5.42 -0.58 1.13
-5.60 -0.57 1.11
-5.24 -0.53 1.15
-5.35 -0.52 1.14
-5.02 -0.48 1.18
-5.26 -0.47 1.15
-5.05 -0.44 1.18
-5.07 -0.43 1.18
-5.15 -0.41 1.17
-5.23 -0.40 1.15
-5.13 -0.37 1.17
-5.22 -0.36 1.16
-5.29 -0.34 1.15
-6.04 -0.35 1.05
-5.96 -0.33 1.06
-5.89 -0.31 1.07
-5.93 -0.29 1.06
-6.26 -0.28 1.02
-6.08 -0.25 1.04
-5.60 -0.22 1.11
-5.45 -0.20 1.12
-5.55 -0.18 1.11
-6.55 -0.18 0.98
-6.15 -0.15 1.03
-5.94 -0.07 1.39
-5.94 -0.06 1.39
-6.08 -0.04 1.37
-5.94 -0.03 1.39
-6.21 -0.01 1.36
-6.79 0.00 1.28
-4.62 -0.00 1.18
-4.56 0.01 1.19
-4.78 0.05 1.16
-4.75 0.08 1.16
-6.58 0.13 0.91
-6.59 0.15 0.91
-6.49 0.17 0.92
-6.49 0.19 0.92
-6.49 0.23 0.92
-10.58 0.33 0.72
-8.04 0.28 1.06
-9.96 0.36 0.80
-9.52 0.37 0.86
-9.23 0.38 0.90
-9.39 0.41 0.88
-9.14 0.45 0.91
-8.98 0.46 0.93
-9.05 0.49 0.92
-9.28 0.52 0.89
-9.37 0.55 0.88
-9.12 0.56 0.91
-9.23 0.61 0.90
-9.62 0.66 0.84
-9.89 0.70 0.80
-8.13 0.60 1.04
-8.70 0.66 0.97
-8.01 0.63 1.06
-9.59 0.77 0.84
-9.72 0.83 0.83
-9.62 0.85 0.84
-8.29 0.75 1.02
-9.41 0.87 0.87
-9.57 0.91 0.84
-8.10 0.80 1.04
-7.57 0.76 1.12
-7.81 0.81 1.08
-7.30 0.77 1.15
-8.19 0.89 1.03
-8.41 0.93 1.00
-8.45 0.95 0.99
-9.23 1.06 0.89
-9.20 1.08 0.89
-9.37 1.15 0.87
-10.27 1.28 0.74
-9.86 1.25 0.80
-9.60 1.25 0.83
-9.25 1.23 0.88
-9.09 1.23 0.90
-7.11 0.99 1.17
-6.90 0.98 1.20
-6.89 0.99 1.20
-6.90 1.01 1.20
-6.92 1.03 1.20
-6.99 1.06 1.19
-7.08 1.09 1.17
-8.60 1.34 0.96
-8.80 1.39 0.94
-9.07 1.45 0.90
-7.21 1.18 1.15
-8.91 1.47 0.92
-6.10 -1.44 0.97
-6.16 -1.41 0.96
-6.04 -1.37 0.98
-6.12 -1.36 0.97
-6.19 -1.35 0.96
-6.13 -1.32 0.97
-6.23 -1.29 0.96
-6.29 -1.26 0.95
-6.46 -1.26 0.92
-6.33 -1.22 0.94
-6.31 -1.20 0.95
-6.41 -1.19 0.93
-6.30 -1.13 0.95
-6.25 -1.08 0.96
-6.51 -1.09 0.92
-6.68 -1.09 0.90
-6.70 -1.07 0.89
-6.56 -1.03 0.91
-6.75 -1.01 0.89
-5.71 -0.86 1.03
-5.69 -0.83 1.04
-5.65 -0.81 1.04
-5.56 -0.78 1.05
-5.48 -0.75 1.06
-5.62 -0.73 1.05
-5.59 -0.69 1.05
-5.54 -0.66 1.06
-5.45 -0.64 1.07
-5.29 -0.61 1.09
-5.22 -0.58 1.10
-5.08 -0.53 1.12
-5.16 -0.52 1.11
-5.22 -0.51 1.10
-5.07 -0.48 1.12
-5.28 -0.47 1.09
-5.27 -0.45 1.09
-5.32 -0.44 1.09
-5.47 -0.41 1.07
-6.16 -0.40 0.97
-6.18 -0.38 0.97
-6.05 -0.35 0.99
-6.04 -0.33 0.99
-6.06 -0.31 0.98
-6.13 -0.27 0.97
-6.25 -0.24 0.96
-6.29 -0.22 0.95
-6.41 -0.20 0.94
-1.87 -0.09 1.56
-4.38 -0.12 1.22
-4.10 -0.08 1.25
-4.34 -0.05 1.22
-4.39 -0.04 1.21
-4.50 -0.02 1.20
-5.99 0.02 1.29
-7.98 0.04 1.01
-7.96 0.06 1.01
-7.58 0.07 1.06
-9.09 0.11 0.85
-7.62 0.11 1.06
-8.19 0.14 0.98
-8.31 0.16 0.96
-7.80 0.17 1.03
-8.87 0.22 0.88
-9.03 0.24 0.85
-5.47 0.16 1.36
-7.68 0.25 1.05
-8.48 0.29 0.93
-8.89 0.33 0.87
-8.80 0.34 0.89
-8.80 0.37 0.89
-9.05 0.40 0.85
-8.91 0.41 0.87
-9.10 0.44 0.84
-8.94 0.46 0.86
-8.87 0.48 0.87
-9.07 0.51 0.84
-9.27 0.54 0.82
-8.95 0.55 0.86
-8.91 0.57 0.87
-9.43 0.62 0.79
-9.79 0.67 0.74
-7.89 0.56 1.01
-7.74 0.57 1.03
-7.93 0.60 1.01
-8.12 0.64 0.98
-7.74 0.63 1.03
-8.02 0.67 0.99
-8.38 0.72 0.94
-8.03 0.71 0.99
-8.13 0.74 0.97
-7.88 0.74 1.01
-7.92 0.76 1.00
-7.96 0.78 1.00
-8.89 0.89 0.86
-7.79 0.81 1.02
-8.09 0.86 0.98
-8.13 0.88 0.97
-7.95 0.88 1.00
-8.45 0.96 0.92
-8.12 0.94 0.97
-8.38 0.99 0.93
-8.48 1.02 0.92
-8.69 1.07 0.89
-8.59 1.08 0.90
-8.20 1.05 0.96
-8.30 1.08 0.94
-8.44 1.12 0.92
-8.16 1.11 0.96
-8.53 1.18 0.91
-8.48 1.19 0.91
-8.55 1.22 0.90
-8.38 1.22 0.93
-8.55 1.27 0.90
-8.40 1.27 0.92
-8.26 1.27 0.94
-8.61 1.34 0.89
-8.79 1.39 0.86
-8.79 1.41 0.86
-7.10 1.17 1.11
-7.09 1.19 1.11
-7.11 1.21 1.11
-7.13 1.23 1.10
-4.28 -1.16 1.17
-4.39 -1.16 1.15
-4.43 -1.15 1.15
-4.32 -1.11 1.17
-4.41 -1.11 1.15
-4.26 -1.07 1.17
-4.41 -1.08 1.15
-6.09 -1.32 0.91
-4.36 -1.04 1.16
-4.36 -1.02 1.16
-6.09 -1.25 0.91
-6.08 -1.23 0.91
-4.38 -0.97 1.16
-4.36 -0.95 1.16
-4.39 -0.94 1.16
-6.17 -1.16 0.90
-6.14 -1.13 0.90
-6.10 -1.11 0.91
-6.04 -1.08 0.92
-6.33 -1.09 0.87
-6.05 -1.04 0.92
-5.78 -0.99 0.95
-5.86 -0.97 0.94
-5.92 -0.96 0.93
-5.96 -0.95 0.93
-5.87 -0.92 0.94
-5.90 -0.90 0.94
-6.57 -0.95 0.84
-5.85 -0.85 0.95
-5.80 -0.83 0.95
-5.68 -0.80 0.97
-5.42 -0.75 1.01
-5.64 -0.75 0.98
-6.07 -0.77 0.91
-5.46 -0.70 1.00
-5.06 -0.65 1.06
-4.17 -0.55 1.19
-5.32 -0.63 1.02
-5.25 -0.60 1.03
-5.19 -0.58 1.04
-4.84 -0.54 1.09
-4.90 -0.52 1.08
-5.08 -0.52 1.06
-5.10 -0.50 1.06
-5.11 -0.48 1.05
-5.38 -0.48 1.02
-5.47 -0.47 1.00
-5.21 -0.43 1.04
-4.95 -0.40 1.08
-5.23 -0.40 1.04
-5.61 -0.40 0.98
-6.22 -0.40 0.89
-6.18 -0.38 0.90
-6.15 -0.36 0.90
-6.09 -0.34 0.91
-6.09 -0.32 0.91
-5.88 -0.19 1.31
-5.89 -0.17 1.31
-5.82 -0.16 1.32
-5.94 -0.14 1.30
-5.72 -0.13 1.33
-5.60 -0.11 1.35
-5.75 -0.10 1.33
-5.71 -0.08 1.33
-5.67 -0.07 1.34
-5.75 -0.06 1.33
-5.50 -0.04 1.36
-5.62 -0.03 1.35
-5.75 -0.01 1.33
-5.71 0.00 1.33
-6.88 0.04 0.73
-6.95 0.06 0.71
-6.63 0.11 0.76
-7.00 0.16 0.71
-7.27 0.18 0.66
-6.98 0.20 0.71
-6.92 0.22 0.72
-6.71 0.24 0.75
-6.35 0.27 0.80
-6.86 0.31 0.73
-6.71 0.33 0.75
-6.52 0.34 0.78
-7.35 0.40 0.65
-7.52 0.43 0.62
-8.93 0.46 0.80
-8.80 0.47 0.82
-8.73 0.51 0.83
-8.17 0.56 0.91
-6.95 0.53 1.09
-8.09 0.67 0.92
-8.77 0.75 0.82
-8.46 0.75 0.86
-8.23 0.75 0.90
-8.21 0.76 0.90
-8.13 0.78 0.91
-8.35 0.82 0.88
-9.80 0.98 0.66
-8.48 0.87 0.86
-8.44 0.89 0.86
-8.03 0.87 0.92
-8.26 0.91 0.89
-8.59 0.99 0.84
-8.77 1.03 0.81
-9.37 1.12 0.72
-9.62 1.17 0.68
-9.02 1.13 0.77
-10.11 1.28 0.60
-9.97 1.29 0.62
-8.62 1.14 0.83
-8.84 1.26 0.79
-8.41 1.26 0.86
-6.18 -1.20 0.83
-6.13 -1.07 0.84
-5.86 -0.97 0.88
-5.88 -0.95 0.88
-5.95 -0.94 0.87
-5.91 -0.92 0.87
-5.75 -0.84 0.90
-5.77 -0.82 0.90
-5.67 -0.79 0.91
-5.52 -0.76 0.94
-5.17 -0.71 0.99
-5.39 -0.71 0.95
-5.30 -0.66 0.97
-5.02 -0.62 1.01
-4.97 -0.60 1.02
-5.64 -0.63 0.92
-5.09 -0.55 1.00
-5.16 -0.54 0.99
-6.41 -0.58 0.80
-5.89 -0.53 0.88
-6.04 -0.52 0.86
-6.45 -0.52 0.79
-6.34 -0.49 0.81
-6.42 -0.48 0.80
-6.58 -0.46 0.77
-6.68 -0.42 0.76
-6.30 -0.39 0.82
-6.05 -0.35 0.85
-6.02 -0.33 0.86
-5.84 -0.31 0.89
-5.75 -0.28 0.90
-8.72 -0.35 0.45
-8.80 -0.30 0.43
-6.12 -0.21 0.84
-8.73 -0.22 0.44
-8.75 -0.17 0.44
-8.15 0.02 0.85
-8.60 0.04 0.78
-5.71 0.04 1.24
-7.73 0.08 0.92
-10.63 0.13 0.46
-7.62 0.11 0.93
-7.70 0.15 0.92
-7.71 0.17 0.92
-7.64 0.19 0.93
-7.67 0.23 0.93
-7.98 0.25 0.88
-7.99 0.27 0.87
-7.98 0.31 0.88
-8.15 0.34 0.85
-8.55 0.38 0.78
-8.30 0.41 0.82
-8.21 0.42 0.84
-8.23 0.44 0.83
-8.03 0.47 0.86
-8.09 0.50 0.86
-8.01 0.51 0.87
-8.34 0.55 0.81
-8.27 0.57 0.83
-8.26 0.59 0.83
-8.29 0.61 0.82
-7.95 0.61 0.88
-8.15 0.64 0.84
-8.05 0.65 0.86
-8.10 0.68 0.85
-8.34 0.72 0.81
-8.29 0.73 0.82
-8.23 0.75 0.83
-8.30 0.77 0.82
-8.46 0.81 0.79
-8.34 0.82 0.81
-8.24 0.85 0.82
-8.23 0.87 0.82
-8.16 0.88 0.83
-8.22 0.91 0.83
-8.27 0.94 0.82
-8.23 0.95 0.82
-8.78 1.04 0.73
-8.93 1.08 0.71
-8.60 1.06 0.76
-8.38 1.05 0.80
-8.33 1.07 0.80
-7.97 1.04 0.86
-8.05 1.08 0.85
-8.00 1.09 0.85
-8.38 1.18 0.79
-5.19 0.76 1.30
-8.28 1.21 0.81
-8.31 1.23 0.80
-8.56 1.29 0.76
-8.05 1.24 0.84
-8.03 1.25 0.84
-7.94 1.26 0.86
-8.40 1.35 0.78
-8.12 1.33 0.83
-7.99 1.33 0.85
-7.13 1.21 0.99
-7.02 1.21 1.00
-6.99 1.22 1.01
-4.34 -1.20 1.05
-4.18 -1.16 1.08
-4.26 -1.16 1.06
-4.19 -1.13 1.08
-4.12 -1.10 1.09
-4.12 -1.08 1.09
-4.23 -1.09 1.07
-4.30 -1.08 1.06
-4.14 -1.04 1.08
-4.23 -1.04 1.07
-4.35 -1.04 1.05
-4.10 -0.98 1.09
-4.32 -1.00 1.06
-6.05 -1.23 0.78
-1.60 -0.59 1.50
-5.84 -1.16 0.81
-5.84 -1.14 0.81
-5.79 -1.11 0.82
-5.55 -1.06 0.86
-5.21 -1.00 0.91
-5.28 -0.99 0.90
-5.43 -0.99 0.88
-5.57 -0.98 0.86
-5.83 -0.99 0.81
-5.53 -0.94 0.86
-5.68 -0.94 0.84
-5.73 -0.92 0.83
-1.50 -0.45 1.52
-5.59 -0.87 0.85
-5.50 -0.84 0.87
-5.19 -0.79 0.92
-5.17 -0.77 0.92
-5.16 -0.75 0.92
-5.34 -0.75 0.90
-5.33 -0.73 0.90
-5.50 -0.72 0.87
-5.17 -0.67 0.92
-5.21 -0.66 0.92
-5.18 -0.64 0.92
-5.23 -0.62 0.91
-4.91 -0.58 0.96
-4.80 -0.55 0.98
-4.89 -0.54 0.97
-5.12 -0.54 0.93
-5.66 -0.56 0.84
-5.76 -0.54 0.83
-5.45 -0.51 0.88
-5.84 -0.51 0.82
-5.61 -0.48 0.85
-7.07 -0.36 1.03
-7.33 -0.36 0.98
-7.18 -0.33 1.01
-8.70 -0.38 0.77
-9.05 -0.37 0.71
-9.33 -0.36 0.67
-8.93 -0.30 0.73
-8.98 -0.28 0.72
-5.51 -0.16 1.27
-5.20 -0.14 1.32
-5.39 -0.13 1.29
-7.91 -0.17 0.89
-5.43 -0.09 1.29
-5.39 -0.08 1.29
-8.63 -0.11 0.78
-5.51 -0.05 1.27
-9.28 -0.07 0.67
-5.56 -0.03 1.26
-8.83 -0.02 0.74
-8.77 -0.00 0.75
-6.55 -0.00 0.63
-4.91 0.01 0.90
-6.46 0.04 0.64
-8.43 0.08 0.74
-5.75 0.07 1.19
-5.38 0.08 1.25
-5.43 0.10 1.24
-7.82 0.15 0.84
-8.16 0.18 0.78
-5.45 0.14 1.24
-7.75 0.21 0.85
-8.10 0.24 0.79
-7.83 0.25 0.84
-7.71 0.26 0.86
-7.98 0.29 0.81
-8.06 0.32 0.80
-8.03 0.33 0.80
-8.12 0.36 0.79
-7.99 0.37 0.81
-7.89 0.39 0.83
-8.09 0.42 0.79
-7.94 0.43 0.82
-7.81 0.44 0.84
-7.92 0.47 0.82
-7.80 0.48 0.84
-7.79 0.50 0.84
-8.12 0.54 0.78
-8.12 0.56 0.79
-8.01 0.57 0.80
-7.81 0.57 0.84
-7.86 0.60 0.83
-7.79 0.61 0.84
-7.91 0.64 0.82
-8.45 0.70 0.73
-8.59 0.74 0.70
-8.09 0.71 0.79
-8.12 0.74 0.78
-4.91 0.47 1.32
-8.19 0.78 0.77
-8.25 0.81 0.76
-8.16 0.82 0.77
-8.17 0.84 0.77
-8.12 0.86 0.78
-8.20 0.89 0.76
-8.08 0.89 0.78
-8.09 0.92 0.78
-8.03 0.93 0.79
-7.75 0.92 0.84
-7.78 0.94 0.83
-7.93 0.98 0.80
-7.91 0.99 0.81
-8.09 1.04 0.78
-7.98 1.04 0.79
-8.02 1.07 0.79
-8.06 1.09 0.78
-8.20 1.13 0.76
-8.09 1.14 0.77
-8.09 1.16 0.77
-8.16 1.19 0.76
-8.23 1.22 0.75
-8.24 1.24 0.75
-8.30 1.27 0.73
-8.16 1.27 0.76
-7.08 1.13 0.94
-7.29 1.18 0.90
-7.39 1.21 0.89
-7.59 1.26 0.85
-7.35 1.24 0.89
-6.96 1.20 0.96
-6.82 1.19 0.98
-7.11 1.26 0.93
-7.75 1.39 0.82
-4.17 -1.24 1.03
-4.16 -1.22 1.03
-4.35 -1.24 1.00
-4.21 -1.19 1.02
-4.20 -1.18 1.02
-4.21 -1.16 1.02
-4.29 -1.16 1.01
-4.23 -1.13 1.02
-4.25 -1.12 1.01
-0.95 -0.57 1.58
-1.24 -0.61 1.53
-4.19 -1.06 1.03
-4.41 -1.08 0.99
-4.20 -1.03 1.03
-4.34 -1.03 1.00
-4.39 -1.02 0.99
-1.41 -0.58 1.50
-1.42 -0.57 1.50
-1.57 -0.58 1.47
-1.63 -0.58 1.46
-1.68 -0.58 1.45
-5.71 -1.10 0.77
-1.49 -0.53 1.49
-1.75 -0.55 1.44
-1.45 -0.51 1.49
-1.81 -0.54 1.43
-1.56 -0.50 1.47
-1.64 -0.50 1.46
-1.85 -0.51 1.42
-1.68 -0.48 1.45
-1.78 -0.49 1.44
-1.75 -0.47 1.44
-1.70 -0.46 1.45
-1.71 -0.45 1.45
-1.57 -0.42 1.47
-1.96 -0.45 1.41
-5.25 -0.75 0.85
-1.89 -0.42 1.42
-5.31 -0.72 0.84
-5.24 -0.70 0.85
-5.29 -0.68 0.84
-5.20 -0.66 0.86
-5.30 -0.65 0.84
-4.78 -0.59 0.93
-4.97 -0.58 0.90
-4.89 -0.56 0.91
-5.13 -0.56 0.87
-4.97 -0.53 0.90
-5.16 -0.52 0.87
-4.50 -0.46 0.98
-4.43 -0.44 0.99
-4.77 -0.44 0.93
-4.97 -0.44 0.90
-5.87 -0.47 0.75
-5.35 -0.42 0.83
-5.39 -0.40 0.83
-5.42 -0.39 0.82
-5.22 -0.36 0.85
-5.43 -0.35 0.82
-5.54 -0.33 0.80
-5.45 -0.31 0.82
-5.46 -0.29 0.81
-4.97 -0.26 0.90
-4.86 -0.24 0.92
-4.91 -0.22 0.91
-4.78 -0.20 0.93
-5.33 -0.19 0.84
-5.34 -0.17 0.83
-5.71 -0.16 0.77
-5.85 -0.15 0.75
-5.60 -0.12 0.79
-5.66 -0.10 0.78
-5.33 -0.08 0.83
-5.06 -0.06 0.88
-4.49 -0.04 0.98
-4.86 -0.02 0.91
-7.94 0.02 0.75
-7.93 0.04 0.76
-8.10 0.06 0.73
-7.78 0.08 0.78
-7.64 0.09 0.81
-7.56 0.11 0.82
-7.64 0.13 0.81
-7.62 0.15 0.81
-7.73 0.17 0.79
-7.69 0.19 0.80
-7.62 0.21 0.81
-7.47 0.22 0.83
-7.62 0.24 0.81
-7.54 0.26 0.82
-7.51 0.28 0.83
-7.66 0.30 0.80
-7.72 0.32 0.79
-7.72 0.34 0.79
-7.85 0.37 0.77
-7.82 0.38 0.77
-8.06 0.41 0.73
-7.58 0.41 0.81
-7.99 0.45 0.74
-7.94 0.47 0.75
-8.05 0.49 0.73
-7.96 0.51 0.74
-8.24 0.54 0.69
-7.99 0.55 0.74
-7.89 0.56 0.75
-7.95 0.58 0.74
-7.91 0.60 0.75
-7.90 0.62 0.75
-7.91 0.64 0.75
-7.94 0.66 0.74
-8.20 0.70 0.70
-8.02 0.71 0.73
-8.02 0.73 0.73
-7.94 0.74 0.74
-8.00 0.77 0.73
-8.05 0.79 0.72
-7.99 0.81 0.73
-8.09 0.83 0.71
-8.05 0.85 0.72
-8.19 0.89 0.69
-8.04 0.89 0.72
-8.05 0.91 0.72
-7.98 0.92 0.73
-7.66 0.91 0.79
-7.65 0.93 0.79
-7.35 0.91 0.84
-7.75 0.98 0.77
-7.95 1.02 0.73
-7.97 1.04 0.73
-7.95 1.06 0.73
-7.91 1.08 0.74
-7.97 1.10 0.72
-8.07 1.14 0.71
-8.24 1.18 0.68
-8.05 1.17 0.71
-8.13 1.21 0.69
-8.20 1.24 0.68
-8.16 1.25 0.69
-7.91 1.23 0.73
-8.02 1.27 0.71
-7.80 1.26 0.75
-7.32 1.20 0.83
-7.30 1.22 0.84
-7.02 1.19 0.89
-7.06 1.21 0.88
-7.05 1.23 0.88
-7.11 1.26 0.87
-7.03 1.26 0.88
-6.95 1.27 0.89
-6.64 1.23 0.95
-6.66 1.25 0.94
-6.74 1.30 0.93
-1.25 -0.87 1.49
-4.39 -1.29 0.93
-4.31 -1.26 0.94
-4.32 -1.23 0.94
-4.24 -1.18 0.96
-4.13 -1.15 0.98
-4.34 -1.17 0.94
-4.43 -1.17 0.92
-4.14 -1.10 0.97
-4.32 -1.11 0.94
-4.35 -1.10 0.94
-4.11 -1.05 0.98
-4.24 -1.05 0.96
-5.96 -1.30 0.65
-6.01 -1.28 0.64
-6.05 -1.27 0.63
-5.90 -1.22 0.66
-5.88 -1.18 0.67
-5.85 -1.16 0.67
-5.84 -1.13 0.67
-4.11 -0.89 0.98
-5.66 -1.07 0.71
-5.55 -1.04 0.73
-5.38 -0.98 0.76
-4.71 -0.88 0.88
-4.80 -0.87 0.86
-4.81 -0.85 0.86
-4.93 -0.85 0.84
-5.14 -0.85 0.80
-5.37 -0.86 0.76
-5.44 -0.83 0.75
-4.74 -0.74 0.87
-5.15 -0.74 0.80
-5.45 -0.75 0.75
-4.96 -0.69 0.83
-4.80 -0.66 0.86
-4.74 -0.62 0.87
-4.67 -0.59 0.89
-4.57 -0.55 0.90
-4.38 -0.52 0.94
-4.66 -0.52 0.89
-4.76 -0.51 0.87
-4.44 -0.48 0.93
-4.54 -0.46 0.91
-4.73 -0.46 0.88
-4.62 -0.42 0.90
-4.64 -0.40 0.89
-5.06 -0.41 0.82
-4.86 -0.38 0.85
-4.82 -0.36 0.86
-5.30 -0.36 0.77
-5.21 -0.34 0.79
-5.05 -0.31 0.82
-4.61 -0.28 0.90
-4.80 -0.27 0.86
-4.65 -0.25 0.89
-4.70 -0.23 0.88
-4.61 -0.21 0.90
-4.63 -0.18 0.89
-4.67 -0.16 0.89
-4.84 -0.15 0.86
-4.79 -0.13 0.86
-5.10 -0.06 1.25
-5.19 -0.05 1.24
-5.20 -0.04 1.23
-7.89 -0.04 0.76
-7.59 -0.02 0.82
-7.64 0.00 0.81
-4.72 -0.00 0.81
-4.79 0.01 0.80
-4.75 0.03 0.81
-4.90 0.05 0.78
-4.91 0.07 0.78
-4.91 0.09 0.77
-5.04 0.11 0.75
-5.84 0.16 0.60
-6.47 0.19 0.48
-6.71 0.22 0.44
-7.58 0.22 0.75
-4.57 0.15 1.30
-7.69 0.28 0.73
-7.74 0.30 0.72
-7.61 0.32 0.74
-8.35 0.37 0.60
-8.45 0.39 0.58
-7.82 0.38 0.70
-7.88 0.40 0.69
-7.68 0.43 0.72
-7.89 0.46 0.69
-8.02 0.49 0.66
-7.99 0.51 0.67
-7.90 0.52 0.68
-7.84 0.54 0.69
-7.99 0.57 0.67
-7.99 0.61 0.67
-8.09 0.63 0.65
-8.04 0.65 0.65
-8.08 0.67 0.65
-7.98 0.68 0.66
-7.95 0.70 0.67
-8.06 0.73 0.65
-8.26 0.79 0.61
-8.35 0.82 0.59
-8.41 0.84 0.58
-8.72 0.90 0.52
-8.51 0.90 0.56
-8.82 0.95 0.50
-7.95 0.88 0.66
-8.02 0.93 0.65
-7.75 0.92 0.70
-8.95 1.07 0.48
-7.68 0.95 0.71
-8.33 1.04 0.59
-7.34 0.94 0.77
-7.00 0.92 0.83
-6.41 0.88 0.94
-8.20 1.13 0.61
-8.58 1.20 0.54
-7.95 1.14 0.66
-8.08 1.18 0.63
-7.86 1.16 0.67
-7.78 1.17 0.69
-7.01 1.10 0.83
-7.81 1.24 0.68
-7.16 1.16 0.80
-7.12 1.19 0.80
-7.21 1.22 0.79
-7.18 1.23 0.79
-7.56 1.33 0.72
-7.00 1.26 0.82
-3.91 0.89 1.39
-1.64 -1.57 1.36
-1.24 -1.38 1.44
-4.27 -1.25 0.89
-4.18 -1.14 0.91
-3.94 -1.08 0.95
-4.31 -1.09 0.89
-5.89 -1.28 0.59
-5.92 -1.27 0.58
-5.83 -1.23 0.60
-4.49 -1.02 0.85
-5.68 -1.17 0.63
-5.71 -1.16 0.62
-1.73 -0.59 1.37
-1.79 -0.59 1.36
-5.88 -1.12 0.59
-1.65 -0.55 1.39
-5.44 -1.02 0.68
-2.11 -0.59 1.30
-5.53 -0.99 0.66
-1.88 -0.54 1.34
-4.80 -0.87 0.80
-1.96 -0.53 1.33
-4.82 -0.84 0.79
-4.23 -0.75 0.90
-3.79 -0.69 0.99
-4.02 -0.70 0.94
-3.75 -0.66 0.99
-1.97 -0.46 1.33
-4.32 -0.68 0.89
-3.72 -0.61 1.00
-3.45 -0.57 1.05
-3.76 -0.58 0.99
-3.86 -0.57 0.97
-3.76 -0.55 0.99
-3.79 -0.54 0.99
-4.02 -0.54 0.94
-4.32 -0.55 0.89
-4.82 -0.57 0.80
-4.49 -0.53 0.86
-4.52 -0.51 0.85
-4.73 -0.51 0.81
-4.60 -0.48 0.84
-4.49 -0.46 0.86
-5.32 -0.50 0.70
-4.36 -0.42 0.88
-4.76 -0.43 0.81
-4.71 -0.39 0.82
-4.75 -0.37 0.81
-4.70 -0.35 0.82
-4.91 -0.34 0.78
-4.43 -0.31 0.87
-6.20 -0.36 0.54
-4.20 -0.26 0.91
-5.54 -0.30 0.66
-4.44 -0.24 0.87
-1.62 -0.13 1.39
-4.54 -0.21 0.85
-4.75 -0.20 0.81
-4.84 -0.18 0.79
-4.53 -0.16 0.85
-4.68 -0.14 0.82
-4.79 -0.13 0.80
-4.70 -0.11 0.82
-4.57 -0.09 0.84
-4.51 -0.07 0.85
-4.54 -0.06 0.85
-4.56 -0.04 0.84
-4.71 -0.02 0.81
-7.66 0.04 0.67
-7.38 0.05 0.72
-7.34 0.07 0.73
-7.31 0.11 0.73
-7.46 0.13 0.70
-7.44 0.15 0.71
-7.33 0.18 0.73
-7.49 0.20 0.69
-7.33 0.22 0.73
-7.54 0.26 0.68
-7.70 0.28 0.65
-8.30 0.32 0.54
-7.97 0.35 0.60
-8.05 0.37 0.58
-7.68 0.38 0.65
-8.08 0.42 0.58
-7.80 0.42 0.63
-8.00 0.47 0.59
-8.26 0.53 0.54
-8.08 0.53 0.58
-7.91 0.54 0.61
-7.85 0.56 0.62
-7.91 0.58 0.61
-8.01 0.63 0.59
-7.91 0.66 0.60
-7.90 0.68 0.61
-7.89 0.70 0.61
-8.14 0.76 0.56
-6.49 0.64 0.88
-8.60 0.87 0.47
-9.07 0.93 0.38
-8.86 0.93 0.41
-8.02 0.87 0.58
-7.97 0.90 0.58
-7.96 0.92 0.59
-7.56 0.90 0.66
-7.34 0.91 0.71
-7.57 0.95 0.66
-7.57 0.97 0.66
-7.30 0.98 0.71
-7.23 1.00 0.72
-7.05 1.02 0.76
-7.14 1.05 0.74
-7.32 1.09 0.70
-8.07 1.24 0.55
-7.20 1.13 0.72
-7.19 1.15 0.73
-7.62 1.25 0.64
-7.49 1.25 0.66
-7.27 1.23 0.71
-7.47 1.30 0.67
-7.49 1.34 0.66
-4.71 0.89 1.20
-5.98 1.13 0.95
-5.22 1.01 1.10
-5.50 1.09 1.05
-5.73 1.16 1.00
-1.55 -1.22 1.35
-4.33 -1.35 0.81
-4.39 -1.35 0.80
-4.31 -1.30 0.82
-4.45 -1.31 0.79
-4.23 -1.23 0.83
-4.47 -1.26 0.79
-4.24 -1.20 0.83
-4.35 -1.19 0.81
-4.21 -1.15 0.84
-4.42 -1.17 0.80
-4.25 -1.12 0.83
-4.30 -1.11 0.82
-4.10 -1.05 0.86
-4.41 -1.08 0.80
-4.59 -1.09 0.77
-4.50 -1.06 0.79
-4.47 -1.04 0.79
-4.50 -1.03 0.79
-5.62 -1.17 0.57
-5.86 -1.18 0.52
-5.84 -1.16 0.53
-5.81 -1.13 0.53
-5.65 -1.09 0.56
-5.62 -1.07 0.57
-5.40 -1.02 0.61
-5.30 -0.99 0.63
-5.18 -0.95 0.66
-5.27 -0.95 0.64
-5.07 -0.90 0.68
-5.07 -0.89 0.68
-4.73 -0.83 0.74
-4.85 -0.82 0.72
-4.48 -0.77 0.79
-4.69 -0.77 0.75
-4.76 -0.76 0.74
-5.42 -0.81 0.61
-3.94 -0.65 0.90
-3.94 -0.63 0.90
-3.80 -0.60 0.93
-3.87 -0.59 0.91
-3.73 -0.56 0.94
-5.39 -0.69 0.62
-4.90 -0.63 0.71
-4.95 -0.62 0.70
-4.32 -0.55 0.83
-4.75 -0.57 0.74
-4.71 -0.55 0.75
-4.63 -0.52 0.77
-5.02 -0.53 0.69
-4.39 -0.47 0.81
-4.63 -0.47 0.76
-4.59 -0.45 0.77
-4.32 -0.42 0.82
-4.39 -0.41 0.81
-4.26 -0.38 0.84
-4.37 -0.37 0.82
-4.38 -0.36 0.81
-4.32 -0.34 0.82
-4.35 -0.32 0.82
-4.31 -0.30 0.83
-4.31 -0.29 0.83
-4.31 -0.27 0.83
-7.03 -0.24 0.79
-6.88 -0.22 0.82
-6.85 -0.20 0.82
-7.23 -0.18 0.75
-8.28 -0.16 0.55
-8.03 -0.12 0.60
-7.82 -0.10 0.63
-7.64 -0.07 0.67
-7.29 -0.04 0.74
-7.02 -0.02 0.79
-7.30 0.00 0.73
-4.47 -0.00 0.74
-4.59 0.01 0.71
-4.61 0.03 0.71
-4.70 0.05 0.69
-4.79 0.07 0.67
-4.86 0.08 0.66
-5.10 0.12 0.61
-5.38 0.15 0.55
-5.70 0.17 0.49
-5.89 0.22 0.45
-5.95 0.24 0.43
-5.52 0.25 0.52
-6.01 0.28 0.42
-6.32 0.32 0.36
-5.76 0.38 0.47
-7.83 0.42 0.56
-8.45 0.47 0.44
-8.15 0.48 0.50
-5.83 0.36 0.96
-7.93 0.50 0.54
-8.21 0.54 0.48
-8.30 0.57 0.46
-8.14 0.58 0.50
-8.23 0.60 0.48
-7.96 0.60 0.53
-8.20 0.64 0.48
-8.46 0.68 0.43
-8.40 0.70 0.44
-8.09 0.69 0.50
-6.53 0.58 0.82
-7.57 0.69 0.61
-8.55 0.79 0.41
-8.38 0.80 0.44
-7.45 0.73 0.63
-6.53 0.71 0.81
-6.49 0.72 0.82
-6.40 0.73 0.84
-7.05 0.84 0.70
-7.65 0.92 0.58
-6.75 0.83 0.76
-6.81 0.86 0.75
-6.79 0.87 0.75
-7.80 1.02 0.55
-6.52 0.87 0.81
-6.70 0.91 0.77
-6.87 0.95 0.74
-7.03 0.99 0.70
-6.80 0.98 0.75
-6.94 1.01 0.72
-7.03 1.04 0.70
-5.27 0.85 1.06
-4.82 0.80 1.15
-4.70 0.81 1.17
-4.80 0.84 1.15
-4.62 0.82 1.18
-4.72 0.85 1.16
-4.55 0.83 1.20
-4.81 0.89 1.14
-4.57 0.86 1.19
-4.83 0.92 1.14
-5.00 0.96 1.10
-4.79 0.94 1.15
-4.35 1.13 1.22
-1.77 -0.63 1.29
-5.83 -1.15 0.46
-3.12 -0.75 1.01
-3.54 -0.79 0.93
-2.06 -0.59 1.23
-3.76 -0.79 0.88
-2.70 -0.65 1.10
-3.27 -0.70 0.98
-3.21 -0.68 1.00
-2.47 -0.58 1.15
-3.20 -0.65 1.00
-2.85 -0.60 1.07
-2.32 -0.53 1.18
-2.85 -0.57 1.07
-2.51 -0.53 1.14
-3.80 -0.64 0.88
-2.29 -0.48 1.18
-2.80 -0.52 1.08
-2.96 -0.52 1.05
-2.42 -0.46 1.16
-2.74 -0.47 1.09
-2.50 -0.44 1.14
-2.43 -0.42 1.16
-2.71 -0.43 1.10
-3.11 -0.45 1.02
-2.58 -0.40 1.13
-1.94 -0.34 1.26
-1.96 -0.32 1.25
-3.21 -0.39 1.00
-2.61 -0.33 1.12
-3.39 -0.35 0.96
-3.49 -0.34 0.94
-4.04 -0.35 0.83
-3.79 -0.32 0.88
-4.09 -0.32 0.82
-4.00 -0.30 0.84
-4.21 -0.30 0.79
-4.18 -0.28 0.80
-3.95 -0.25 0.85
-4.50 -0.26 0.73
-4.53 -0.24 0.73
-4.52 -0.22 0.73
-4.52 -0.21 0.73
-4.52 -0.19 0.73
-4.60 -0.18 0.71
-4.44 -0.16 0.75
-4.67 -0.14 0.70
-4.63 -0.12 0.71
-4.45 -0.11 0.74
-4.37 -0.09 0.76
-4.54 -0.07 0.72
-4.49 -0.05 0.74
-4.47 -0.04 0.74
-4.27 -0.02 0.78
-6.17 0.02 0.83
-7.07 0.03 0.64
-7.12 0.05 0.63
-6.88 0.07 0.68
-6.94 0.09 0.67
-6.68 0.10 0.73
-6.89 0.12 0.68
-6.73 0.13 0.72
-6.75 0.15 0.71
-6.87 0.17 0.68
-6.86 0.19 0.69
-7.10 0.21 0.63
-6.83 0.22 0.69
-7.00 0.24 0.66
-6.55 0.24 0.75
-6.63 0.26 0.73
-6.74 0.28 0.71
-7.12 0.31 0.63
-7.43 0.35 0.56
-7.65 0.38 0.52
-6.95 0.36 0.66
-7.76 0.42 0.49
-7.64 0.43 0.52
-7.96 0.47 0.45
-7.98 0.49 0.44
-8.05 0.51 0.43
-8.06 0.53 0.43
-8.15 0.56 0.41
-8.20 0.58 0.40
-8.19 0.60 0.40
-8.22 0.62 0.39
-8.26 0.65 0.38
-8.20 0.66 0.40
-8.09 0.67 0.42
-7.76 0.67 0.49
-8.00 0.71 0.43
-8.20 0.75 0.39
-8.33 0.78 0.36
-8.25 0.79 0.38
-6.64 0.66 0.72
-6.94 0.70 0.66
-6.88 0.72 0.67
-7.05 0.75 0.63
-6.81 0.74 0.68
-7.02 0.78 0.64
-7.22 0.82 0.59
-7.02 0.82 0.63
-7.21 0.86 0.59
-7.33 0.89 0.57
-7.34 0.91 0.57
-7.20 0.91 0.59
-7.10 0.92 0.62
-7.03 0.93 0.63
-6.88 0.92 0.66
-6.74 0.92 0.69
-6.76 0.94 0.69
-6.86 0.97 0.66
-6.76 0.98 0.68
-6.76 0.99 0.68
-6.73 1.01 0.69
-6.88 1.05 0.66
-6.75 1.04 0.68
-6.95 1.09 0.64
-6.94 1.11 0.64
-7.06 1.14 0.61
-6.97 1.15 0.63
-6.89 1.15 0.65
-6.38 1.09 0.76
-6.23 1.08 0.79
-5.22 0.93 1.00
-5.37 0.97 0.97
-6.14 1.11 0.81
-6.02 1.11 0.83
-5.24 0.99 0.99
-5.54 1.05 0.93
-5.42 1.05 0.95
-5.58 1.09 0.92
-5.46 1.08 0.95
-5.76 1.15 0.88
-5.78 1.17 0.88
-5.88 1.21 0.85
-5.64 1.17 0.90
-5.68 1.20 0.89
-5.79 1.24 0.87
-5.92 1.28 0.84
-5.68 1.24 0.89
-5.75 1.27 0.87
-5.70 1.28 0.88
-5.73 1.30 0.88
-5.70 1.31 0.88
-5.80 1.34 0.86
-5.61 1.32 0.90
-5.74 1.36 0.87
-5.73 1.37 0.87
-5.84 1.42 0.85
-5.82 1.43 0.85
-5.61 1.39 0.90
-5.79 1.45 0.86
-5.41 1.38 0.94
-5.71 1.48 0.87
-2.69 -1.19 1.03
-2.42 -1.03 1.10
-2.67 -1.07 1.04
-2.87 -1.07 1.00
-3.50 -1.18 0.86
-3.51 -1.17 0.86
-2.53 -0.97 1.07
-2.55 -0.95 1.07
-3.99 -1.14 0.76
-4.11 -1.13 0.74
-4.26 -1.14 0.70
-4.06 -1.09 0.75
-1.86 -0.71 1.22
-1.93 -0.70 1.21
-2.08 -0.71 1.17
-4.20 -1.02 0.72
-4.04 -0.98 0.75
-3.98 -0.95 0.77
-3.95 -0.93 0.77
-5.23 -1.09 0.50
-5.45 -1.10 0.45
-5.38 -1.08 0.47
-5.27 -1.04 0.49
-5.26 -1.02 0.49
-5.13 -0.99 0.52
-4.96 -0.95 0.56
-5.10 -0.95 0.53
-4.85 -0.90 0.58
-4.01 -0.78 0.76
-4.03 -0.77 0.76
-3.99 -0.75 0.77
-4.14 -0.75 0.74
-3.66 -0.68 0.84
-3.37 -0.63 0.90
-3.55 -0.64 0.86
-4.19 -0.69 0.73
-5.37 -0.79 0.47
-5.31 -0.76 0.49
-5.37 -0.75 0.47
-2.91 -0.51 1.00
-2.62 -0.47 1.06
-2.55 -0.45 1.07
-2.97 -0.47 0.99
-4.74 -0.58 0.61
-4.70 -0.56 0.62
-4.83 -0.56 0.59
-3.29 -0.43 0.92
-4.91 -0.53 0.57
-5.07 -0.52 0.54
-4.85 -0.49 0.58
-4.59 -0.45 0.64
-4.86 -0.45 0.58
-5.79 -0.49 0.38
-6.43 -0.35 0.78
-6.45 -0.33 0.78
-6.41 -0.31 0.79
-6.48 -0.30 0.77
-6.50 -0.29 0.77
-6.42 -0.27 0.78
-6.58 -0.26 0.75
-6.41 -0.24 0.79
-6.55 -0.23 0.76
-6.48 -0.21 0.77
-6.39 -0.19 0.79
-6.34 -0.17 0.80
-6.32 -0.16 0.80
-6.41 -0.14 0.79
-6.38 -0.13 0.79
-6.42 -0.11 0.78
-6.63 -0.10 0.74
-6.47 -0.08 0.77
-6.29 -0.06 0.81
-6.61 -0.05 0.74
-6.22 -0.03 0.82
-6.28 -0.02 0.81
-7.16 -0.00 0.63
-4.75 -0.00 0.54
-4.73 0.01 0.54
-4.89 0.03 0.50
-6.06 0.06 0.80
-7.24 0.09 0.54
-7.02 0.10 0.59
-7.00 0.12 0.59
-7.03 0.14 0.58
-6.97 0.15 0.60
-7.03 0.17 0.58
-7.35 0.20 0.51
-6.58 0.19 0.68
-5.95 0.19 0.82
-7.43 0.25 0.50
-5.98 0.22 0.82
-6.29 0.25 0.75
-7.25 0.30 0.53
-7.01 0.31 0.59
-7.40 0.34 0.50
-7.79 0.38 0.41
-7.88 0.40 0.39
-7.94 0.43 0.38
-8.00 0.45 0.37
-8.16 0.48 0.33
-8.22 0.50 0.32
-7.77 0.49 0.41
-7.86 0.52 0.39
-7.91 0.54 0.38
-8.08 0.57 0.35
-5.52 0.41 0.91
-7.92 0.60 0.38
-8.66 0.70 0.22
-8.20 0.68 0.32
-8.11 0.69 0.34
-6.90 0.63 0.60
-5.96 0.56 0.81
-6.16 0.60 0.76
-6.38 0.63 0.71
-6.14 0.62 0.77
-6.16 0.64 0.76
-6.47 0.69 0.69
-6.64 0.72 0.65
-7.04 0.78 0.56
-7.29 0.83 0.51
-7.01 0.81 0.57
-6.35 0.76 0.72
-4.37 0.54 1.16
-7.32 0.90 0.50
-6.91 0.87 0.59
-4.46 0.59 1.13
-6.73 0.88 0.63
-6.65 0.89 0.65
-6.63 0.91 0.65
-6.41 0.89 0.70
-6.72 0.95 0.63
-6.77 0.98 0.62
-4.68 0.70 1.08
-6.76 1.01 0.62
-6.73 1.02 0.62
-6.67 1.03 0.64
-6.88 1.08 0.59
-6.92 1.10 0.58
-5.27 0.86 0.94
-6.00 0.99 0.78
-5.38 0.91 0.92
-4.77 0.82 1.06
-6.82 1.17 0.60
-6.72 1.17 0.62
-6.33 1.13 0.70
-6.46 1.17 0.67
-6.45 1.18 0.68
-5.59 1.04 0.87
-5.78 1.09 0.82
-5.58 1.07 0.87
-5.53 1.08 0.88
-5.76 1.13 0.83
-5.91 1.18 0.79
-5.68 1.15 0.84
-5.49 1.13 0.88
-5.94 1.23 0.78
-5.67 1.22 0.84
-5.68 1.24 0.84
-2.33 -1.03 1.07
-2.34 -1.01 1.07
-2.38 -1.01 1.06
-2.33 -0.98 1.07
-2.36 -0.98 1.07
-2.37 -0.97 1.06
-2.36 -0.95 1.07
-2.40 -0.95 1.06
-2.63 -0.98 1.01
-2.78 -1.00 0.97
-2.38 -0.91 1.06
-2.30 -0.88 1.08
-2.32 -0.86 1.08
-1.94 -0.77 1.16
-1.88 -0.75 1.18
-1.94 -0.75 1.16
-1.83 -0.72 1.19
-1.74 -0.70 1.21
-1.55 -0.66 1.25
-1.71 -0.67 1.22
-1.90 -0.69 1.17
-2.07 -0.71 1.13
-3.82 -0.96 0.74
-2.94 -0.81 0.94
-2.26 -0.70 1.09
-2.73 -0.76 0.99
-2.91 -0.77 0.95
-3.15 -0.79 0.89
-3.03 -0.76 0.92
-2.99 -0.74 0.93
-3.51 -0.79 0.81
-3.08 -0.72 0.91
-2.05 -0.58 1.14
-3.68 -0.77 0.78
-4.30 -0.83 0.64
-3.36 -0.70 0.85
-3.62 -0.72 0.79
-3.31 -0.67 0.86
-2.92 -0.61 0.95
-3.17 -0.62 0.89
-3.74 -0.67 0.76
-3.92 -0.67 0.72
-3.60 -0.63 0.80
-3.32 -0.58 0.86
-2.46 -0.49 1.05
-2.31 -0.46 1.08
-2.40 -0.46 1.06
-2.52 -0.46 1.04
-2.59 -0.45 1.02
-3.18 -0.49 0.89
-3.35 -0.49 0.85
-2.48 -0.40 1.05
-2.92 -0.43 0.95
-3.16 -0.43 0.89
-3.58 -0.45 0.80
-5.10 -0.54 0.46
-4.89 -0.50 0.51
-5.00 -0.49 0.48
-5.02 -0.48 0.48
-4.08 -0.40 0.69
-4.37 -0.40 0.62
-4.18 -0.38 0.67
-4.37 -0.37 0.62
-4.41 -0.36 0.61
-4.29 -0.33 0.64
-4.50 -0.33 0.60
-4.25 -0.30 0.65
-4.25 -0.28 0.65
-4.38 -0.27 0.62
-4.43 -0.26 0.61
-4.73 -0.25 0.54
-4.61 -0.23 0.57
-4.53 -0.21 0.59
-4.71 -0.20 0.55
-4.55 -0.18 0.58
-4.78 -0.16 0.53
-4.64 -0.14 0.56
-4.61 -0.13 0.57
-4.69 -0.11 0.55
-4.67 -0.09 0.55
-4.49 -0.02 0.59
-7.33 0.07 0.44
-6.90 0.08 0.54
-7.13 0.10 0.49
-7.07 0.12 0.50
-7.06 0.14 0.50
-7.29 0.16 0.45
-7.43 0.18 0.42
-7.43 0.20 0.42
-7.74 0.30 0.35
-7.54 0.37 0.39
-7.70 0.43 0.35
-6.08 0.41 0.72
-6.08 0.42 0.72
-6.23 0.60 0.68
-6.18 0.61 0.69
-6.87 0.70 0.53
-6.42 0.67 0.64
-6.14 0.66 0.70
-6.30 0.69 0.66
-6.52 0.73 0.61
-7.44 0.90 0.40
-7.59 0.94 0.36
-7.30 0.92 0.43
-7.11 0.92 0.47
-6.91 0.91 0.51
-6.78 0.91 0.54
-7.02 0.96 0.49
-6.82 0.95 0.53
-6.62 0.94 0.58
-7.04 1.01 0.48
-6.97 1.02 0.50
-6.86 1.02 0.52
-6.89 1.04 0.51
-6.95 1.07 0.50
-6.87 1.08 0.52
-6.99 1.11 0.49
-6.97 1.13 0.49
-6.94 1.14 0.50
-6.95 1.16 0.49
-6.91 1.17 0.50
-6.98 1.20 0.49
-6.89 1.20 0.50
-6.79 1.21 0.53
-6.91 1.24 0.50
-6.89 1.26 0.50
-6.74 1.25 0.54
-6.01 1.14 0.71
-2.46 -0.88 0.99
-2.40 -0.86 1.01
-4.01 -1.11 0.63
-2.33 -0.81 1.02
-2.64 -0.85 0.95
-3.95 -1.02 0.64
-3.82 -0.99 0.68
-3.44 -0.92 0.77
-3.82 -0.96 0.68
-3.75 -0.92 0.69
-3.19 -0.82 0.82
-3.30 -0.81 0.80
-3.36 -0.80 0.78
-5.11 -1.02 0.37
-5.04 -0.99 0.39
-4.77 -0.92 0.46
-5.05 -0.94 0.39
-4.86 -0.88 0.44
-4.93 -0.87 0.42
-4.12 -0.76 0.61
-3.80 -0.71 0.68
-3.71 -0.67 0.71
-3.88 -0.67 0.67
-3.77 -0.63 0.69
-4.38 -0.67 0.55
-5.06 -0.72 0.39
-4.95 -0.69 0.42
-3.19 -0.38 0.83
-4.45 -0.43 0.53
-4.83 -0.43 0.44
-4.15 -0.38 0.60
-4.26 -0.37 0.58
-4.47 -0.34 0.53
-4.53 -0.33 0.52
-4.53 -0.29 0.52
-4.77 -0.29 0.46
-4.46 -0.26 0.53
-4.47 -0.24 0.53
-4.64 -0.21 0.49
-4.63 -0.19 0.49
-4.68 -0.16 0.48
-4.50 -0.14 0.52
-4.54 -0.12 0.51
-3.04 0.64 0.44
-2.48 0.91 0.45
-3.47 0.33 0.29
-4.27 0.75 0.19
-3.64 0.68 0.25
-3.19 0.85 0.28
-2.82 0.77 0.31
-2.78 0.82 0.31
-2.71 0.83 0.32
-2.69 0.90 0.32
-2.61 0.89 0.32
-1.25 -0.48 0.43
-2.93 0.10 0.30
-3.63 0.76 0.22
-3.54 0.79 0.23
-3.66 0.86 0.21
-3.21 0.85 0.25
-2.89 0.74 0.29
-2.79 0.82 0.29
-2.75 0.87 0.29
-2.64 0.91 0.30
-2.50 0.92 0.31
-3.20 0.75 0.24
-2.88 0.74 0.27
-2.80 0.83 0.27
-2.75 0.87 0.27
-2.71 0.91 0.28
-2.61 0.89 0.29
-2.56 0.92 0.29
-3.32 0.85 0.19
-2.76 0.87 0.25
-2.79 0.68 0.22
-2.81 0.85 0.21
-2.55 0.80 0.25
-10.10 0.44 1.59
-6.36 -0.62 1.46
-10.49 -0.19 1.07
-10.57 -0.16 1.06
-10.42 -0.10 1.07
-9.25 0.05 1.34
-6.50 -0.63 1.35
-6.73 -0.60 1.33
-6.80 -0.59 1.32
-9.72 -0.56 1.05
-10.06 -0.52 1.02
-10.41 -0.00 0.92
-10.56 0.03 0.90
-10.34 0.06 0.92
-10.48 0.25 0.91
-10.49 0.31 0.91
-6.88 -0.66 1.26
-6.87 -0.61 1.26
-10.45 -0.72 0.92
-10.37 -0.62 0.92
-9.96 -0.54 0.96
-9.98 -0.51 0.96
-9.86 -0.48 0.97
-10.34 -0.47 0.93
-5.17 -0.26 1.43
-10.58 -0.32 0.90
-10.55 -0.29 0.90
-10.39 -0.25 0.92
-10.58 -0.22 0.90
-10.50 -0.19 0.91
-10.59 -0.16 0.90
-10.55 -0.10 0.90
-10.48 -0.04 0.91
-9.48 0.09 1.20
-8.67 0.13 1.28
-8.50 0.15 1.30
-8.91 0.17 1.26
-7.61 -0.49 1.12
-7.30 -0.45 1.15
-7.57 -0.39 1.13
-10.56 -0.10 1.09
-9.88 0.23 0.81
-7.58 -0.37 1.06
-7.54 -0.34 1.07
-8.32 -0.34 0.98
-9.23 -0.29 0.88
-9.05 -0.25 0.90
-8.97 -0.22 0.91
-8.60 -0.19 0.95
-8.92 -0.17 0.91
-8.94 -0.11 0.91
-10.61 -0.07 0.73
-9.19 -0.03 0.88
-10.15 1.12 0.98
-9.00 1.31 1.11
-8.90 1.32 1.12
-10.66 -1.11 0.63
-10.24 -0.77 0.68
-10.27 -0.74 0.67
-10.55 -0.38 0.95
-10.62 -0.33 0.94
-6.59 -0.00 1.04
-8.18 0.02 0.85
-9.22 0.77 1.03
-9.59 0.82 0.98
-9.27 0.86 1.02
-10.12 0.99 0.92
-9.98 1.02 0.93
-10.06 1.08 0.92
-9.45 1.23 0.99
-9.31 1.23 1.01
-9.30 1.26 1.01
-9.16 1.26 1.03
-9.05 1.29 1.04
-8.95 1.30 1.05
-9.16 1.38 1.03
-9.08 1.39 1.03
-6.18 -0.74 1.10
-6.16 -0.71 1.10
-8.78 -0.41 0.77
-8.91 -0.39 0.76
-9.10 -0.37 0.73
-9.03 -0.34 0.74
-8.78 -0.30 0.77
-8.74 -0.27 0.78
-8.61 -0.24 0.79
-8.50 -0.22 0.81
-8.56 -0.19 0.80
-8.53 -0.16 0.80
-8.38 -0.14 0.82
-8.36 -0.11 0.83
-8.35 -0.06 0.83
-8.25 -0.03 0.84
-9.27 0.05 0.96
-9.52 0.77 0.92
-9.59 0.91 0.91
-9.85 0.96 0.88
-9.66 1.23 0.90
-9.54 1.24 0.91
-9.32 1.24 0.94
-9.31 1.26 0.94
-9.34 1.29 0.94
-8.84 1.24 1.00
-8.99 1.28 0.98
-8.86 1.31 0.99
-8.96 1.39 0.98
-9.01 1.42 0.97
-8.35 -0.92 0.75
-8.41 -0.90 0.74
-8.34 -0.87 0.75
-8.73 -0.33 0.70
-9.19 -0.29 0.64
-8.44 -0.22 0.73
-8.38 -0.19 0.74
-7.21 -0.00 0.82
-7.34 0.02 0.81
-6.74 0.06 0.89
-9.75 0.98 0.82
-9.31 1.28 0.87
-8.77 1.30 0.94
-10.03 -0.97 0.44
-9.45 -0.69 0.52
-8.36 -0.45 0.67
-8.30 -0.29 0.68
-8.33 -0.26 0.67
-8.88 -0.25 0.60
-6.47 -0.18 0.93
-6.64 -0.16 0.90
-6.78 -0.12 0.88
-6.77 -0.07 0.89
-6.78 -0.05 0.88
-6.44 -0.03 0.93
-8.09 0.02 0.99
-10.60 0.23 0.63
-8.31 0.24 0.96
-6.08 -1.40 0.91
-6.09 -1.27 0.91
-6.14 -1.22 0.90
-6.13 -1.19 0.90
-9.84 -1.04 0.36
-9.83 -1.01 0.37
-10.00 -1.00 0.34
-10.17 -0.98 0.32
-9.86 -0.93 0.36
-9.61 -0.88 0.40
-9.86 -0.87 0.36
-10.11 -0.82 0.33
-9.95 -0.78 0.35
-9.87 -0.75 0.36
-8.73 -0.44 0.53
-8.73 -0.41 0.53
-9.13 -0.29 0.84
-9.05 -0.26 0.86
-9.39 -0.25 0.81
-9.16 -0.22 0.84
-8.39 -0.08 0.95
-8.40 -0.06 0.95
-8.89 -0.04 0.88
-8.60 0.00 0.92
-9.89 -0.99 0.26
-9.48 -0.52 0.33
-9.45 -0.49 0.33
-9.55 -0.47 0.32
-8.19 0.06 0.85
-8.29 1.19 0.81
-6.02 -1.43 0.78
-5.99 -1.41 0.78
-6.01 -1.39 0.78
-5.96 -1.32 0.79
-6.05 -1.31 0.77
-6.11 -1.30 0.77
-6.04 -1.27 0.78
-6.13 -1.26 0.76
-5.91 -1.19 0.80
-5.62 -0.89 0.85
-8.87 -0.26 0.74
-8.84 -0.24 0.74
-8.07 -0.20 0.87
-9.55 -0.16 0.63
-8.33 -0.12 0.82
-7.44 -0.07 0.97
-9.38 -0.05 0.66
-7.95 0.10 0.82
-7.85 0.12 0.84
-7.84 0.13 0.84
-7.99 0.20 0.81
-8.09 0.75 0.78
-6.01 -1.47 0.71
-6.01 -1.43 0.71
-4.20 -1.09 1.02
-4.28 -1.09 1.01
-6.02 -1.30 0.71
