# .PCD v0.7 - Point Cloud Data file format
VERSION 0.7
FIELDS x y z
SIZE 4 4 4
TYPE F F F
COUNT 1 1 1
WIDTH 2854
HEIGHT 1
VIEWPOINT 0 0 0 1 0 0 0
POINTS 2854
DATA ASCII
-0.60 -0.46 0.17
-0.80 -0.48 0.22
-0.79 -0.61 0.17
-0.84 -0.54 0.21
-0.49 -0.05 0.19
-0.59 -0.40 0.18
-0.60 -0.44 0.17
-0.59 -0.35 0.18
-0.60 -0.36 0.18
-0.69 -0.46 0.18
-0.80 -0.48 0.21
-0.54 -0.19 0.18
-0.86 -0.45 0.22
-0.83 -0.54 0.18
-0.54 -0.18 0.18
-0.58 -0.29 0.17
-0.60 -0.34 0.17
-0.59 -0.28 0.17
-0.82 -0.46 0.20
-0.58 -0.26 0.16
-0.95 -0.54 0.17
-0.94 -0.38 0.22
-0.93 -0.38 0.19
-0.97 -0.35 0.18
-0.95 -0.18 0.18
-1.32 -0.02 2.14
-1.44 -0.01 2.14
-2.14 -0.64 1.80
-1.23 -0.27 1.87
-1.80 -0.09 1.75
-1.46 -0.47 1.68
-2.05 -0.46 1.57
-1.55 -0.77 1.60
-1.08 -0.49 1.67
-1.53 -0.52 1.61
-1.54 -0.52 1.61
-1.53 -0.49 1.61
-1.50 -0.41 1.61
-2.00 -0.44 1.54
-1.24 -0.53 1.59
-1.45 -0.55 1.52
-1.41 -0.52 1.53
-1.92 -0.57 1.44
-1.59 -0.57 1.47
-1.59 -0.56 1.47
-1.38 -0.52 1.50
-1.46 -0.53 1.49
-1.38 -0.51 1.50
-0.99 -0.45 1.57
-1.77 -0.53 1.44
-1.62 -0.51 1.46
-1.78 -0.50 1.44
-1.63 -0.47 1.46
-1.37 -0.26 1.50
-2.04 -0.27 1.39
-2.14 -0.26 1.38
-1.77 -0.95 1.39
-1.73 -0.57 1.41
-2.12 -0.26 1.34
-2.02 -0.96 1.31
-1.43 -0.59 1.42
-1.49 -0.59 1.41
-1.43 -0.57 1.42
-1.59 -0.58 1.40
-1.52 -0.56 1.41
-1.32 -0.53 1.45
-1.54 -0.54 1.41
-1.49 -0.51 1.42
-1.27 -0.47 1.46
-1.57 -0.50 1.40
-1.51 -0.48 1.41
-1.50 -0.47 1.41
-1.42 -0.45 1.43
-2.07 -0.28 1.31
-1.83 -0.25 1.35
-1.92 -0.20 1.33
-2.05 -0.19 1.31
-1.81 -0.15 1.35
-1.00 0.05 1.44
-1.59 -0.63 1.32
-1.63 -0.63 1.32
-1.57 -0.61 1.33
-1.47 -0.58 1.35
-1.51 -0.58 1.34
-1.44 -0.56 1.36
-1.40 -0.55 1.36
-1.38 -0.53 1.37
-1.27 -0.51 1.39
-1.41 -0.52 1.36
-1.38 -0.50 1.37
-1.49 -0.51 1.35
-1.66 -0.52 1.31
-1.49 -0.49 1.34
-1.53 -0.48 1.34
-1.45 -0.46 1.35
-1.58 -0.47 1.33
-1.68 -0.47 1.31
-1.61 -0.45 1.32
-1.58 -0.44 1.33
-1.88 -0.46 1.27
-2.22 -0.47 1.20
-2.13 -0.44 1.21
-2.14 -0.36 1.21
-2.14 -0.29 1.21
-2.07 -0.27 1.23
-2.11 -0.26 1.22
-2.01 -0.24 1.24
-1.81 -0.22 1.28
-2.18 -0.23 1.21
-1.99 -0.21 1.24
-1.84 -0.18 1.27
-1.67 -0.16 1.31
-1.68 -0.09 1.30
-2.03 -0.44 1.18
-1.50 -0.14 1.26
-1.65 -0.09 1.22
-1.62 -0.17 0.43
-1.63 -0.23 0.24
-1.21 -0.39 0.26
-1.33 -0.37 0.24
-3.75 0.54 2.22
-2.86 1.36 2.22
-3.86 0.54 2.21
-2.82 1.34 2.21
-2.94 1.39 2.20
-4.11 0.79 2.15
-4.34 0.46 2.14
-9.06 -0.71 1.98
-8.76 -0.64 1.99
-8.20 -0.43 2.00
-8.38 -0.22 1.99
-8.31 -0.15 1.99
-8.34 -0.12 1.99
-8.70 0.01 2.01
-8.63 -0.71 1.92
-8.59 -1.47 1.88
-8.36 -0.67 1.89
-8.55 -0.66 1.89
-8.60 -0.24 1.96
-8.70 -0.09 1.96
-8.65 -0.07 1.96
-9.22 -0.05 1.95
-3.75 0.45 2.07
-3.04 1.55 2.08
-8.03 -0.75 1.87
-8.80 -0.78 1.85
-8.52 -0.71 1.85
-8.36 -0.67 1.86
-8.42 -0.65 1.86
-8.38 -0.62 1.86
-8.39 -0.59 1.86
-8.20 -0.56 1.86
-8.88 -0.56 1.84
-14.87 -0.60 1.67
-8.77 0.01 1.90
-8.90 0.03 1.89
-8.95 -1.07 1.79
-8.49 -0.81 1.81
-8.47 -0.78 1.81
-8.12 -0.73 1.82
-8.47 -0.73 1.81
-8.25 -0.69 1.82
-8.59 -0.68 1.81
-8.65 -0.66 1.80
-8.72 -0.64 1.80
-8.81 -0.62 1.80
-8.66 -0.58 1.80
-15.14 -0.87 1.59
-15.06 -0.82 1.59
-9.02 -0.52 1.79
-14.90 -0.73 1.59
-8.28 -0.43 1.82
-15.41 -0.62 1.58
-8.30 -0.30 1.82
-7.83 -0.21 1.83
-8.20 0.01 1.78
-8.43 -1.60 1.77
-8.59 -1.57 1.76
-8.21 -0.92 1.78
-8.49 -0.89 1.77
-8.10 -0.83 1.78
-8.54 -0.84 1.76
-8.34 -0.80 1.77
-8.14 -0.76 1.78
-8.49 -0.70 1.77
-8.50 -0.68 1.77
-8.60 -0.66 1.76
-8.76 -0.64 1.76
-8.70 -0.56 1.76
-8.41 -1.65 1.73
-8.52 -1.64 1.72
-8.53 -1.59 1.72
-8.73 -1.24 1.71
-8.70 -1.10 1.72
-8.27 -0.98 1.73
-8.69 -0.96 1.72
-9.05 -0.91 1.70
-8.91 -0.87 1.71
-8.29 -0.80 1.73
-8.34 -0.77 1.73
-8.55 -0.76 1.72
-8.70 -0.72 1.72
-8.88 -0.70 1.71
-8.38 -0.65 1.73
-8.45 -0.62 1.73
-8.36 -0.59 1.73
-8.63 -0.58 1.72
-8.67 -0.55 1.72
-8.75 -0.53 1.71
-5.49 -0.34 1.85
-8.57 -0.44 1.72
-8.53 -0.42 1.72
-8.57 -0.30 1.84
-8.70 -0.28 1.83
-8.92 -0.20 1.82
-8.48 -0.17 1.84
-3.28 0.29 2.03
-3.56 1.17 2.01
-8.40 -1.67 1.68
-8.55 -1.67 1.68
-8.50 -1.61 1.68
-8.66 -1.17 1.67
-8.79 -1.02 1.67
-9.31 -0.95 1.64
-8.86 -0.81 1.66
-8.67 -0.77 1.67
-9.13 -0.77 1.65
-8.99 -0.74 1.66
-8.74 -0.67 1.67
-8.67 -0.63 1.67
-8.80 -0.61 1.67
-8.48 -0.57 1.68
-8.69 -0.55 1.67
-8.65 -0.53 1.67
-8.61 -0.50 1.68
-7.84 -0.09 1.71
-4.15 0.07 1.97
-14.95 0.74 1.45
-15.34 0.87 1.43
-13.33 1.44 1.52
-8.55 -1.67 1.62
-8.59 -1.65 1.62
-8.51 -1.62 1.63
-8.58 -1.38 1.62
-8.49 -1.08 1.63
-8.54 -1.06 1.63
-8.84 -1.03 1.61
-8.79 -1.00 1.62
-8.73 -0.97 1.62
-8.79 -0.89 1.62
-8.88 -0.87 1.61
-8.90 -0.84 1.61
-8.82 -0.81 1.61
-8.95 -0.79 1.61
-8.94 -0.76 1.61
-8.60 -0.69 1.62
-8.83 -0.67 1.61
-8.81 -0.64 1.61
-8.91 -0.49 1.75
-9.12 -0.48 1.74
-8.98 -0.45 1.74
-8.96 -0.42 1.74
-8.73 -0.39 1.76
-8.84 -0.38 1.75
-8.58 -0.30 1.76
-8.46 -0.17 1.77
-8.71 -0.09 1.75
-14.79 0.77 1.39
-4.16 0.65 1.95
-3.40 1.06 1.98
-2.98 1.40 1.99
-9.16 -1.45 1.54
-8.31 -1.08 1.59
-8.48 -1.05 1.58
-8.95 -0.98 1.56
-9.08 -0.96 1.55
-9.29 -0.95 1.54
-9.53 -0.94 1.53
-9.49 -0.91 1.53
-9.12 -0.86 1.55
-9.06 -0.82 1.55
-8.86 -0.78 1.56
-8.77 -0.75 1.57
-8.48 -0.70 1.58
-8.67 -0.69 1.57
-8.74 -0.67 1.57
-8.53 -0.63 1.58
-8.80 -0.62 1.56
-8.59 -0.58 1.58
-8.58 -0.55 1.58
-8.58 -0.52 1.58
-8.70 -0.50 1.57
-14.60 -0.56 1.25
-9.22 -1.60 1.48
-8.91 -1.53 1.50
-4.68 -0.73 1.75
-4.48 -0.69 1.76
-4.71 -0.70 1.75
-9.05 -1.05 1.49
-9.20 -1.03 1.49
-7.96 -0.90 1.56
-9.16 -0.97 1.49
-9.27 -0.90 1.48
-9.03 -0.85 1.50
-9.07 -0.83 1.49
-8.92 -0.76 1.50
-8.71 -0.72 1.51
-8.70 -0.69 1.52
-8.52 -0.65 1.53
-8.30 -0.61 1.54
-8.61 -0.61 1.52
-3.75 -0.33 1.81
-8.34 -0.54 1.54
-14.73 -0.77 1.16
-8.20 -0.38 1.54
-14.54 -0.55 1.17
-8.70 -0.09 1.67
-3.49 0.20 1.95
-13.33 1.57 1.33
-8.18 -1.07 1.50
-4.46 -0.69 1.73
-8.70 -0.99 1.46
-9.09 -0.94 1.44
-9.40 -0.90 1.42
-9.49 -0.88 1.41
-9.16 -0.83 1.43
-9.08 -0.80 1.44
-8.93 -0.73 1.45
-8.41 -0.67 1.48
-8.77 -0.67 1.46
-8.39 -0.62 1.48
-14.30 -0.55 1.11
-11.19 -0.25 1.31
-8.41 0.01 1.61
-8.52 0.14 1.60
-14.64 0.37 1.19
-8.41 -1.65 1.42
-8.56 -1.62 1.41
-4.34 -0.83 1.70
-4.42 -0.82 1.70
-8.41 -1.26 1.42
-4.46 -0.79 1.70
-4.49 -0.78 1.69
-4.45 -0.76 1.70
-4.36 -0.73 1.70
-4.52 -0.73 1.69
-4.42 -0.70 1.70
-4.29 -0.67 1.71
-4.41 -0.67 1.70
-4.45 -0.66 1.70
-4.31 -0.63 1.71
-4.27 -0.61 1.71
-4.50 -0.61 1.69
-4.46 -0.59 1.70
-4.18 -0.55 1.72
-8.83 -0.89 1.40
-9.04 -0.88 1.38
-8.86 -0.84 1.40
-8.83 -0.81 1.40
-4.23 -0.47 1.71
-8.62 -0.74 1.41
-8.88 -0.73 1.39
-8.55 -0.68 1.42
-8.38 -0.65 1.43
-9.19 -0.67 1.37
-14.66 -0.89 1.00
-9.07 -0.32 1.56
-8.62 -0.28 1.59
-8.77 -0.18 1.58
-15.42 -0.28 1.14
-6.50 0.27 1.51
-6.56 0.29 1.50
-8.30 0.50 1.57
-12.61 1.21 1.25
-2.81 0.73 1.95
-2.90 0.76 1.95
-2.51 1.39 1.95
-8.52 -1.67 1.36
-8.18 -1.41 1.38
-8.10 -1.14 1.39
-4.45 -0.67 1.66
-8.17 -0.99 1.38
-4.64 -0.62 1.65
-9.09 -0.97 1.32
-8.98 -0.93 1.33
-8.95 -0.87 1.33
-9.05 -0.85 1.32
-8.74 -0.75 1.34
-9.01 -0.74 1.32
-9.08 -0.71 1.32
-9.08 -0.69 1.32
-9.30 -0.67 1.30
-15.36 -0.88 0.85
-14.37 -0.43 0.93
-10.97 -0.28 1.18
-10.83 -0.24 1.19
-4.88 0.04 1.79
-5.43 0.12 1.74
-14.78 0.41 1.01
-14.70 0.44 1.02
-8.62 0.43 1.49
-8.40 0.52 1.51
-12.85 1.04 1.16
-12.81 1.13 1.16
-12.80 1.20 1.16
-13.22 1.27 1.13
-13.36 1.31 1.12
-13.09 1.32 1.14
-13.20 1.39 1.13
-13.75 1.52 1.08
-13.26 1.50 1.12
-13.41 1.58 1.11
-13.19 1.59 1.13
-13.47 1.65 1.10
-13.20 1.69 1.12
-8.40 -1.65 1.30
-8.64 -1.63 1.28
-8.94 -1.65 1.26
-8.39 -1.49 1.30
-8.43 -1.44 1.30
-8.42 -1.42 1.30
-8.22 -1.36 1.32
-3.17 -0.72 1.72
-3.79 -0.78 1.67
-4.38 -0.83 1.62
-4.33 -0.81 1.63
-8.42 -1.26 1.30
-4.49 -0.80 1.61
-2.53 -0.57 1.77
-4.16 -0.73 1.64
-4.44 -0.74 1.62
-4.29 -0.71 1.63
-4.17 -0.68 1.64
-4.55 -0.70 1.61
-4.46 -0.67 1.62
-4.25 -0.64 1.63
-4.12 -0.61 1.64
-4.23 -0.60 1.64
-4.17 -0.58 1.64
-4.23 -0.57 1.64
-4.25 -0.56 1.63
-4.29 -0.54 1.63
-4.14 -0.51 1.64
-4.07 -0.49 1.65
-4.04 -0.47 1.65
-4.17 -0.45 1.64
-3.80 -0.41 1.67
-3.61 -0.38 1.68
-3.88 -0.39 1.66
-3.68 -0.36 1.68
-9.29 -0.51 1.45
-9.13 -0.48 1.46
-9.14 -0.45 1.46
-9.10 -0.43 1.46
-8.87 -0.40 1.48
-8.87 -0.38 1.48
-8.80 -0.35 1.48
-8.99 -0.34 1.47
-8.82 -0.31 1.48
-8.57 -0.28 1.50
-8.73 -0.26 1.49
-4.67 -0.13 1.80
-8.46 -0.22 1.51
-12.28 -0.22 1.21
-5.11 -0.07 1.77
-8.83 -0.10 1.48
-9.08 -0.08 1.46
-12.77 0.08 1.11
-14.48 0.33 0.96
-8.55 0.36 1.46
-8.55 0.39 1.46
-8.34 0.42 1.47
-8.39 0.44 1.47
-8.26 0.45 1.48
-12.62 0.99 1.11
-12.83 1.07 1.10
-12.77 1.10 1.10
-12.94 1.14 1.08
-13.23 1.20 1.06
-13.09 1.22 1.07
-13.54 1.33 1.03
-13.33 1.34 1.05
-13.66 1.47 1.02
-13.45 1.48 1.04
-3.88 0.48 1.84
-13.30 1.60 1.05
-13.30 1.63 1.05
-2.82 1.09 1.91
-2.63 1.55 1.90
-8.48 -1.69 1.24
-8.32 -1.64 1.25
-8.49 -1.64 1.24
-8.51 -1.61 1.24
-8.24 -1.50 1.26
-8.74 -1.48 1.22
-8.64 -1.36 1.23
-4.37 -0.83 1.59
-8.40 -1.23 1.25
-3.89 -0.71 1.63
-4.24 -0.73 1.60
-4.28 -0.70 1.60
-4.25 -0.68 1.60
-4.31 -0.66 1.59
-4.38 -0.65 1.59
-4.36 -0.63 1.59
-4.05 -0.58 1.62
-4.16 -0.56 1.61
-4.13 -0.54 1.61
-4.16 -0.53 1.61
-4.10 -0.51 1.61
-4.01 -0.49 1.62
-4.19 -0.48 1.61
-4.09 -0.46 1.61
-3.98 -0.42 1.62
-3.83 -0.40 1.64
-3.91 -0.39 1.63
-3.88 -0.37 1.63
-3.92 -0.35 1.63
-3.97 -0.34 1.62
-4.01 -0.33 1.62
-3.84 -0.29 1.63
-7.77 -0.41 1.30
-4.30 -0.26 1.60
-7.77 -0.36 1.30
-10.63 -0.43 1.06
-7.67 -0.31 1.31
-3.54 -0.07 1.66
-12.37 -0.02 0.91
-12.36 0.01 1.06
-12.59 0.04 1.04
-12.49 0.07 1.05
-12.62 0.11 1.04
-14.57 0.40 0.86
-14.19 0.46 0.90
-14.09 0.49 0.90
-14.36 0.57 0.88
-14.20 0.60 0.89
-8.29 0.42 1.42
-8.29 0.46 1.42
-12.46 0.86 1.05
-12.56 0.93 1.04
-12.55 0.99 1.04
-12.31 1.00 1.06
-12.41 1.04 1.05
-13.57 1.60 0.94
-13.31 1.67 0.96
-8.61 -1.68 1.15
-2.73 -0.77 1.69
-8.84 -1.58 1.13
-8.81 -1.55 1.14
-7.99 -1.41 1.21
-4.23 -0.85 1.56
-4.37 -0.85 1.54
-4.25 -0.82 1.55
-4.24 -0.80 1.56
-7.86 -1.19 1.23
-7.91 -1.17 1.22
-4.06 -0.73 1.57
-3.96 -0.70 1.58
-4.16 -0.69 1.56
-4.16 -0.68 1.56
-4.29 -0.67 1.55
-4.54 -0.68 1.53
-4.28 -0.64 1.55
-4.16 -0.61 1.56
-4.43 -0.60 1.54
-4.03 -0.55 1.58
-4.13 -0.54 1.57
-4.17 -0.53 1.56
-4.10 -0.51 1.57
-4.11 -0.49 1.57
-4.16 -0.48 1.56
-3.94 -0.45 1.58
-4.01 -0.42 1.58
-4.02 -0.41 1.58
-4.01 -0.39 1.58
-3.83 -0.37 1.59
-3.80 -0.35 1.60
-3.77 -0.33 1.60
-3.86 -0.32 1.59
-3.76 -0.29 1.60
-3.73 -0.27 1.60
-3.52 -0.25 1.62
-10.68 -0.49 0.97
-10.93 -0.44 0.95
-4.01 -0.20 1.58
-10.63 -0.33 0.98
-4.96 -0.18 1.49
-5.64 -0.17 1.43
-3.06 -0.11 1.66
-12.05 -0.16 1.09
-12.24 -0.07 1.07
-2.94 0.02 1.64
-11.45 0.08 0.82
-10.95 0.27 0.87
-6.74 0.21 1.28
-10.78 0.33 0.89
-14.29 0.46 0.81
-14.27 0.50 0.81
-14.30 0.53 0.81
-14.30 0.60 0.81
-8.51 0.40 1.36
-11.91 0.73 1.03
-12.27 0.79 1.00
-12.37 0.82 0.99
-8.26 0.57 1.38
-12.27 0.87 0.99
-12.52 0.92 0.97
-12.69 0.97 0.95
-13.26 1.10 0.90
-12.92 1.11 0.93
-13.49 1.22 0.87
-13.05 1.28 0.92
-13.73 1.38 0.85
-13.79 1.49 0.84
-14.12 1.55 0.81
-14.77 1.66 0.75
-13.80 1.62 0.84
-13.77 1.69 0.84
-13.45 1.68 0.87
-8.02 1.08 1.39
-3.88 0.78 1.78
-2.46 1.49 1.88
-8.44 -1.68 1.11
-8.60 -1.68 1.09
-8.64 -1.66 1.09
-8.76 -1.62 1.08
-8.97 -1.62 1.06
-8.12 -1.45 1.14
-9.14 -1.56 1.04
-7.67 -1.29 1.19
-7.85 -1.24 1.17
-8.01 -1.23 1.15
-4.33 -0.79 1.51
-7.79 -1.16 1.18
-3.87 -0.71 1.55
-3.92 -0.68 1.55
-8.16 -1.10 1.14
-3.76 -0.64 1.57
-4.16 -0.66 1.53
-4.17 -0.64 1.53
-4.07 -0.62 1.54
-4.05 -0.60 1.54
-3.96 -0.58 1.55
-3.92 -0.56 1.55
-3.96 -0.55 1.55
-4.01 -0.53 1.54
-3.96 -0.51 1.55
-4.32 -0.52 1.51
-4.01 -0.49 1.54
-3.82 -0.46 1.56
-3.97 -0.45 1.55
-3.82 -0.43 1.56
-4.20 -0.43 1.52
-4.05 -0.41 1.54
-3.85 -0.38 1.56
-3.86 -0.37 1.56
-3.71 -0.34 1.57
-3.76 -0.33 1.57
-3.66 -0.31 1.58
-3.84 -0.30 1.56
-3.76 -0.29 1.57
-3.67 -0.25 1.57
-3.46 -0.23 1.59
-11.31 -0.48 0.84
-11.55 -0.46 0.81
-5.22 -0.24 1.42
-7.42 -0.25 1.21
-7.48 -0.23 1.21
-7.21 -0.18 1.23
-4.72 -0.12 1.47
-4.98 -0.10 1.45
-7.07 -0.06 1.25
-6.70 -0.04 1.28
-7.93 0.01 1.36
-8.09 0.03 1.34
-5.04 0.06 1.65
-7.11 0.10 1.44
-11.26 0.18 1.02
-7.34 0.14 1.42
-11.45 0.23 1.00
-7.73 0.18 1.38
-7.64 0.20 1.39
-7.58 0.21 1.39
-8.20 0.25 1.33
-12.20 0.40 0.93
-11.57 0.41 0.99
-11.82 0.44 0.96
-7.84 0.32 1.37
-8.16 0.35 1.33
-8.45 0.38 1.30
-8.22 0.41 1.33
-8.36 0.46 1.31
-11.77 0.67 0.97
-11.99 0.71 0.94
-11.95 0.74 0.95
-12.09 0.78 0.93
-12.29 0.82 0.91
-8.25 0.58 1.32
-12.41 0.89 0.90
-12.30 0.91 0.91
-12.70 1.03 0.87
-12.55 1.05 0.88
-7.29 0.67 1.42
-12.81 1.20 0.85
-13.59 1.33 0.77
-13.77 1.38 0.75
-14.09 1.45 0.72
-14.87 1.60 0.64
-15.39 1.69 0.59
-13.36 1.54 0.79
-13.69 1.68 0.76
-4.52 0.96 1.69
-2.73 1.28 1.84
-8.59 -1.68 1.02
-2.55 -0.77 1.65
-8.40 -1.60 1.04
-8.08 -1.53 1.07
-2.64 -0.74 1.64
-7.99 -1.46 1.08
-8.02 -1.44 1.08
-4.14 -0.90 1.48
-3.30 -0.76 1.57
-4.21 -0.86 1.47
-8.10 -1.32 1.07
-4.05 -0.81 1.49
-4.29 -0.82 1.47
-4.16 -0.79 1.48
-4.00 -0.76 1.50
-4.06 -0.75 1.49
-4.45 -0.77 1.45
-4.11 -0.72 1.49
-4.36 -0.73 1.46
-4.23 -0.70 1.47
-4.17 -0.68 1.48
-4.22 -0.67 1.47
-3.68 -0.60 1.53
-3.81 -0.60 1.52
-3.59 -0.56 1.54
-3.84 -0.57 1.51
-3.75 -0.54 1.52
-4.14 -0.56 1.48
-4.31 -0.56 1.47
-4.14 -0.53 1.48
-3.83 -0.49 1.51
-4.13 -0.50 1.48
-3.68 -0.45 1.53
-4.20 -0.47 1.48
-3.82 -0.43 1.52
-3.55 -0.40 1.54
-3.75 -0.39 1.52
-3.70 -0.37 1.53
-3.82 -0.37 1.52
-3.73 -0.35 1.53
-3.54 -0.32 1.54
-3.53 -0.31 1.55
-3.71 -0.30 1.53
-3.68 -0.28 1.53
-3.91 -0.28 1.51
-3.75 -0.26 1.52
-4.77 -0.28 1.42
-5.13 -0.18 1.64
-5.29 -0.18 1.63
-5.04 -0.15 1.65
-5.26 -0.15 1.63
-5.01 -0.13 1.66
-5.18 -0.12 1.64
-5.36 -0.11 1.62
-5.12 -0.09 1.65
-5.31 -0.08 1.63
-7.57 -0.10 1.40
-8.27 -0.09 1.33
-7.90 -0.07 1.36
-7.91 -0.05 1.36
-8.00 -0.03 1.35
-8.08 -0.01 1.34
-11.25 0.05 0.66
-10.34 0.07 0.76
-10.61 0.11 0.73
-10.30 0.20 0.77
-9.75 0.22 0.83
-10.60 0.26 0.73
-9.98 0.28 0.80
-10.50 0.33 0.74
-10.00 0.34 0.80
-10.89 0.46 0.70
-11.09 0.50 0.68
-10.80 0.53 0.71
-6.17 0.36 1.21
-6.07 0.40 1.22
-3.43 0.18 1.79
-12.18 0.75 0.84
-12.36 0.82 0.82
-12.60 0.93 0.80
-2.62 1.23 1.84
-2.39 1.41 1.85
-8.41 -1.65 0.97
-8.62 -1.65 0.94
-8.38 -1.59 0.97
-7.87 -1.47 1.03
-8.15 -1.48 1.00
-8.27 -1.47 0.99
-8.07 -1.26 1.01
-8.05 -1.24 1.01
-7.89 -1.19 1.03
-8.25 -1.13 0.99
-8.19 -1.10 1.00
-8.22 -1.08 0.99
-8.30 -1.03 0.99
-8.14 -0.99 1.00
-8.25 -0.97 0.99
-7.98 -0.92 1.02
-8.17 -0.86 1.00
-8.80 -0.86 0.93
-8.92 -0.81 0.92
-7.17 -0.62 1.11
-7.50 -0.59 1.07
-7.18 -0.53 1.11
-7.30 -0.27 1.09
-7.25 -0.23 1.10
-7.18 -0.20 1.11
-4.85 -0.14 1.36
-11.05 -0.08 0.69
-10.55 -0.05 0.74
-7.67 0.01 1.28
-7.53 0.03 1.30
-7.69 0.05 1.28
-12.09 0.10 0.77
-7.63 0.08 1.29
-7.43 0.10 1.31
-12.04 0.19 0.78
-7.80 0.14 1.26
-7.20 0.15 1.33
-7.41 0.17 1.31
-7.71 0.20 1.27
-7.30 0.21 1.32
-7.48 0.23 1.30
-7.56 0.25 1.29
-8.36 0.30 1.20
-12.16 0.46 0.76
-8.15 0.33 1.22
-12.07 0.51 0.77
-6.95 0.32 1.36
-11.66 0.55 0.82
-7.00 0.35 1.35
-3.29 0.18 1.78
-8.38 0.46 1.19
-6.71 0.39 1.38
-11.84 0.70 0.80
-12.09 0.75 0.77
-12.32 0.79 0.74
-8.62 0.58 1.16
-12.34 0.85 0.74
-12.43 0.92 0.73
-12.67 0.97 0.70
-12.56 0.99 0.71
-12.43 1.01 0.73
-12.77 1.07 0.69
-12.52 1.08 0.71
-12.65 1.12 0.70
-13.08 1.19 0.65
-13.25 1.24 0.63
-13.79 1.32 0.57
-13.31 1.31 0.62
-13.84 1.39 0.56
-14.59 1.50 0.47
-14.90 1.57 0.44
-15.00 1.62 0.42
-14.91 1.64 0.43
-15.05 1.69 0.42
-14.61 1.68 0.47
-13.88 1.63 0.55
-2.97 0.88 1.79
-8.14 -1.69 0.92
-8.28 -1.69 0.90
-8.30 -1.67 0.90
-8.57 -1.68 0.87
-8.23 -1.60 0.91
-8.33 -1.59 0.90
-8.12 -1.53 0.92
-3.86 -0.91 1.42
-8.44 -1.53 0.89
-7.96 -1.43 0.94
-8.04 -1.42 0.93
-3.97 -0.87 1.41
-4.21 -0.88 1.38
-4.15 -0.86 1.39
-3.91 -0.81 1.42
-4.01 -0.81 1.41
-3.93 -0.78 1.42
-4.18 -0.79 1.39
-4.07 -0.77 1.40
-3.92 -0.73 1.42
-4.07 -0.73 1.40
-3.89 -0.70 1.42
-4.05 -0.70 1.40
-4.50 -0.73 1.35
-4.44 -0.71 1.36
-3.41 -0.59 1.48
-8.08 -1.01 0.93
-3.50 -0.57 1.47
-3.72 -0.57 1.44
-4.77 -0.65 1.32
-4.00 -0.57 1.41
-3.29 -0.49 1.49
-4.19 -0.55 1.39
-3.31 -0.47 1.49
-3.19 -0.44 1.50
-4.58 -0.53 1.34
-3.45 -0.43 1.47
-3.60 -0.43 1.45
-3.49 -0.41 1.47
-3.13 -0.37 1.51
-3.56 -0.38 1.46
-3.21 -0.35 1.50
-4.30 -0.39 1.37
-10.17 -0.56 1.00
-5.78 -0.30 1.50
-5.04 -0.25 1.58
-5.42 -0.26 1.54
-5.45 -0.25 1.54
-5.38 -0.23 1.54
-10.80 -0.43 0.92
-4.86 -0.19 1.60
-11.23 -0.40 0.87
-11.31 -0.37 0.86
-4.71 -0.15 1.62
-4.56 -0.13 1.64
-11.95 -0.30 0.79
-11.47 -0.26 0.85
-8.03 -0.17 1.24
-4.54 -0.08 1.64
-11.48 -0.18 0.84
-5.04 -0.07 1.58
-12.50 -0.14 0.73
-12.53 -0.11 0.72
-7.09 -0.04 1.35
-7.52 -0.03 1.30
-7.55 -0.01 1.29
-6.26 0.01 1.09
-9.58 0.04 0.68
-11.95 0.07 0.71
-11.85 0.10 0.72
-7.57 0.08 1.24
-11.55 0.15 0.76
-7.71 0.12 1.22
-7.71 0.14 1.22
-7.33 0.15 1.27
-7.59 0.18 1.24
-7.64 0.20 1.23
-7.76 0.22 1.22
-8.45 0.26 1.13
-8.39 0.28 1.14
-12.08 0.42 0.69
-8.45 0.32 1.13
-6.81 0.28 1.33
-6.62 0.28 1.35
-6.79 0.31 1.33
-6.52 0.31 1.37
-6.61 0.33 1.36
-6.61 0.35 1.35
-6.58 0.36 1.36
-12.07 0.68 0.69
-6.55 0.39 1.36
-12.17 0.75 0.68
-12.66 0.81 0.62
-12.48 0.83 0.64
-12.53 0.86 0.63
-6.54 0.47 1.36
-12.64 0.93 0.62
-12.70 0.97 0.61
-13.00 1.02 0.57
-12.60 1.02 0.62
-12.88 1.07 0.59
-12.82 1.10 0.59
-12.57 1.11 0.62
-12.92 1.17 0.58
-12.91 1.20 0.58
-12.84 1.23 0.59
-12.52 1.23 0.63
-6.68 0.68 1.34
-12.90 1.33 0.58
-12.98 1.37 0.57
-14.28 1.54 0.41
-14.05 1.55 0.44
-14.12 1.59 0.43
-13.68 1.57 0.48
-13.62 1.67 0.49
-3.22 1.18 1.73
-8.19 -1.67 0.84
-8.10 -1.63 0.85
-8.02 -1.59 0.87
-8.34 -1.61 0.83
-8.21 -1.57 0.84
-8.54 -1.59 0.80
-8.29 -1.53 0.83
-3.99 -0.91 1.37
-4.08 -0.91 1.35
-4.12 -0.90 1.35
-4.24 -0.90 1.33
-8.30 -1.40 0.83
-4.11 -0.85 1.35
-4.07 -0.83 1.36
-3.96 -0.80 1.37
-4.10 -0.80 1.35
-4.05 -0.78 1.36
-3.94 -0.73 1.37
-5.07 -0.84 1.23
-7.71 -1.10 0.91
-4.24 -0.72 1.33
-4.29 -0.71 1.33
-4.17 -0.68 1.34
-4.56 -0.70 1.30
-7.82 -0.99 0.89
-4.12 -0.62 1.35
-3.60 -0.56 1.41
-3.68 -0.55 1.40
-3.05 -0.48 1.48
-5.11 -0.64 1.23
-5.05 -0.62 1.24
-3.28 -0.46 1.45
-3.23 -0.44 1.46
-3.17 -0.43 1.47
-3.27 -0.42 1.46
-3.38 -0.41 1.44
-3.30 -0.39 1.45
-3.41 -0.39 1.44
-3.67 -0.39 1.41
-3.19 -0.34 1.46
-3.63 -0.35 1.41
-4.67 -0.40 1.28
-4.79 -0.38 1.27
-3.29 -0.29 1.45
-5.44 -0.38 1.19
-3.21 -0.26 1.46
-3.12 -0.24 1.47
-6.65 -0.37 1.04
-5.79 -0.31 1.15
-3.48 -0.22 1.43
-3.56 -0.20 1.42
-3.37 -0.18 1.44
-3.58 -0.17 1.42
-3.83 -0.17 1.39
-3.38 -0.14 1.44
-3.71 -0.13 1.40
-6.14 -0.16 1.10
-6.27 -0.14 1.09
-6.16 -0.12 1.10
-6.12 -0.10 1.10
-6.13 -0.08 1.10
-6.14 -0.06 1.10
-6.05 -0.03 1.11
-3.66 -0.01 1.41
-7.76 0.01 1.16
-7.82 0.03 1.15
-7.54 0.05 1.19
-8.50 0.07 1.06
-7.65 0.08 1.17
-7.72 0.10 1.17
-7.69 0.12 1.17
-7.51 0.14 1.19
-7.50 0.16 1.19
-7.39 0.17 1.21
-7.19 0.18 1.23
-7.02 0.20 1.25
-7.23 0.22 1.23
-7.59 0.25 1.18
-7.24 0.26 1.22
-7.15 0.27 1.24
-7.33 0.30 1.21
-6.80 0.29 1.28
-6.77 0.31 1.28
-6.62 0.32 1.30
-6.50 0.33 1.32
-6.38 0.34 1.33
-6.32 0.35 1.34
-6.45 0.37 1.32
-6.37 0.38 1.33
-6.41 0.40 1.33
-6.54 0.43 1.31
-6.79 0.46 1.28
-6.64 0.47 1.30
-6.61 0.48 1.30
-6.70 0.50 1.29
-6.71 0.52 1.29
-12.66 0.99 0.52
-6.55 0.54 1.31
-12.48 1.04 0.54
-12.59 1.08 0.53
-12.66 1.12 0.52
-12.62 1.15 0.52
-6.54 0.62 1.31
-6.83 0.67 1.27
-12.52 1.23 0.53
-6.41 0.66 1.32
-12.69 1.31 0.51
-12.59 1.33 0.52
-6.67 0.73 1.29
-14.09 1.55 0.33
-13.46 1.52 0.41
-6.92 0.81 1.25
-14.16 1.66 0.32
-12.95 1.56 0.47
-13.07 1.60 0.46
-12.99 1.66 0.46
-4.02 1.06 1.61
-2.53 -0.92 1.50
-8.27 -1.69 0.75
-8.13 -1.64 0.77
-8.34 -1.64 0.75
-3.64 -0.93 1.36
-3.70 -0.92 1.35
-3.91 -0.93 1.33
-3.88 -0.91 1.33
-3.88 -0.90 1.33
-3.83 -0.88 1.34
-3.89 -0.87 1.33
-4.03 -0.87 1.31
-4.10 -0.86 1.30
-4.02 -0.84 1.31
-4.20 -0.84 1.29
-4.23 -0.83 1.29
-4.01 -0.79 1.31
-4.02 -0.77 1.31
-3.93 -0.75 1.32
-4.02 -0.74 1.31
-4.26 -0.75 1.28
-4.00 -0.71 1.32
-4.17 -0.71 1.29
-4.07 -0.68 1.31
-4.14 -0.67 1.30
-4.77 -0.70 1.22
-4.78 -0.68 1.21
-4.50 -0.64 1.25
-4.64 -0.64 1.23
-3.90 -0.56 1.33
-3.82 -0.54 1.34
-4.72 -0.59 1.22
-4.69 -0.57 1.23
-4.39 -0.53 1.26
-3.80 -0.47 1.34
-3.49 -0.43 1.38
-3.63 -0.43 1.36
-5.00 -0.50 1.19
-4.89 -0.48 1.20
-3.71 -0.39 1.35
-4.74 -0.43 1.22
-3.36 -0.34 1.40
-3.07 -0.31 1.44
-3.49 -0.32 1.38
-3.42 -0.30 1.39
-4.60 -0.34 1.24
-4.29 -0.31 1.28
-4.56 -0.30 1.24
-3.56 -0.25 1.37
-3.32 -0.22 1.40
-3.51 -0.22 1.38
-3.62 -0.20 1.37
-3.49 -0.19 1.38
-3.41 -0.17 1.39
-3.57 -0.16 1.37
-3.98 -0.15 1.32
-4.29 -0.14 1.28
-3.98 -0.12 1.32
-4.04 -0.11 1.31
-7.54 -0.10 1.19
-7.68 -0.08 1.17
-7.82 -0.07 1.15
-7.36 -0.04 1.21
-7.20 -0.03 1.23
-7.28 -0.01 1.22
-6.02 0.01 0.99
-5.72 0.03 1.03
-5.45 0.05 1.07
-5.35 0.06 1.08
-5.43 0.08 1.07
-5.41 0.12 1.07
-5.46 0.16 1.07
-5.50 0.18 1.06
-5.33 0.20 1.08
-6.87 0.19 1.22
-7.08 0.22 1.20
-7.30 0.24 1.16
-6.86 0.24 1.22
-6.88 0.26 1.22
-6.78 0.27 1.23
-7.00 0.30 1.20
-6.77 0.32 1.24
-6.59 0.33 1.26
-6.37 0.34 1.29
-6.51 0.36 1.27
-6.50 0.38 1.27
-6.53 0.39 1.27
-6.43 0.40 1.28
-7.06 0.46 1.19
-7.41 0.50 1.15
-7.45 0.52 1.14
-6.54 0.47 1.26
-6.57 0.49 1.26
-6.61 0.51 1.25
-6.25 0.50 1.30
-12.70 1.03 0.42
-12.55 1.08 0.44
-13.12 1.16 0.36
-13.28 1.20 0.34
-12.92 1.20 0.39
-13.16 1.26 0.36
-6.63 0.68 1.25
-6.80 0.71 1.22
-13.54 1.46 0.30
-12.88 1.45 0.39
-13.09 1.51 0.36
-12.89 1.55 0.39
-4.24 0.55 1.57
-12.77 1.63 0.40
-7.59 1.00 1.11
-7.67 1.20 1.09
-3.41 -0.90 1.35
-8.45 -1.63 0.65
-3.71 -0.92 1.31
-3.77 -0.91 1.30
-3.87 -0.90 1.29
-4.07 -0.87 1.26
-4.02 -0.85 1.26
-3.97 -0.75 1.27
-4.01 -0.74 1.27
-3.97 -0.72 1.27
-3.91 -0.70 1.28
-4.09 -0.70 1.26
-7.66 -0.95 0.77
-4.78 -0.67 1.16
-4.76 -0.65 1.17
-4.74 -0.63 1.17
-3.56 -0.50 1.33
-7.27 -0.75 0.82
-4.75 -0.54 1.17
-3.14 -0.41 1.39
-5.15 -0.53 1.11
-7.61 -0.67 0.77
-4.81 -0.46 1.16
-4.75 -0.42 1.17
-4.73 -0.40 1.17
-4.50 -0.37 1.20
-3.18 -0.29 1.38
-3.34 -0.28 1.36
-3.13 -0.24 1.39
-3.20 -0.22 1.38
-3.20 -0.20 1.38
-3.45 -0.20 1.35
-3.15 -0.18 1.39
-3.16 -0.16 1.38
-6.69 -0.21 0.90
-4.09 -0.12 1.26
-3.87 -0.10 1.29
-6.55 -0.12 0.92
-6.56 -0.10 0.92
-6.72 -0.08 0.90
-6.12 -0.03 0.98
-7.21 0.01 1.12
-6.86 0.03 1.17
-6.72 0.04 1.19
-7.01 0.06 1.15
-10.50 0.11 0.65
-10.41 0.14 0.66
-7.36 0.12 1.10
-8.24 0.15 0.97
-7.33 0.15 1.10
-6.93 0.16 1.16
-7.48 0.19 1.08
-7.25 0.20 1.11
-7.65 0.23 1.05
-7.23 0.24 1.11
-6.99 0.25 1.15
-7.14 0.27 1.13
-6.82 0.28 1.17
-6.62 0.28 1.20
-6.67 0.30 1.19
-6.80 0.33 1.17
-6.51 0.33 1.22
-6.52 0.35 1.21
-7.10 0.39 1.13
-6.64 0.38 1.20
-6.69 0.40 1.19
-7.39 0.46 1.09
-6.58 0.43 1.20
-6.39 0.43 1.23
-6.52 0.46 1.21
-6.52 0.47 1.21
-6.28 0.47 1.25
-6.75 0.52 1.18
-5.87 0.47 1.30
-6.72 0.56 1.18
-6.14 0.52 1.26
-6.55 0.57 1.21
-6.42 0.58 1.22
-7.23 0.67 1.11
-6.70 0.64 1.18
-12.41 1.19 0.36
-6.62 0.66 1.19
-6.86 0.70 1.16
-6.82 0.72 1.16
-7.05 0.76 1.13
-7.12 0.78 1.12
-7.73 0.88 1.03
-7.65 0.90 1.04
-7.81 0.93 1.02
-7.56 1.06 1.05
-7.84 1.17 1.01
-7.89 1.20 1.00
-7.62 1.18 1.04
-7.67 1.21 1.03
-7.68 1.25 1.03
-2.41 -0.87 1.44
-2.87 -0.88 1.38
-3.56 -0.94 1.28
-3.77 -0.96 1.25
-3.71 -0.94 1.26
-3.71 -0.92 1.26
-3.73 -0.91 1.25
-3.97 -0.93 1.22
-4.00 -0.92 1.21
-3.93 -0.89 1.22
-4.04 -0.89 1.21
-4.07 -0.88 1.20
-4.24 -0.88 1.18
-4.01 -0.84 1.21
-4.14 -0.84 1.19
-4.03 -0.81 1.21
-3.99 -0.79 1.22
-3.74 -0.74 1.25
-3.72 -0.73 1.26
-3.70 -0.71 1.26
-3.94 -0.72 1.22
-3.84 -0.69 1.24
-4.21 -0.72 1.18
-4.66 -0.74 1.12
-4.13 -0.67 1.20
-3.97 -0.64 1.22
-4.31 -0.66 1.17
-4.48 -0.66 1.15
-4.07 -0.60 1.21
-4.86 -0.66 1.09
-4.94 -0.65 1.08
-3.48 -0.51 1.29
-4.41 -0.57 1.16
-4.74 -0.58 1.11
-5.02 -0.58 1.07
-5.02 -0.56 1.07
-4.71 -0.52 1.11
-3.14 -0.40 1.34
-3.05 -0.38 1.35
-5.39 -0.51 1.02
-3.07 -0.35 1.35
-4.87 -0.44 1.09
-3.09 -0.33 1.35
-3.14 -0.31 1.34
-6.64 -0.48 0.83
-6.64 -0.46 0.83
-4.54 -0.34 1.14
-4.63 -0.32 1.12
-4.61 -0.31 1.13
-6.56 -0.37 0.85
-6.48 -0.34 0.86
-6.49 -0.32 0.85
-8.00 -0.26 1.01
-10.48 -0.32 0.65
-10.96 -0.31 0.58
-7.84 -0.20 1.03
-5.05 -0.12 1.43
-10.30 -0.21 0.68
-4.55 -0.08 1.50
-7.04 -0.11 1.15
-7.62 -0.10 1.06
-7.95 -0.09 1.01
-4.58 -0.04 1.50
-7.46 -0.05 1.08
-8.53 -0.03 0.93
-6.97 -0.01 1.16
-5.48 0.22 0.94
-6.07 0.29 1.23
-11.69 0.58 0.38
-11.66 0.60 0.39
-11.59 0.63 0.40
-12.27 0.99 0.29
-8.81 -1.65 0.43
-8.30 -1.55 0.50
-7.87 -1.19 0.57
-7.95 -1.15 0.56
-8.05 -1.13 0.55
-8.01 -1.11 0.55
-7.91 -1.04 0.57
-7.91 -0.99 0.57
-7.96 -0.97 0.56
-7.77 -0.93 0.59
-7.98 -0.92 0.56
-7.94 -0.90 0.57
-8.69 -0.91 0.45
-8.74 -0.86 0.44
-8.31 -0.80 0.51
-8.38 -0.78 0.50
-8.54 -0.73 0.48
-8.91 -0.65 0.42
-6.93 -0.52 0.72
-6.67 -0.41 0.76
-6.62 -0.39 0.77
-6.63 -0.34 0.77
-6.63 -0.32 0.77
-6.48 -0.27 0.79
-6.52 -0.25 0.78
-5.96 -0.20 0.87
-6.68 -0.13 0.76
-6.55 0.01 1.11
-6.53 0.02 1.11
-6.62 0.04 1.10
-6.33 0.05 1.14
-6.55 0.07 1.11
-6.37 0.09 1.14
-6.39 0.10 1.13
-6.34 0.12 1.14
-6.26 0.13 1.15
-6.67 0.16 1.09
-6.68 0.17 1.09
-7.15 0.20 1.01
-6.82 0.21 1.06
-7.28 0.24 0.99
-7.15 0.25 1.01
-7.23 0.27 1.00
-7.27 0.29 0.99
-7.19 0.31 1.00
-7.14 0.32 1.01
-6.84 0.33 1.06
-7.48 0.38 0.96
-7.66 0.40 0.93
-7.46 0.41 0.96
-7.12 0.41 1.01
-7.74 0.48 0.91
-7.22 0.47 0.99
-6.78 0.46 1.07
-6.82 0.48 1.06
-6.59 0.50 1.09
-6.85 0.53 1.05
-6.65 0.53 1.08
-6.27 0.52 1.14
-6.27 0.55 1.14
-7.00 0.65 1.03
-6.83 0.65 1.05
-7.16 0.70 1.00
-7.07 0.71 1.01
-7.09 0.74 1.01
-7.18 0.77 0.99
-7.08 0.78 1.01
-7.44 0.83 0.95
-7.40 0.85 0.96
-7.63 0.93 0.92
-8.16 1.08 0.83
-7.89 1.06 0.87
-7.81 1.07 0.89
-7.73 1.08 0.90
-7.54 1.09 0.93
-7.73 1.22 0.89
-3.84 -1.00 1.13
-3.75 -0.98 1.15
-3.63 -0.94 1.17
-3.77 -0.95 1.15
-3.81 -0.94 1.14
-3.93 -0.94 1.12
-8.64 -1.58 0.36
-3.96 -0.91 1.12
-3.82 -0.88 1.14
-3.81 -0.85 1.14
-8.26 -1.37 0.42
-3.66 -0.76 1.17
-3.79 -0.76 1.14
-3.79 -0.75 1.14
-3.71 -0.73 1.16
-3.58 -0.70 1.18
-2.35 -0.55 1.38
-2.75 -0.58 1.31
-4.57 -0.75 1.02
-3.88 -0.67 1.13
-7.86 -1.04 0.49
-3.27 -0.58 1.23
-3.27 -0.56 1.23
-2.64 -0.49 1.33
-2.74 -0.49 1.31
-2.80 -0.48 1.30
-2.69 -0.46 1.32
-2.70 -0.44 1.32
-2.86 -0.44 1.29
-2.58 -0.41 1.34
-2.57 -0.40 1.34
-2.80 -0.40 1.30
-8.45 -0.78 0.40
-8.36 -0.75 0.41
-2.37 -0.33 1.37
-2.38 -0.30 1.37
-8.89 -0.65 0.33
-4.96 -0.28 1.36
-10.65 -0.56 0.46
-5.34 -0.27 1.30
-5.11 -0.25 1.34
-7.10 -0.32 1.02
-4.85 -0.21 1.38
-7.68 -0.31 0.93
-7.46 -0.28 0.97
-7.81 -0.28 0.91
-7.64 -0.25 0.94
-10.68 -0.33 0.46
-7.98 -0.22 0.88
-9.88 -0.25 0.58
-4.39 -0.10 1.45
-4.44 -0.09 1.45
-7.91 -0.15 0.89
-4.40 -0.07 1.45
-4.46 -0.06 1.44
-8.09 -0.09 0.87
-4.18 -0.04 1.49
-4.29 -0.03 1.47
-6.54 -0.02 1.11
-6.43 -0.01 1.13
-5.62 0.01 0.79
-5.79 0.03 0.76
-5.95 0.05 0.73
-6.62 0.06 1.05
-6.83 0.07 1.01
-6.62 0.09 1.05
-7.02 0.11 0.98
-8.10 0.15 0.80
-7.75 0.16 0.86
-8.06 0.19 0.80
-8.11 0.21 0.80
-8.18 0.23 0.78
-8.02 0.24 0.81
-7.16 0.24 0.95
-7.83 0.28 0.84
-6.96 0.26 0.99
-7.73 0.31 0.86
-7.66 0.33 0.87
-7.70 0.35 0.86
-7.96 0.38 0.82
-7.83 0.39 0.84
-7.97 0.42 0.82
-7.42 0.41 0.91
-7.50 0.43 0.89
-7.59 0.45 0.88
-6.97 0.44 0.98
-7.29 0.47 0.93
-6.95 0.47 0.98
-7.54 0.53 0.88
-6.80 0.49 1.01
-6.77 0.51 1.01
-6.96 0.54 0.98
-6.71 0.54 1.02
-6.58 0.54 1.04
-6.73 0.57 1.02
-6.92 0.60 0.98
-6.84 0.61 1.00
-6.86 0.63 0.99
-6.80 0.64 1.00
-6.81 0.66 1.00
-7.15 0.71 0.94
-7.20 0.73 0.94
-6.82 0.71 1.00
-6.80 0.73 1.00
-7.37 0.81 0.91
-7.43 0.83 0.90
-7.39 0.85 0.90
-7.41 0.87 0.90
-7.48 0.89 0.88
-7.53 0.92 0.88
-7.37 0.92 0.90
-7.56 0.96 0.87
-7.39 0.96 0.90
-7.46 0.98 0.88
-7.70 1.03 0.84
-7.72 1.06 0.84
-7.50 1.05 0.88
-7.55 1.07 0.87
-7.53 1.09 0.87
-7.46 1.10 0.88
-7.42 1.11 0.89
-7.64 1.16 0.85
-7.56 1.17 0.86
-7.53 1.24 0.86
-3.87 1.05 1.46
-2.62 1.35 1.63
-3.70 -1.03 1.11
-3.72 -1.01 1.10
-3.70 -1.00 1.11
-3.87 -1.01 1.08
-3.88 -0.99 1.08
-3.86 -0.97 1.08
-3.69 -0.93 1.11
-3.85 -0.94 1.08
-3.89 -0.93 1.08
-3.87 -0.91 1.08
-3.79 -0.88 1.09
-3.73 -0.74 1.11
-3.50 -0.68 1.14
-3.23 -0.63 1.19
-3.22 -0.61 1.19
-3.38 -0.61 1.17
-3.20 -0.58 1.20
-2.89 -0.54 1.25
-3.12 -0.55 1.21
-2.91 -0.51 1.25
-2.76 -0.49 1.27
-2.68 -0.47 1.28
-2.62 -0.45 1.29
-2.60 -0.43 1.30
-2.49 -0.41 1.32
-2.26 -0.38 1.35
-2.63 -0.40 1.29
-2.60 -0.38 1.30
-2.56 -0.37 1.30
-2.53 -0.35 1.31
-2.22 -0.32 1.36
-2.31 -0.30 1.35
-2.17 -0.28 1.37
-2.34 -0.26 1.34
-2.35 -0.25 1.34
-2.21 -0.23 1.36
-6.79 -0.42 0.59
-2.47 -0.22 1.32
-6.52 -0.36 0.64
-2.38 -0.19 1.33
-2.52 -0.18 1.31
-2.22 -0.16 1.36
-6.39 -0.27 0.66
-6.59 -0.26 0.63
-5.95 -0.22 0.73
-5.80 -0.19 0.76
-5.95 -0.18 0.73
-3.33 -0.11 1.17
-3.18 -0.09 1.20
-3.53 -0.08 1.14
-5.67 -0.09 0.78
-5.78 -0.07 0.76
-5.87 -0.05 0.75
-5.64 -0.03 0.78
-5.66 -0.01 0.78
-6.51 0.01 1.01
-6.61 0.02 0.99
-6.52 0.06 1.00
-6.63 0.07 0.99
-7.86 0.12 0.77
-7.79 0.14 0.78
-6.61 0.14 0.99
-7.90 0.18 0.76
-8.08 0.21 0.73
-8.08 0.25 0.73
-8.16 0.27 0.72
-8.05 0.28 0.73
-7.87 0.30 0.77
-7.87 0.32 0.77
-8.41 0.36 0.67
-8.44 0.40 0.67
-8.26 0.41 0.70
-8.23 0.45 0.70
-8.06 0.46 0.73
-7.93 0.47 0.75
-6.84 0.43 0.94
-6.76 0.44 0.96
-6.64 0.47 0.98
-6.66 0.50 0.97
-6.88 0.53 0.93
-6.97 0.56 0.92
-6.73 0.56 0.96
-6.75 0.59 0.95
-6.77 0.61 0.95
-6.63 0.63 0.97
-6.78 0.66 0.95
-6.70 0.67 0.96
-7.05 0.72 0.90
-7.06 0.74 0.90
-7.02 0.77 0.90
-7.14 0.80 0.88
-7.22 0.85 0.87
-7.28 0.87 0.85
-7.23 0.88 0.86
-7.38 0.94 0.84
-7.17 0.93 0.87
-7.49 1.01 0.81
-7.42 1.02 0.83
-7.96 1.11 0.73
-7.61 1.08 0.79
-7.77 1.12 0.76
-7.45 1.12 0.82
-7.39 1.12 0.83
-7.36 1.16 0.83
-7.76 1.24 0.76
-8.12 1.31 0.69
-7.98 1.31 0.72
-7.77 1.32 0.75
-3.57 -1.08 1.08
-3.58 -1.07 1.07
-3.67 -1.07 1.06
-3.80 -1.07 1.04
-3.84 -1.06 1.03
-4.13 -1.10 0.98
-4.00 -1.06 1.00
-4.37 -1.10 0.93
-4.02 -1.03 1.00
-4.06 -1.02 0.99
-4.04 -1.00 0.99
-3.78 -0.95 1.04
-3.97 -0.96 1.01
-3.90 -0.93 1.02
-3.73 -0.89 1.05
-3.75 -0.88 1.05
-3.96 -0.89 1.01
-3.88 -0.87 1.02
-3.46 -0.78 1.10
-3.64 -0.79 1.07
-3.77 -0.79 1.04
-3.51 -0.75 1.09
-3.61 -0.74 1.07
-4.77 -0.86 0.87
-3.60 -0.71 1.07
-3.51 -0.69 1.09
-3.69 -0.69 1.06
-3.49 -0.65 1.09
-3.48 -0.64 1.10
-3.42 -0.62 1.11
-3.53 -0.61 1.09
-3.27 -0.57 1.13
-3.08 -0.54 1.17
-2.25 -0.45 1.32
-2.98 -0.51 1.19
-3.06 -0.50 1.17
-2.82 -0.47 1.21
-2.84 -0.46 1.21
-2.87 -0.44 1.20
-2.96 -0.44 1.19
-2.90 -0.42 1.20
-2.80 -0.40 1.22
-2.72 -0.38 1.23
-3.31 -0.41 1.13
-7.32 -0.66 0.42
-2.97 -0.36 1.19
-7.45 -0.62 0.39
-6.59 -0.52 0.55
-6.29 -0.46 0.60
-6.84 -0.47 0.50
-4.98 -0.36 0.83
-6.80 -0.42 0.51
-6.73 -0.39 0.52
-6.71 -0.37 0.53
-6.54 -0.34 0.56
-6.58 -0.32 0.55
-7.05 -0.29 0.47
-6.16 -0.24 0.62
-6.05 -0.22 0.64
-5.58 -0.19 0.73
-5.75 -0.17 0.69
-5.66 -0.15 0.71
-5.51 -0.13 0.74
-7.78 -0.11 0.79
-4.39 -0.04 1.38
-7.13 -0.03 0.90
-6.80 -0.01 0.96
-3.78 0.00 0.99
-5.40 0.03 0.69
-3.95 0.04 0.96
-5.24 0.06 0.71
-6.21 0.09 0.53
-5.87 0.11 0.60
-5.30 0.12 0.70
-5.51 0.14 0.66
-5.45 0.16 0.68
-5.18 0.17 0.72
-5.12 0.19 0.74
-8.03 0.22 0.67
-8.30 0.25 0.62
-6.99 0.25 0.86
-6.65 0.25 0.92
-6.84 0.28 0.89
-8.03 0.34 0.67
-8.77 0.39 0.53
-8.68 0.41 0.55
-8.40 0.42 0.60
-7.98 0.42 0.67
-8.48 0.46 0.58
-8.81 0.50 0.52
-9.02 0.54 0.48
-6.56 0.41 0.93
-6.85 0.44 0.88
-6.94 0.47 0.86
-6.71 0.47 0.91
-6.61 0.48 0.92
-6.73 0.50 0.90
-6.59 0.51 0.93
-6.60 0.53 0.92
-6.57 0.54 0.93
-6.55 0.56 0.93
-6.66 0.58 0.91
-6.60 0.59 0.92
-6.64 0.61 0.92
-6.32 0.60 0.97
-6.81 0.66 0.88
-6.86 0.68 0.87
-6.83 0.70 0.88
-6.98 0.73 0.85
-6.99 0.75 0.85
-7.08 0.77 0.83
-6.96 0.78 0.85
-7.09 0.81 0.83
-7.06 0.83 0.83
-7.23 0.86 0.80
-5.36 0.66 1.14
-5.18 0.65 1.18
-7.73 0.98 0.70
-7.59 0.98 0.73
-7.85 1.03 0.68
-7.87 1.05 0.68
-7.77 1.06 0.69
-7.87 1.09 0.67
-7.69 1.09 0.71
-7.62 1.10 0.72
-7.56 1.11 0.73
-7.61 1.13 0.72
-7.96 1.21 0.65
-7.89 1.22 0.67
-7.68 1.20 0.71
-7.76 1.24 0.69
-7.86 1.27 0.67
-7.91 1.30 0.66
-7.89 1.32 0.66
-7.85 1.33 0.67
-7.98 1.37 0.64
-8.02 1.40 0.64
-7.99 1.41 0.64
-3.53 -1.10 1.03
-3.71 -1.06 1.00
-3.66 -1.03 1.00
-3.93 -1.06 0.96
-4.03 -1.06 0.94
-3.56 -0.93 1.03
-3.19 -0.62 1.10
-3.03 -0.59 1.13
-3.05 -0.58 1.12
-2.32 -0.49 1.26
-2.59 -0.51 1.21
-2.39 -0.48 1.25
-2.56 -0.47 1.21
-2.65 -0.45 1.20
-2.64 -0.44 1.20
-2.39 -0.40 1.25
-2.35 -0.39 1.25
-2.43 -0.38 1.24
-2.44 -0.37 1.24
-2.58 -0.36 1.21
-2.43 -0.34 1.24
-2.43 -0.32 1.24
-2.57 -0.32 1.21
-2.24 -0.25 1.28
-6.50 -0.45 0.48
-2.22 -0.23 1.28
-6.74 -0.39 0.44
-2.19 -0.18 1.28
-2.32 -0.18 1.26
-2.20 -0.15 1.28
-6.12 -0.22 0.55
-6.28 -0.21 0.52
-3.03 -0.12 1.13
-3.44 -0.11 1.05
-5.41 -0.13 0.69
-5.82 -0.11 0.61
-6.50 -0.10 0.48
-5.82 -0.07 0.61
-6.81 -0.06 0.43
-6.86 -0.04 0.42
-6.27 -0.01 0.53
-7.66 0.01 0.67
-7.47 0.03 0.70
-7.70 0.05 0.66
-7.56 0.06 0.69
-6.66 0.07 0.86
-6.23 0.08 0.94
-6.51 0.10 0.89
-5.98 0.11 0.99
-6.44 0.13 0.90
-8.05 0.19 0.59
-7.99 0.20 0.60
-8.11 0.23 0.58
-8.07 0.24 0.59
-6.45 0.21 0.90
-7.98 0.28 0.60
-8.13 0.31 0.57
-8.45 0.34 0.51
-7.93 0.34 0.61
-8.38 0.38 0.52
-8.48 0.40 0.50
-8.38 0.42 0.52
-8.45 0.44 0.51
-8.51 0.47 0.50
-8.34 0.48 0.53
-8.43 0.50 0.51
-8.74 0.54 0.45
-6.69 0.44 0.85
-6.85 0.46 0.82
-6.73 0.47 0.84
-6.63 0.48 0.86
-6.46 0.49 0.89
-6.55 0.51 0.87
-6.52 0.52 0.88
-6.82 0.56 0.82
-6.70 0.57 0.84
-6.90 0.60 0.80
-6.71 0.60 0.84
-7.09 0.65 0.76
-7.33 0.69 0.72
-7.03 0.68 0.77
-7.29 0.73 0.72
-6.78 0.69 0.82
-6.70 0.70 0.84
-6.78 0.73 0.82
-6.57 0.72 0.86
-8.10 0.90 0.56
-7.74 0.89 0.63
-7.39 0.86 0.70
-7.44 0.89 0.69
-7.48 0.91 0.68
-7.55 0.94 0.67
-7.35 0.93 0.71
-7.35 0.95 0.71
-7.74 1.02 0.63
-7.32 0.99 0.71
-7.27 1.00 0.72
-7.17 1.00 0.74
-7.45 1.06 0.68
-7.30 1.06 0.71
-7.20 1.06 0.73
-7.18 1.08 0.73
-7.29 1.11 0.71
-7.53 1.17 0.66
-7.62 1.20 0.64
-7.89 1.26 0.59
-7.79 1.26 0.61
-7.61 1.25 0.64
-7.73 1.29 0.62
-4.74 0.82 1.20
-7.77 1.34 0.61
-7.93 1.39 0.58
-7.84 1.41 0.59
-4.96 0.93 1.16
-7.62 1.49 0.63
-3.28 -1.16 1.02
-3.38 -1.15 1.00
-3.41 -1.13 0.99
-3.49 -1.13 0.98
-3.68 -1.15 0.94
-3.69 -1.13 0.94
-3.76 -1.13 0.93
-3.74 -1.11 0.93
-3.74 -1.10 0.93
-3.96 -1.12 0.89
-3.87 -1.09 0.91
-3.84 -1.07 0.91
-3.81 -1.05 0.92
-3.84 -1.04 0.91
-3.92 -1.03 0.90
-3.93 -1.02 0.90
-3.82 -0.98 0.92
-3.75 -0.96 0.93
-3.88 -0.96 0.91
-3.72 -0.92 0.94
-3.73 -0.91 0.94
-3.83 -0.91 0.92
-3.70 -0.88 0.94
-3.69 -0.86 0.95
-3.68 -0.84 0.95
-3.70 -0.83 0.94
-3.61 -0.80 0.96
-3.53 -0.78 0.98
-3.50 -0.76 0.98
-3.52 -0.75 0.98
-3.45 -0.72 0.99
-3.43 -0.71 1.00
-3.35 -0.68 1.01
-3.36 -0.67 1.01
-3.37 -0.66 1.01
-3.19 -0.62 1.04
-5.08 -0.81 0.68
-3.18 -0.59 1.05
-3.22 -0.59 1.04
-3.05 -0.55 1.07
-3.26 -0.56 1.03
-2.99 -0.52 1.08
-3.09 -0.52 1.06
-3.14 -0.51 1.05
-2.90 -0.47 1.10
-2.77 -0.45 1.12
-2.88 -0.45 1.11
-2.86 -0.43 1.11
-2.76 -0.41 1.13
-2.87 -0.41 1.11
-3.18 -0.41 1.05
-2.95 -0.38 1.09
-2.94 -0.37 1.09
-2.96 -0.36 1.09
-2.68 -0.33 1.14
-2.89 -0.33 1.10
-3.44 -0.35 1.00
-3.75 -0.35 0.94
-6.60 -0.48 0.38
-6.53 -0.45 0.40
-6.50 -0.41 0.40
-6.36 -0.38 0.43
-6.59 -0.37 0.38
-7.15 -0.25 0.77
-6.88 -0.23 0.82
-7.45 -0.23 0.71
-7.19 -0.20 0.76
-7.21 -0.19 0.76
-7.32 -0.17 0.74
-7.52 -0.16 0.70
-7.41 -0.14 0.72
-7.66 -0.12 0.67
-7.48 -0.10 0.70
-7.71 -0.09 0.66
-7.68 -0.07 0.67
-7.75 -0.05 0.65
-7.62 -0.03 0.68
-7.61 -0.01 0.68
-4.55 0.19 0.72
-5.03 0.24 0.62
-4.46 0.24 0.74
-5.18 0.30 0.59
-4.55 0.30 0.71
-4.72 0.32 0.68
-4.63 0.34 0.70
-8.11 0.40 0.51
-8.52 0.49 0.43
-8.41 0.50 0.45
-6.49 0.41 0.83
-6.46 0.44 0.84
-6.34 0.44 0.86
-6.32 0.46 0.87
-6.24 0.50 0.88
-3.78 0.32 1.38
-6.18 0.52 0.89
-5.93 0.59 0.94
-5.38 0.55 1.05
-5.48 0.58 1.03
-5.12 0.57 1.10
-5.27 0.61 1.07
-5.06 0.60 1.11
-7.05 0.96 0.70
-7.28 1.03 0.66
-7.03 1.07 0.70
-2.69 1.43 1.50
-2.60 -0.52 1.12
-2.45 -0.48 1.15
-2.41 -0.45 1.16
-2.38 -0.44 1.16
-2.43 -0.43 1.15
-2.37 -0.41 1.17
-2.25 -0.39 1.19
-2.32 -0.39 1.18
-2.22 -0.36 1.20
-2.22 -0.34 1.20
-2.28 -0.34 1.19
-2.32 -0.33 1.18
-2.21 -0.31 1.20
-2.20 -0.29 1.20
-2.39 -0.21 1.16
-6.82 0.01 0.70
-7.08 0.02 0.65
-7.78 0.05 0.50
-7.43 0.06 0.57
-6.83 0.07 0.70
-7.78 0.10 0.50
-6.18 0.10 0.83
-6.09 0.11 0.85
-7.77 0.16 0.50
-6.56 0.15 0.75
-6.01 0.16 0.87
-6.50 0.18 0.76
-6.30 0.19 0.81
-6.88 0.23 0.69
-6.60 0.23 0.74
-6.80 0.26 0.70
-6.79 0.27 0.70
-7.09 0.30 0.64
-7.98 0.36 0.45
-7.66 0.36 0.52
-7.82 0.39 0.48
-8.17 0.43 0.41
-8.21 0.45 0.40
-8.08 0.46 0.43
-6.31 0.38 0.80
-6.24 0.41 0.81
-6.25 0.42 0.81
-6.17 0.43 0.83
-6.19 0.45 0.82
-6.52 0.49 0.75
-6.29 0.49 0.80
-6.32 0.51 0.80
-6.23 0.52 0.81
-6.43 0.55 0.77
-6.46 0.57 0.76
-6.64 0.60 0.73
-6.43 0.60 0.77
-6.16 0.59 0.83
-6.31 0.62 0.79
-6.29 0.63 0.80
-6.66 0.68 0.72
-6.98 0.73 0.65
-7.50 0.80 0.54
-6.93 0.76 0.66
-7.61 0.85 0.51
-6.95 0.80 0.65
-7.19 0.84 0.60
-7.00 0.84 0.64
-7.09 0.87 0.62
-6.98 0.87 0.64
-6.75 0.86 0.69
-7.23 0.94 0.59
-6.83 0.91 0.67
-7.35 0.99 0.56
-7.63 1.05 0.50
-6.81 0.96 0.68
-6.95 0.99 0.65
-6.93 1.01 0.65
-7.01 1.04 0.63
-6.88 1.05 0.66
-6.95 1.08 0.64
-7.23 1.14 0.58
-7.03 1.13 0.62
-7.20 1.17 0.59
-7.37 1.22 0.55
-6.33 1.07 0.77
-5.83 1.00 0.88
-5.68 0.99 0.91
-5.86 1.04 0.87
-5.78 1.04 0.89
-5.39 1.29 0.95
-3.28 -1.21 0.91
-3.28 -1.19 0.91
-3.98 -1.31 0.76
-3.95 -1.29 0.76
-3.71 -1.23 0.82
-3.95 -1.26 0.76
-3.85 -1.23 0.79
-3.78 -1.20 0.80
-3.80 -1.19 0.80
-4.06 -1.22 0.74
-3.74 -1.14 0.81
-3.74 -1.13 0.81
-3.54 -1.08 0.86
-3.64 -1.08 0.83
-3.60 -1.06 0.84
-3.75 -1.07 0.81
-3.62 -1.03 0.84
-3.94 -1.07 0.77
-3.82 -1.03 0.80
-3.62 -0.99 0.84
-3.51 -0.95 0.86
-3.56 -0.95 0.85
-3.64 -0.94 0.84
-3.55 -0.92 0.86
-3.24 -0.86 0.92
-3.40 -0.86 0.89
-3.29 -0.83 0.91
-3.34 -0.83 0.90
-3.39 -0.82 0.89
-3.57 -0.83 0.85
-3.52 -0.81 0.87
-3.38 -0.77 0.89
-3.24 -0.74 0.92
-3.17 -0.72 0.94
-2.69 -0.65 1.04
-3.46 -0.73 0.88
-3.34 -0.70 0.90
-3.18 -0.67 0.94
-3.02 -0.63 0.97
-3.10 -0.63 0.96
-2.99 -0.60 0.98
-3.24 -0.62 0.93
-3.29 -0.61 0.92
-3.24 -0.59 0.93
-3.21 -0.57 0.93
-3.14 -0.55 0.95
-3.04 -0.51 0.97
-2.75 -0.48 1.03
-2.85 -0.47 1.01
-2.85 -0.46 1.01
-2.87 -0.45 1.01
-2.92 -0.44 0.99
-2.69 -0.41 1.04
-2.71 -0.39 1.04
-2.70 -0.38 1.04
-2.89 -0.38 1.00
-2.71 -0.36 1.04
-2.88 -0.35 1.00
-2.88 -0.34 1.00
-2.88 -0.33 1.00
-2.86 -0.31 1.01
-7.69 -0.40 0.52
-4.59 -0.21 1.17
-7.68 -0.33 0.52
-7.15 -0.29 0.63
-7.60 -0.29 0.54
-7.01 -0.25 0.66
-6.98 -0.23 0.67
-6.93 -0.21 0.68
-7.14 -0.20 0.64
-7.04 -0.18 0.66
-4.61 -0.11 1.17
-6.93 -0.15 0.68
-6.81 -0.13 0.71
-6.82 -0.11 0.70
-6.93 -0.09 0.68
-6.91 -0.08 0.68
-6.85 -0.06 0.70
-7.14 -0.04 0.64
-6.97 -0.03 0.67
-7.19 -0.01 0.62
-3.89 0.00 0.73
-3.92 0.02 0.72
-4.05 0.04 0.69
-6.22 0.05 0.77
-6.37 0.07 0.74
-6.37 0.08 0.74
-7.10 0.11 0.58
-6.29 0.11 0.75
-6.48 0.13 0.71
-6.25 0.15 0.76
-6.65 0.17 0.67
-6.99 0.20 0.60
-6.09 0.19 0.80
-6.27 0.21 0.75
-6.17 0.22 0.78
-6.40 0.24 0.73
-6.64 0.27 0.67
-6.11 0.26 0.79
-6.30 0.29 0.75
-5.95 0.29 0.82
-5.89 0.30 0.84
-6.23 0.33 0.76
-6.33 0.35 0.74
-6.04 0.35 0.80
-6.23 0.38 0.76
-6.20 0.39 0.77
-5.94 0.39 0.82
-6.06 0.41 0.80
-6.02 0.42 0.80
-5.96 0.43 0.82
-6.16 0.46 0.77
-6.18 0.48 0.77
-6.36 0.51 0.73
-6.22 0.51 0.76
-6.00 0.51 0.81
-6.26 0.55 0.75
-6.34 0.57 0.73
-6.25 0.58 0.75
-6.10 0.58 0.78
-5.86 0.57 0.83
-6.57 0.66 0.68
-6.74 0.69 0.64
-6.72 0.70 0.64
-6.66 0.71 0.65
-6.81 0.75 0.62
-6.80 0.76 0.62
-7.00 0.80 0.58
-6.49 0.76 0.69
-5.73 0.69 0.86
-5.81 0.71 0.84
-5.64 0.71 0.88
-5.59 0.72 0.89
-6.02 0.79 0.79
-5.62 0.75 0.88
-6.66 0.90 0.65
-6.66 0.92 0.65
-5.66 0.80 0.87
-6.23 0.89 0.74
-6.93 1.00 0.58
-6.23 0.92 0.74
-7.32 1.09 0.49
-6.25 0.96 0.73
-6.89 1.07 0.59
-5.74 0.91 0.85
-5.86 0.94 0.82
-5.64 0.94 0.87
-5.66 0.96 0.86
-5.79 0.99 0.83
-5.74 1.00 0.84
-5.72 1.03 0.84
-5.78 1.05 0.83
-5.72 1.10 0.84
-3.86 -1.30 0.72
-3.78 -1.26 0.74
-3.82 -1.25 0.73
-3.79 -1.23 0.74
-3.55 -1.17 0.79
-3.58 -1.16 0.79
-3.70 -1.16 0.76
-3.75 -1.16 0.75
-3.39 -1.06 0.83
-3.56 -1.05 0.79
-3.49 -1.02 0.81
-3.37 -0.99 0.84
-3.37 -0.97 0.84
-3.45 -0.97 0.82
-3.46 -0.96 0.82
-3.37 -0.93 0.84
-3.05 -0.87 0.91
-2.57 -0.78 1.02
-2.87 -0.81 0.95
-2.66 -0.77 1.00
-2.62 -0.75 1.01
-3.23 -0.82 0.87
-3.05 -0.78 0.91
-3.13 -0.78 0.90
-2.98 -0.75 0.93
-2.93 -0.73 0.94
-2.92 -0.71 0.94
-2.74 -0.68 0.98
-2.69 -0.66 0.99
-2.48 -0.62 1.04
-2.70 -0.63 0.99
-2.86 -0.64 0.96
-2.59 -0.60 1.02
-2.96 -0.62 0.94
-2.95 -0.61 0.94
-3.01 -0.60 0.92
-2.99 -0.59 0.93
-2.83 -0.56 0.96
-2.79 -0.54 0.97
-2.94 -0.54 0.94
-2.93 -0.53 0.94
-2.88 -0.51 0.95
-2.68 -0.48 1.00
-2.67 -0.47 1.00
-2.71 -0.46 0.99
-2.74 -0.45 0.99
-2.77 -0.44 0.98
-2.71 -0.42 0.99
-2.74 -0.41 0.99
-2.73 -0.39 0.99
-2.66 -0.38 1.00
-2.68 -0.37 1.00
-2.88 -0.37 0.95
-2.70 -0.34 0.99
-2.75 -0.33 0.98
-2.86 -0.32 0.96
-2.67 -0.30 1.00
-2.89 -0.30 0.95
-2.66 -0.28 1.00
-3.06 -0.28 0.91
-5.10 -0.34 0.46
-4.65 -0.31 0.56
-5.11 -0.31 0.46
-4.95 -0.28 0.49
-3.85 -0.12 0.74
-3.95 -0.11 0.72
-3.68 -0.07 0.77
-3.96 -0.03 0.71
-3.81 -0.01 0.74
-6.96 0.06 0.53
-6.82 0.07 0.57
-6.70 0.11 0.59
-6.92 0.13 0.54
-6.90 0.14 0.55
-6.73 0.17 0.58
-6.97 0.19 0.53
-6.85 0.23 0.56
-6.27 0.22 0.69
-6.83 0.26 0.56
-7.18 0.29 0.48
-7.30 0.33 0.45
-5.98 0.29 0.75
-6.28 0.32 0.68
-6.01 0.33 0.75
-5.80 0.34 0.79
-6.23 0.38 0.69
-6.18 0.40 0.71
-6.39 0.50 0.65
-6.34 0.51 0.66
-6.75 0.59 0.57
-6.77 0.62 0.56
-6.81 0.65 0.55
-6.89 0.67 0.53
-6.87 0.68 0.54
-6.93 0.73 0.52
-7.06 0.76 0.49
-7.16 0.80 0.47
-7.11 0.81 0.48
-6.97 0.82 0.51
-7.12 0.85 0.47
-7.20 0.88 0.45
-6.96 0.87 0.51
-7.29 0.93 0.43
-7.23 0.94 0.45
-6.92 0.92 0.52
-5.84 0.84 0.76
-5.83 0.85 0.77
-5.84 0.87 0.76
-7.38 1.10 0.40
-7.22 1.10 0.44
-5.77 0.95 0.77
-5.81 0.98 0.76
-5.73 0.98 0.78
-3.75 -1.16 0.69
-3.62 -1.12 0.72
-3.79 -1.12 0.68
-3.90 -1.12 0.65
-3.66 -1.05 0.71
-3.74 -1.05 0.69
-3.65 -1.02 0.71
-3.96 -1.05 0.64
-3.78 -0.99 0.68
-3.30 -0.91 0.79
-3.68 -0.93 0.71
-2.79 -0.79 0.92
-3.51 -0.88 0.75
-3.43 -0.85 0.77
-3.40 -0.82 0.77
-3.33 -0.79 0.79
-3.30 -0.76 0.80
-3.38 -0.76 0.78
-2.86 -0.68 0.90
-3.05 -0.69 0.86
-3.15 -0.67 0.83
-3.04 -0.65 0.86
-3.01 -0.62 0.87
-3.10 -0.61 0.85
-3.11 -0.60 0.84
-4.74 -0.73 0.46
-3.40 -0.59 0.77
-3.28 -0.56 0.80
-3.10 -0.52 0.85
-4.77 -0.65 0.46
-2.92 -0.47 0.89
-2.92 -0.46 0.89
-2.87 -0.43 0.90
-2.74 -0.41 0.93
-2.71 -0.38 0.94
-2.89 -0.38 0.89
-3.35 -0.34 0.79
-4.77 -0.38 0.46
-4.87 -0.35 0.44
-6.79 -0.09 0.57
-3.44 1.62 0.92
-3.36 1.59 0.95
-3.37 1.62 0.94
-3.38 1.65 0.93
-2.79 1.46 1.12
-3.65 0.88 0.71
-3.89 0.24 0.20
-3.49 0.41 0.21
-3.07 0.68 0.25
-3.45 0.84 0.21
-15.14 -0.78 1.58
-14.92 -0.69 1.59
-15.23 -1.04 1.51
-15.18 -0.70 1.45
-15.36 -1.18 1.37
-15.28 -1.13 1.37
-8.38 -1.49 1.63
-14.66 -0.89 1.25
-8.13 -1.07 1.55
-8.53 -1.08 1.52
-15.12 -1.29 1.06
-8.21 -1.26 1.44
-8.83 -1.27 1.40
-8.27 -1.16 1.43
-8.20 -1.13 1.44
-8.13 -1.07 1.44
-9.03 -1.13 1.38
-15.27 -1.69 0.96
-8.39 -1.01 1.43
-8.05 -0.96 1.45
-8.72 -0.99 1.40
-8.48 -0.94 1.42
-9.16 -0.97 1.37
-9.00 -0.93 1.39
-15.17 -1.34 0.96
-15.34 -1.31 0.95
-9.05 -0.80 1.38
-15.34 -0.50 1.15
-15.40 -0.43 1.14
-15.16 -1.42 0.87
-14.70 0.30 1.02
-8.11 -1.43 1.33
-8.22 -1.31 1.32
-8.20 -1.28 1.32
-8.01 -1.24 1.33
-8.02 -1.19 1.33
-4.30 -0.76 1.63
-8.14 -1.15 1.32
-8.30 -1.14 1.31
-8.47 -1.13 1.30
-8.64 -1.12 1.28
-8.32 -1.04 1.31
-15.30 -1.65 0.76
-8.92 -1.04 1.26
-8.96 -1.01 1.26
-9.27 -1.01 1.24
-8.79 -0.94 1.27
-8.82 -0.92 1.27
-9.04 -0.91 1.25
-8.64 -0.85 1.29
-8.82 -0.84 1.27
-8.76 -0.80 1.28
-3.85 -0.45 1.67
-8.85 -0.76 1.27
-8.88 -0.73 1.27
-8.85 -0.70 1.27
-9.09 -0.69 1.25
-9.14 -0.66 1.25
-15.48 -0.69 0.96
-8.76 -0.24 1.49
-12.13 -0.16 1.22
-14.31 0.71 0.98
-8.77 -1.35 1.22
-8.19 -1.18 1.27
-7.89 -1.12 1.29
-8.46 -1.13 1.24
-8.09 -1.06 1.28
-8.47 -1.05 1.24
-8.17 -0.99 1.27
-8.45 -0.99 1.25
-9.04 -1.02 1.20
-8.62 -0.93 1.23
-9.20 -0.95 1.18
-8.20 -0.84 1.27
-9.52 -0.91 1.16
-8.98 -0.85 1.20
-8.97 -0.82 1.20
-9.12 -0.80 1.19
-8.55 -0.68 1.24
-8.70 -0.58 1.22
-10.53 -0.52 1.07
-7.82 -0.39 1.30
-11.08 -0.48 1.02
-10.93 -0.41 1.04
-8.73 -1.62 1.14
-7.74 -1.28 1.24
-7.89 -1.27 1.22
-8.02 -1.26 1.21
-7.91 -1.15 1.22
-7.82 -1.11 1.23
-7.87 -1.04 1.23
-8.27 -1.03 1.19
-8.38 -1.01 1.18
-7.88 -0.94 1.23
-8.77 -0.97 1.14
-15.09 -1.46 0.57
-8.88 -0.92 1.13
-8.73 -0.88 1.15
-8.92 -0.87 1.13
-8.83 -0.84 1.14
-9.09 -0.83 1.12
-9.01 -0.79 1.12
-15.41 -1.14 0.54
-9.07 -0.71 1.12
-9.16 -0.69 1.11
-14.81 -0.85 0.60
-10.05 -0.56 1.03
-10.85 -0.28 0.96
-5.08 -0.14 1.48
-11.18 0.31 0.85
-14.39 0.67 0.80
-12.34 0.85 0.99
-8.08 -1.16 1.15
-7.86 -1.09 1.17
-7.86 -1.04 1.17
-7.98 -1.03 1.16
-8.13 -1.02 1.14
-8.55 -1.03 1.10
-8.25 -0.97 1.13
-8.45 -0.97 1.11
-8.27 -0.92 1.13
-8.39 -0.91 1.12
-8.52 -0.89 1.11
-8.68 -0.88 1.09
-8.80 -0.86 1.08
-9.02 -0.85 1.06
-9.05 -0.82 1.05
-9.54 -0.63 1.01
-8.07 -0.53 1.15
-14.92 -0.82 0.49
-9.96 -0.56 0.97
-7.19 -0.30 1.23
-10.65 -0.33 0.90
-7.26 -0.20 1.23
-11.02 -0.21 0.87
-7.30 -0.13 1.22
-8.04 0.09 1.35
-11.05 0.15 1.04
-14.48 0.33 0.69
-11.70 0.35 0.98
-14.14 0.46 0.73
-13.93 0.49 0.75
-13.84 0.52 0.76
-14.12 0.56 0.73
-13.85 0.58 0.76
-11.84 0.59 0.96
-11.58 0.63 0.99
-12.04 0.83 0.94
-8.67 -1.67 1.01
-8.07 -1.50 1.08
-8.09 -1.43 1.07
-8.14 -1.35 1.07
-8.05 -1.29 1.08
-7.88 -1.25 1.10
-8.04 -1.24 1.08
-7.98 -1.21 1.09
-7.98 -1.18 1.09
-7.97 -1.16 1.09
-8.02 -1.13 1.08
-7.87 -1.09 1.10
-7.93 -1.08 1.09
-8.09 -1.07 1.08
-8.17 -1.05 1.07
-8.39 -1.04 1.05
-8.37 -1.01 1.05
-8.37 -0.99 1.05
-8.36 -0.96 1.05
-8.12 -0.91 1.07
-7.82 -0.86 1.10
-7.82 -0.84 1.10
-8.21 -0.84 1.06
-15.39 -1.36 0.33
-8.10 -0.78 1.08
-8.82 -0.81 1.00
-15.13 -1.21 0.35
-9.55 -0.74 0.93
-9.26 -0.70 0.96
-9.16 -0.66 0.97
-9.28 -0.64 0.96
-11.12 -0.39 1.04
-8.68 -0.28 1.29
-11.37 -0.34 1.01
-9.08 -0.25 1.25
-12.55 -0.29 0.89
-12.30 -0.25 0.92
-12.18 -0.22 0.93
-8.60 -0.14 1.29
-12.12 -0.13 0.94
-13.27 -0.11 0.82
-13.13 -0.08 0.83
-12.65 -0.05 0.88
-13.26 -0.02 0.82
-9.35 -0.76 0.87
-10.52 -0.30 0.74
-10.43 -0.27 0.75
-12.34 0.07 0.75
-12.27 0.13 0.75
-12.31 0.16 0.75
-12.05 0.22 0.78
-11.41 0.23 0.85
-11.53 0.26 0.84
-11.45 0.29 0.85
-11.51 0.32 0.84
-11.84 0.36 0.80
-12.03 0.39 0.78
-12.09 0.42 0.77
-12.29 0.49 0.75
-12.02 0.54 0.78
-11.94 0.59 0.79
-6.80 0.36 1.38
-12.09 0.66 0.77
-12.00 0.68 0.78
-12.12 0.81 0.76
-8.09 -1.50 0.93
-8.52 -1.46 0.88
-8.84 -1.47 0.84
-8.19 -1.36 0.92
-8.46 -1.37 0.89
-8.02 -1.29 0.94
-8.03 -1.27 0.94
-8.05 -1.24 0.94
-8.38 -1.25 0.90
-8.23 -1.21 0.91
-8.13 -1.17 0.93
-8.14 -1.15 0.93
-8.38 -1.15 0.90
-8.30 -1.11 0.91
-8.25 -1.08 0.91
-7.84 -1.02 0.96
-7.71 -0.95 0.98
-7.84 -0.94 0.96
-8.01 -0.93 0.94
-7.98 -0.90 0.95
-7.76 -0.86 0.97
-7.79 -0.84 0.97
-7.81 -0.81 0.96
-7.48 -0.72 1.00
-7.94 -0.67 0.95
-7.21 -0.60 1.04
-9.34 -0.70 0.79
-9.50 -0.68 0.77
-15.90 -0.86 0.34
-10.53 -0.55 0.95
-10.50 -0.52 0.96
-10.10 -0.48 1.00
-10.52 -0.47 0.96
-10.62 -0.45 0.94
-15.28 -0.61 0.41
-10.79 -0.41 0.92
-11.52 -0.35 0.84
-11.53 -0.32 0.84
-11.56 -0.24 0.84
-11.87 -0.22 0.80
-8.35 -0.11 1.20
-12.50 -0.08 0.73
-12.47 -0.02 0.73
-9.57 0.01 0.68
-12.00 0.13 0.70
-11.62 0.18 0.75
-11.50 0.21 0.76
-11.66 0.24 0.74
-12.03 0.30 0.70
-11.98 0.33 0.71
-12.30 0.40 0.67
-13.68 0.51 0.50
-12.30 0.52 0.66
-12.27 0.55 0.67
-11.76 0.55 0.73
-11.92 0.59 0.71
-12.15 0.63 0.68
-11.96 0.65 0.70
-12.22 0.72 0.67
-12.71 0.91 0.61
-12.55 1.26 0.62
-8.06 -1.47 0.86
-7.79 -1.41 0.90
-7.89 -1.40 0.88
-7.85 -1.37 0.89
-8.20 -1.36 0.85
-8.02 -1.31 0.87
-8.16 -1.30 0.85
-7.97 -1.25 0.87
-8.01 -1.23 0.87
-3.93 -0.75 1.37
-8.12 -1.19 0.86
-7.98 -1.15 0.87
-7.86 -1.09 0.89
-7.69 -1.05 0.91
-8.06 -1.06 0.86
-7.57 -0.99 0.92
-8.01 -0.98 0.87
-8.04 -0.96 0.87
-8.05 -0.93 0.87
-5.15 -0.66 1.22
-8.30 -0.90 0.84
-8.09 -0.86 0.86
-8.06 -0.83 0.87
-8.04 -0.80 0.87
-8.00 -0.78 0.87
-7.91 -0.74 0.89
-8.12 -0.73 0.86
-7.73 -0.66 0.91
-7.25 -0.60 0.97
-7.57 -0.60 0.93
-8.98 -0.65 0.75
-9.25 -0.64 0.72
-9.01 -0.60 0.75
-5.26 -0.39 1.21
-9.18 -0.55 0.73
-6.93 -0.40 1.00
-7.21 -0.32 0.97
-6.83 -0.29 1.02
-6.88 -0.26 1.01
-6.50 -0.23 1.06
-6.35 -0.21 1.08
-6.30 -0.18 1.08
-10.52 -0.24 0.56
-9.99 -0.20 0.63
-9.33 -0.16 0.71
-9.58 -0.13 0.68
-9.34 -0.10 0.71
-9.24 -0.07 0.72
-9.45 -0.05 0.69
-6.22 -0.01 1.09
-12.06 0.01 0.61
-12.27 0.04 0.58
-11.96 0.07 0.62
-10.94 0.09 0.75
-11.66 0.13 0.66
-11.16 0.15 0.72
-11.54 0.18 0.67
-11.90 0.21 0.63
-10.89 0.22 0.76
-11.24 0.26 0.71
-11.49 0.29 0.68
-11.23 0.31 0.71
-11.50 0.35 0.68
-10.88 0.35 0.76
-10.46 0.37 0.81
-10.52 0.39 0.80
-10.57 0.42 0.80
-11.09 0.47 0.73
-12.20 0.54 0.59
-11.67 0.55 0.65
-11.57 0.57 0.67
-11.75 0.61 0.64
-11.84 0.64 0.63
-11.91 0.68 0.62
-12.09 0.72 0.60
-12.14 0.75 0.59
-12.47 0.80 0.55
-12.27 0.82 0.57
-12.34 0.85 0.56
-12.45 0.89 0.55
-12.48 0.92 0.54
-12.53 0.95 0.54
-12.51 1.01 0.54
-12.55 1.17 0.53
-12.65 1.21 0.52
-12.63 1.27 0.52
-12.56 1.36 0.53
-13.21 1.52 0.44
-8.32 -1.61 0.75
-8.35 -1.59 0.74
-8.20 -1.54 0.76
-8.37 -1.54 0.74
-8.20 -1.49 0.77
-8.06 -1.45 0.78
-8.13 -1.43 0.77
-7.91 -1.38 0.80
-7.88 -1.35 0.81
-8.31 -1.38 0.75
-8.27 -1.34 0.76
-8.12 -1.30 0.78
-8.07 -1.27 0.78
-8.08 -1.24 0.78
-8.17 -1.23 0.77
-8.23 -1.21 0.76
-8.11 -1.17 0.78
-7.95 -1.13 0.80
-7.82 -1.09 0.82
-7.99 -1.08 0.79
-7.80 -1.04 0.82
-4.23 -0.67 1.29
-7.95 -1.00 0.80
-7.70 -0.95 0.83
-7.47 -0.91 0.86
-7.49 -0.88 0.86
-7.56 -0.87 0.85
-7.11 -0.81 0.91
-7.43 -0.81 0.87
-7.56 -0.79 0.85
-7.95 -0.80 0.80
-7.58 -0.75 0.85
-8.34 -0.77 0.75
-7.87 -0.72 0.81
-8.35 -0.72 0.75
-7.13 -0.62 0.91
-8.31 -0.67 0.76
-7.89 -0.62 0.81
