# .PCD v0.7 - Point Cloud Data file format
VERSION 0.7
FIELDS x y z
SIZE 4 4 4
TYPE F F F
COUNT 1 1 1
WIDTH 2838
HEIGHT 1
VIEWPOINT 0 0 0 1 0 0 0
POINTS 2838
DATA ASCII
-2.72 1.05 2.31
-11.81 0.22 2.14
-11.89 0.33 2.14
-11.81 0.08 2.07
-11.84 0.10 2.07
-12.01 0.31 2.07
-11.76 0.44 2.07
-11.99 0.48 2.07
-3.04 0.97 2.15
-11.66 0.36 2.01
-11.77 0.44 2.00
-12.09 0.43 1.97
-12.24 0.52 1.92
-12.21 0.55 1.92
-12.11 0.60 1.92
-11.48 0.02 1.87
-11.52 0.07 1.87
-11.59 0.19 1.87
-11.75 0.24 1.86
-11.98 0.28 1.86
-11.88 0.39 1.86
-12.25 0.46 1.85
-12.73 0.51 1.83
-12.20 0.52 1.85
-12.40 0.56 1.84
-12.29 0.61 1.85
-12.37 0.65 1.84
-12.62 0.69 1.84
-12.41 0.74 1.84
-11.85 0.74 1.86
-12.18 0.79 1.85
-11.41 0.13 1.84
-11.97 0.25 1.82
-11.74 0.30 1.83
-11.71 0.33 1.83
-11.70 0.36 1.83
-12.43 0.53 1.80
-12.02 0.63 1.82
-12.12 0.75 1.81
-12.20 0.81 1.81
-12.16 0.84 1.81
-11.49 0.21 1.79
-11.79 0.27 1.78
-12.38 0.32 1.76
-11.79 0.33 1.78
-12.15 0.37 1.76
-12.40 0.41 1.75
-12.27 0.43 1.76
-11.87 0.51 1.77
-11.96 0.54 1.77
-11.81 0.56 1.77
-12.13 0.60 1.76
-11.93 0.62 1.77
-11.94 0.65 1.77
-12.12 0.69 1.76
-12.20 0.76 1.76
-12.12 1.02 1.76
-11.91 0.56 1.72
-11.48 0.13 1.70
-11.62 0.21 1.69
-11.52 0.24 1.70
-11.75 0.27 1.69
-11.80 0.30 1.68
-11.88 0.33 1.68
-12.49 0.38 1.66
-11.72 0.41 1.69
-12.10 0.54 1.67
-12.45 0.62 1.66
-11.99 0.66 1.67
-12.12 0.75 1.67
-11.18 0.27 1.58
-10.82 0.30 1.59
-11.20 0.37 1.58
-10.94 0.40 1.59
-10.97 0.59 1.59
-11.55 0.02 1.60
-11.72 0.07 1.59
-11.48 0.10 1.60
-11.37 0.13 1.61
-11.11 0.15 1.62
-11.42 0.18 1.60
-11.19 0.21 1.61
-11.41 0.24 1.60
-11.32 0.26 1.61
-11.92 0.31 1.58
-11.85 0.33 1.58
-11.80 0.36 1.58
-11.77 0.39 1.58
-11.92 0.42 1.58
-11.76 0.44 1.58
-11.47 0.46 1.60
-11.76 0.50 1.58
-12.37 0.56 1.55
-12.42 0.74 1.55
-12.41 0.77 1.55
-11.52 0.74 1.60
-12.23 -0.07 1.56
-11.71 -0.04 1.59
-11.41 -0.01 1.60
-11.62 0.01 1.43
-11.23 0.15 1.56
-11.24 0.18 1.56
-11.41 0.21 1.55
-12.01 0.25 1.52
-11.72 0.27 1.54
-11.74 0.33 1.53
-11.76 0.36 1.53
-11.71 0.38 1.54
-11.45 0.43 1.55
-11.38 0.57 1.55
-10.48 -1.18 1.49
-10.09 -0.96 1.51
-12.15 -0.45 1.41
-11.69 -0.06 1.43
-12.19 0.05 1.45
-12.20 0.08 1.45
-11.77 0.16 1.48
-11.82 0.22 1.47
-12.18 0.25 1.45
-11.59 0.27 1.49
-11.41 0.29 1.50
-11.39 0.32 1.50
-11.59 0.35 1.49
-11.55 0.38 1.49
-11.38 0.43 1.50
-11.47 0.46 1.49
-11.63 0.49 1.48
-11.35 0.51 1.50
-11.41 0.54 1.50
-11.44 0.57 1.49
-12.47 0.65 1.43
-10.28 -1.22 1.44
-3.30 -0.41 1.84
-11.45 -0.29 1.37
-11.77 -0.26 1.36
-11.91 0.04 1.28
-11.22 0.27 1.32
-11.80 0.33 1.42
-11.62 0.35 1.43
-11.38 0.37 1.45
-11.27 0.40 1.45
-11.09 0.42 1.46
-11.05 0.44 1.47
-11.27 0.53 1.45
-11.65 0.69 1.43
-9.54 0.90 1.56
-11.74 -0.47 1.29
-11.98 -0.41 1.28
-11.65 -0.36 1.30
-11.66 -0.19 1.30
-11.92 -0.06 1.28
-11.55 -0.02 1.30
-12.09 0.02 1.34
-11.97 0.05 1.35
-12.16 0.11 1.33
-11.88 0.13 1.35
-11.62 0.16 1.37
-11.83 0.22 1.36
-11.70 0.24 1.37
-11.72 0.30 1.36
-11.62 0.33 1.37
-11.54 0.35 1.38
-11.52 0.38 1.38
-11.46 0.43 1.38
-11.39 0.46 1.39
-11.38 0.51 1.39
-11.58 0.55 1.37
-11.46 0.57 1.38
-11.91 0.62 1.35
-9.52 0.92 1.51
-9.20 1.03 1.53
-9.18 1.12 1.53
-10.17 -1.15 1.32
-9.70 -0.82 1.36
-9.67 -0.79 1.36
-12.57 -0.25 1.31
-12.55 -0.22 1.31
-12.43 -0.19 1.32
-12.37 -0.16 1.32
-12.38 -0.10 1.32
-12.34 -0.07 1.32
-12.37 -0.01 1.32
-11.11 0.17 1.19
-11.12 0.21 1.18
-11.37 0.28 1.17
-11.48 0.38 1.16
-11.05 0.40 1.19
-10.81 0.43 1.21
-10.94 0.46 1.20
-11.37 0.54 1.17
-10.50 0.60 1.23
-10.23 -1.19 1.25
-11.66 -0.30 1.15
-11.87 -0.27 1.13
-12.05 0.02 1.21
-11.99 0.07 1.21
-11.68 0.10 1.24
-11.85 0.13 1.22
-11.52 0.16 1.25
-11.76 0.19 1.23
-11.69 0.21 1.24
-11.57 0.24 1.25
-11.80 0.30 1.23
-11.72 0.33 1.23
-11.65 0.35 1.24
-11.62 0.38 1.24
-11.77 0.42 1.23
-12.14 0.49 1.20
-11.66 0.55 1.24
-11.25 0.56 1.27
-11.55 0.60 1.24
-11.28 0.62 1.26
-9.75 0.92 1.38
-8.87 0.88 1.45
-9.06 0.99 1.44
-9.30 1.06 1.42
-10.17 -1.25 1.18
-10.35 -1.23 1.17
-10.37 -1.20 1.17
-10.05 -1.11 1.19
-9.73 -1.03 1.22
-10.13 -1.00 1.18
-6.30 -0.68 1.48
-12.57 -0.62 1.17
-12.37 -0.43 1.18
-12.34 -0.37 1.19
-12.41 -0.34 1.18
-12.41 -0.31 1.18
-12.25 -0.28 1.19
-12.35 -0.25 1.18
-12.34 -0.19 1.19
-12.99 -0.14 1.13
-12.16 -0.10 1.20
-12.62 -0.04 1.16
-13.65 -0.01 1.08
-11.54 0.10 1.19
-11.82 0.13 1.17
-11.78 0.16 1.17
-11.69 0.19 1.18
-11.63 0.21 1.18
-11.34 0.24 1.21
-11.75 0.27 1.17
-11.69 0.30 1.18
-11.49 0.32 1.19
-11.51 0.35 1.19
-11.46 0.38 1.20
-11.45 0.40 1.20
-11.07 0.44 1.23
-11.13 0.47 1.22
-11.69 0.55 1.17
-11.16 0.58 1.22
-11.72 0.73 1.17
-15.84 1.05 0.82
-15.83 1.13 0.82
-15.65 1.23 0.83
-15.67 1.31 0.83
-9.19 0.86 1.38
-8.88 0.86 1.41
-8.93 0.89 1.40
-8.91 0.91 1.40
-8.96 0.93 1.40
-9.00 0.96 1.40
-9.06 0.99 1.39
-9.06 1.01 1.39
-9.14 1.11 1.38
-4.45 0.67 1.78
-4.16 0.80 1.80
-9.80 -1.36 1.15
-9.75 -1.29 1.15
-9.89 -1.28 1.14
-9.96 -1.25 1.13
-10.30 -1.23 1.11
-10.26 -1.19 1.11
-9.91 -1.07 1.14
-9.74 -1.03 1.15
-6.13 -0.71 1.45
-9.73 -0.97 1.15
-9.97 -0.95 1.13
-9.53 -0.89 1.17
-9.70 -0.79 1.16
-9.66 -0.75 1.16
-3.42 -0.29 1.68
-3.28 -0.27 1.69
-11.73 -0.57 0.99
-3.53 -0.23 1.67
-11.48 -0.50 1.01
-6.20 -0.29 1.45
-5.75 -0.26 1.48
-11.77 -0.40 0.99
-11.66 -0.37 0.99
-11.38 -0.32 1.02
-11.51 -0.29 1.01
-11.41 -0.26 1.01
-11.45 -0.23 1.01
-12.03 0.02 1.07
-11.55 0.04 1.11
-11.46 0.07 1.12
-11.56 0.10 1.11
-11.45 0.13 1.12
-11.70 0.16 1.10
-11.57 0.18 1.11
-11.83 0.22 1.09
-11.67 0.24 1.10
-11.40 0.26 1.13
-11.42 0.29 1.12
-11.08 0.31 1.16
-11.26 0.34 1.14
-11.07 0.36 1.16
-11.27 0.40 1.14
-11.27 0.42 1.14
-11.18 0.45 1.14
-11.46 0.49 1.12
-11.16 0.53 1.14
-11.27 0.56 1.13
-11.34 0.59 1.13
-11.18 0.61 1.14
-11.35 0.65 1.13
-15.91 1.13 0.71
-15.97 1.17 0.70
-15.70 1.19 0.73
-15.27 1.20 0.77
-15.33 1.24 0.76
-15.16 1.26 0.77
-15.47 1.36 0.75
-9.32 0.85 1.31
-9.18 0.86 1.32
-9.19 0.89 1.32
-8.87 0.88 1.35
-8.80 0.89 1.36
-8.84 0.92 1.35
-8.82 0.94 1.35
-8.78 0.96 1.36
-8.81 0.98 1.35
-8.97 1.02 1.34
-8.90 1.04 1.34
-9.00 1.07 1.33
-8.88 1.08 1.34
-8.92 1.11 1.34
-9.57 -1.45 1.09
-3.13 -0.65 1.66
-2.47 -0.56 1.72
-6.26 -0.87 1.38
-6.10 -0.83 1.40
-6.16 -0.82 1.39
-6.25 -0.80 1.38
-9.89 -1.10 1.06
-9.52 -1.01 1.09
-5.70 -0.67 1.43
-5.75 -0.66 1.43
-5.73 -0.64 1.43
-5.88 -0.59 1.42
-3.75 -0.43 1.61
-5.37 -0.51 1.46
-3.49 -0.38 1.63
-3.46 -0.36 1.63
-3.88 -0.37 1.60
-3.57 -0.34 1.62
-3.48 -0.32 1.63
-5.90 -0.42 1.42
-5.81 -0.40 1.42
-3.56 -0.28 1.62
-5.59 -0.35 1.44
-3.15 -0.23 1.66
-3.35 -0.23 1.64
-5.36 -0.28 1.46
-3.59 -0.21 1.62
-3.49 -0.19 1.63
-11.44 -0.39 0.92
-5.43 -0.21 1.46
-11.59 -0.33 0.91
-12.50 -0.16 1.03
-12.04 -0.10 1.07
-12.01 -0.07 1.07
-11.96 -0.04 1.08
-12.01 -0.01 1.07
-10.80 0.01 0.90
-5.70 0.04 1.39
-8.55 0.09 1.12
-10.61 0.26 0.92
-10.58 0.29 0.92
-11.30 0.32 1.07
-11.12 0.34 1.09
-11.41 0.37 1.06
-11.52 0.41 1.05
-11.13 0.42 1.09
-11.39 0.46 1.06
-11.25 0.48 1.08
-15.84 1.05 0.63
-15.81 1.09 0.63
-15.85 1.13 0.63
-10.35 0.77 1.16
-15.38 1.17 0.67
-9.82 0.78 1.21
-10.06 0.82 1.19
-9.98 0.84 1.19
-9.05 0.78 1.28
-10.01 0.89 1.19
-10.15 0.93 1.18
-9.35 0.88 1.25
-9.49 0.91 1.24
-9.01 0.89 1.29
-8.98 0.91 1.29
-9.17 0.95 1.27
-9.06 0.96 1.28
-8.92 0.97 1.29
-9.34 1.04 1.25
-9.16 1.04 1.27
-8.99 1.05 1.29
-9.00 1.07 1.28
-9.10 1.10 1.27
-9.33 -1.51 1.04
-9.50 -1.47 1.03
-1.74 -0.51 1.76
-9.88 -1.37 0.99
-9.76 -1.32 1.00
-6.30 -0.91 1.33
-6.14 -0.88 1.35
-2.43 -0.50 1.70
-5.91 -0.81 1.37
-5.96 -0.80 1.36
-5.79 -0.72 1.38
-5.83 -0.56 1.38
-5.68 -0.51 1.39
-5.72 -0.49 1.39
-3.42 -0.35 1.60
-5.50 -0.44 1.41
-5.76 -0.44 1.38
-5.55 -0.41 1.40
-5.64 -0.39 1.39
-5.50 -0.37 1.41
-5.40 -0.34 1.42
-5.58 -0.33 1.40
-5.47 -0.27 1.41
-5.45 -0.25 1.41
-11.70 -0.40 0.82
-5.50 -0.21 1.41
-11.48 -0.33 0.84
-11.38 -0.26 0.85
-11.20 -0.22 0.87
-10.98 -0.19 0.89
-5.82 -0.10 1.38
-5.27 -0.03 1.43
-10.95 -0.02 0.89
-11.30 0.02 1.00
-9.63 0.04 1.17
-9.70 0.06 1.16
-10.97 0.09 1.03
-11.13 0.12 1.02
-11.45 0.15 0.98
-11.46 0.18 0.98
-11.38 0.21 0.99
-11.48 0.24 0.98
-11.16 0.26 1.01
-11.41 0.29 0.99
-10.98 0.31 1.03
-11.10 0.34 1.02
-11.25 0.37 1.00
-11.62 0.41 0.96
-11.16 0.42 1.01
-11.45 0.46 0.98
-11.55 0.49 0.97
-11.57 0.52 0.97
-11.36 0.54 0.99
-14.04 0.70 0.71
-15.82 0.82 0.53
-15.84 0.86 0.53
-10.39 0.59 1.09
-9.59 0.67 1.17
-9.77 0.70 1.15
-9.39 0.70 1.19
-9.35 0.72 1.19
-9.66 0.77 1.16
-9.73 0.80 1.15
-9.20 0.78 1.21
-9.33 0.81 1.19
-9.52 0.85 1.17
-9.29 0.85 1.20
-9.20 0.87 1.21
-9.16 0.89 1.21
-9.08 0.90 1.22
-8.93 0.91 1.23
-8.97 0.93 1.23
-8.88 0.95 1.24
-8.93 0.97 1.23
-8.79 0.98 1.25
-9.04 1.03 1.22
-8.88 1.03 1.24
-8.71 1.04 1.25
-8.96 1.09 1.23
-8.77 1.09 1.25
-9.43 -1.52 0.95
-9.54 -1.51 0.94
-9.42 -1.43 0.95
-6.25 -0.95 1.28
-9.78 -1.30 0.92
-6.30 -0.92 1.27
-6.28 -0.89 1.27
-2.41 -0.50 1.67
-2.13 -0.46 1.69
-6.30 -0.83 1.27
-3.29 -0.54 1.58
-6.12 -0.77 1.29
-11.79 -1.23 0.72
-3.77 -0.54 1.53
-3.56 -0.50 1.55
-3.59 -0.49 1.55
-3.81 -0.49 1.52
-3.69 -0.47 1.54
-3.66 -0.45 1.54
-3.35 -0.41 1.57
-3.75 -0.43 1.53
-3.40 -0.37 1.57
-3.66 -0.38 1.54
-3.64 -0.36 1.54
-3.34 -0.33 1.57
-11.12 -0.71 0.79
-9.22 -0.56 0.98
-8.97 -0.52 1.00
-9.13 -0.50 0.99
-11.55 -0.57 0.74
-8.59 -0.42 1.04
-6.21 -0.19 1.52
-12.09 -0.28 0.92
-12.00 -0.24 0.93
-11.65 -0.18 0.96
-12.09 -0.16 0.92
-11.87 -0.13 0.94
-11.27 -0.09 1.00
-11.23 -0.07 1.01
-11.21 -0.04 1.01
-11.27 -0.01 1.00
-11.05 0.01 0.70
-11.39 0.04 0.67
-10.88 0.10 0.72
-10.62 0.32 0.75
-10.32 0.38 0.78
-15.87 0.82 0.42
-3.80 0.23 1.74
-14.95 0.92 0.52
-14.48 0.93 0.57
-15.27 1.01 0.48
-10.02 0.69 1.06
-9.54 0.68 1.11
-9.38 0.70 1.13
-9.06 0.70 1.16
-9.45 0.75 1.12
-9.50 0.80 1.11
-9.09 0.79 1.16
-9.25 0.82 1.14
-9.17 0.84 1.15
-9.13 0.88 1.15
-8.95 0.88 1.17
-8.95 0.91 1.17
-8.84 0.92 1.18
-8.85 0.96 1.18
-8.97 1.00 1.17
-8.88 1.01 1.18
-8.97 1.04 1.17
-8.91 1.06 1.17
-11.30 1.50 0.91
-7.94 1.16 1.28
-2.89 1.16 1.81
-11.77 -1.16 0.63
-11.80 -1.02 0.62
-11.70 -0.95 0.63
-11.70 -0.91 0.63
-11.54 -0.87 0.65
-9.16 -0.67 0.91
-11.68 -0.77 0.64
-8.74 -0.51 0.95
-11.73 -0.57 0.63
-11.28 -0.39 0.68
-11.28 -0.36 0.68
-11.26 -0.32 0.68
-10.91 -0.28 0.72
-9.02 -0.22 0.92
-10.90 -0.22 0.72
-10.75 -0.15 0.74
-10.75 -0.12 0.74
-11.40 -0.06 0.67
-11.02 -0.02 0.71
-11.45 0.02 0.83
-11.30 0.04 0.84
-11.38 0.07 0.84
-11.20 0.10 0.86
-11.12 0.12 0.86
-10.95 0.15 0.89
-11.00 0.17 0.88
-11.05 0.20 0.87
-11.22 0.23 0.85
-11.16 0.26 0.86
-10.82 0.28 0.90
-11.77 0.33 0.79
-6.72 0.21 1.38
-11.53 0.38 0.82
-11.28 0.40 0.84
-11.30 0.43 0.84
-11.25 0.45 0.85
-11.51 0.49 0.82
-11.16 0.50 0.86
-11.12 0.53 0.86
-11.12 0.55 0.86
-11.18 0.58 0.85
-12.77 0.70 0.67
-9.48 0.57 1.05
-9.73 0.60 1.02
-9.08 0.59 1.10
-8.99 0.60 1.11
-9.63 0.67 1.03
-9.02 0.65 1.10
-8.67 0.65 1.14
-8.95 0.69 1.11
-8.95 0.71 1.11
-9.28 0.76 1.07
-9.14 0.77 1.09
-10.05 0.87 0.98
-9.41 0.84 1.06
-9.28 0.85 1.07
-10.04 0.94 0.98
-9.60 0.93 1.03
-8.91 0.88 1.11
-9.88 1.00 1.00
-9.60 1.00 1.03
-9.47 1.01 1.05
-8.90 0.97 1.11
-8.85 0.99 1.12
-8.79 1.00 1.12
-9.16 1.07 1.08
-8.75 1.04 1.13
-9.20 1.12 1.08
-8.73 1.08 1.13
-11.38 1.60 0.81
-9.52 -1.62 0.78
-9.34 -1.57 0.80
-9.38 -1.55 0.79
-9.46 -1.53 0.79
-9.43 -1.49 0.79
-1.87 -0.54 1.66
-9.58 -1.42 0.77
-6.00 -0.99 1.18
-9.30 -1.33 0.81
-2.37 -0.52 1.60
-8.97 -1.16 0.84
-1.80 -0.42 1.67
-3.00 -0.46 1.53
-11.76 -1.13 0.53
-7.64 -0.78 1.00
-3.08 -0.42 1.52
-11.60 -0.98 0.54
-6.84 -0.63 1.09
-3.82 -0.40 1.43
-9.13 -0.70 0.83
-5.32 -0.45 1.26
-11.81 -0.64 0.79
-11.66 -0.60 0.81
-11.80 -0.58 0.79
-12.20 -0.51 0.74
-6.30 -0.25 1.43
-6.50 -0.24 1.40
-11.78 -0.41 0.79
-11.39 -0.37 0.84
-12.17 -0.37 0.75
-12.34 -0.31 0.73
-11.78 -0.27 0.79
-12.59 -0.26 0.70
-12.62 -0.23 0.69
-9.92 -0.15 1.01
-6.50 -0.09 1.40
-10.41 -0.11 0.95
-11.45 -0.10 0.83
-11.13 -0.07 0.87
-10.94 -0.04 0.89
-11.21 -0.01 0.86
-10.99 0.01 0.52
-11.43 0.10 0.75
-11.20 0.12 0.78
-11.14 0.15 0.79
-11.16 0.18 0.79
-10.87 0.20 0.82
-11.33 0.23 0.77
-11.16 0.26 0.79
-11.27 0.29 0.77
-11.26 0.31 0.77
-11.38 0.34 0.76
-11.19 0.37 0.78
-11.24 0.40 0.77
-10.97 0.41 0.81
-11.10 0.44 0.79
-11.01 0.47 0.80
-9.34 0.47 1.01
-10.54 0.58 0.86
-9.55 0.55 0.98
-9.31 0.56 1.01
-9.38 0.58 1.00
-9.57 0.62 0.98
-10.08 0.67 0.91
-8.83 0.61 1.07
-9.12 0.68 1.03
-9.02 0.69 1.04
-9.11 0.72 1.03
-9.12 0.75 1.03
-9.22 0.78 1.02
-9.59 0.83 0.97
-9.20 0.82 1.02
-9.61 0.90 0.97
-9.59 0.92 0.97
-9.57 0.95 0.97
-9.45 0.96 0.98
-9.73 1.01 0.95
-9.47 1.01 0.98
-8.83 1.03 1.06
-8.92 1.06 1.05
-9.02 1.09 1.03
-9.38 1.25 0.99
-11.61 1.63 0.71
-2.54 1.15 1.80
-9.55 -1.62 0.69
-9.47 -1.58 0.70
-9.45 -1.52 0.71
-9.41 -1.46 0.71
-9.38 -1.43 0.72
-9.36 -1.40 0.72
-9.21 -1.35 0.74
-2.14 -0.54 1.60
-2.24 -0.54 1.58
-2.34 -0.52 1.57
-2.25 -0.50 1.58
-2.25 -0.49 1.58
-6.42 -0.88 1.08
-2.37 -0.48 1.57
-6.11 -0.81 1.12
-9.05 -1.05 0.76
-2.56 -0.46 1.55
-2.48 -0.44 1.56
-2.46 -0.43 1.56
-2.95 -0.44 1.50
-2.63 -0.40 1.54
-4.00 -0.49 1.37
-3.34 -0.43 1.45
-3.27 -0.41 1.46
-5.21 -0.52 1.23
-5.44 -0.52 1.20
-3.62 -0.39 1.42
-5.38 -0.48 1.21
-5.45 -0.46 1.20
-5.11 -0.42 1.24
-5.29 -0.41 1.22
-5.27 -0.39 1.22
-5.17 -0.37 1.23
-8.70 -0.51 0.80
-11.88 -0.61 0.42
-4.68 -0.29 1.29
-11.80 -0.54 0.43
-4.34 -0.25 1.33
-11.45 -0.46 0.47
-4.73 -0.23 1.28
-4.85 -0.21 1.27
-4.73 -0.19 1.28
-4.84 -0.18 1.27
-4.28 -0.15 1.34
-11.09 -0.25 0.51
-5.14 -0.13 1.23
-10.77 -0.18 0.55
-6.79 -0.11 1.03
-6.90 -0.09 1.02
-10.63 -0.09 0.57
-6.91 -0.04 1.02
-11.04 -0.02 0.52
-9.52 0.01 0.92
-9.45 0.04 0.93
-9.55 0.06 0.91
-11.37 0.10 0.68
-11.34 0.12 0.68
-11.03 0.15 0.72
-11.12 0.18 0.71
-10.91 0.20 0.74
-9.15 0.19 0.96
-9.08 0.21 0.97
-11.32 0.29 0.68
-7.82 0.22 1.14
-7.81 0.24 1.14
-11.22 0.37 0.69
-10.86 0.38 0.74
-10.88 0.41 0.74
-11.19 0.45 0.70
-13.82 0.58 0.35
-11.15 0.50 0.70
-14.04 0.66 0.32
-9.09 0.45 0.97
-9.16 0.48 0.96
-9.17 0.50 0.96
-9.30 0.53 0.94
-9.27 0.55 0.95
-8.95 0.56 0.99
-9.09 0.59 0.97
-9.36 0.63 0.93
-8.95 0.62 0.99
-9.54 0.69 0.91
-8.98 0.67 0.98
-9.47 0.73 0.92
-9.34 0.74 0.93
-9.44 0.77 0.92
-9.44 0.79 0.92
-10.03 0.87 0.84
-9.85 0.88 0.86
-9.66 0.88 0.89
-9.50 0.89 0.91
-9.55 0.92 0.90
-9.85 0.97 0.86
-9.73 0.99 0.88
-9.89 1.03 0.86
-9.43 1.00 0.92
-9.85 1.07 0.86
-10.21 1.13 0.81
-10.04 1.21 0.83
-10.01 1.29 0.84
-11.24 1.50 0.67
-11.50 1.61 0.64
-11.26 1.61 0.67
-11.44 1.66 0.64
-4.53 0.98 1.54
-9.35 -1.60 0.63
-9.38 -1.57 0.63
-9.31 -1.51 0.64
-9.31 -1.48 0.64
-5.76 -1.00 1.09
-5.96 -1.00 1.07
-3.74 -0.73 1.35
-6.02 -0.97 1.06
-6.40 -0.97 1.01
-6.28 -0.93 1.03
-2.18 -0.48 1.56
-2.28 -0.48 1.54
-3.12 -0.55 1.44
-2.41 -0.47 1.53
-3.42 -0.54 1.40
-3.18 -0.50 1.43
-3.18 -0.47 1.43
-3.66 -0.50 1.37
-3.72 -0.49 1.36
-5.41 -0.59 1.14
-5.41 -0.55 1.14
-4.11 -0.45 1.31
-4.86 -0.46 1.21
-5.71 -0.50 1.10
-4.87 -0.43 1.21
-5.50 -0.44 1.13
-4.62 -0.36 1.24
-4.77 -0.35 1.22
-4.86 -0.32 1.21
-4.82 -0.30 1.22
-4.91 -0.29 1.21
-4.72 -0.26 1.23
-4.33 -0.21 1.28
-4.53 -0.20 1.25
-4.54 -0.17 1.25
-4.52 -0.15 1.25
-4.55 -0.13 1.25
-10.12 -0.13 0.84
-11.99 -0.13 0.60
-11.29 -0.09 0.69
-11.34 -0.07 0.68
-11.20 -0.04 0.70
-11.41 -0.01 0.67
-10.59 0.01 0.38
-7.02 0.03 0.86
-7.01 0.05 0.87
-7.14 0.08 0.85
-7.07 0.10 0.86
-6.73 0.12 0.90
-7.01 0.14 0.86
-6.71 0.16 0.91
-6.98 0.19 0.87
-7.50 0.22 0.80
-7.47 0.25 0.80
-11.08 0.34 0.63
-8.27 0.27 1.02
-8.88 0.31 0.93
-8.73 0.33 0.96
-8.80 0.35 0.95
-8.66 0.37 0.96
-10.84 0.49 0.66
-10.03 0.50 0.77
-9.22 0.48 0.89
-10.09 0.55 0.76
-9.23 0.53 0.88
-9.38 0.56 0.86
-9.57 0.59 0.84
-9.92 0.64 0.79
-9.41 0.63 0.86
-9.81 0.68 0.80
-9.59 0.69 0.83
-9.40 0.70 0.86
-9.33 0.72 0.87
-9.85 0.78 0.79
-9.52 0.78 0.84
-9.70 0.81 0.82
-9.50 0.82 0.84
-9.61 0.85 0.83
-9.57 0.87 0.83
-9.68 0.91 0.82
-9.82 0.94 0.80
-9.95 0.98 0.78
-9.76 0.99 0.80
-9.84 1.02 0.79
-10.41 1.10 0.71
-10.06 1.09 0.76
-9.55 1.06 0.83
-10.47 1.19 0.70
-10.05 1.16 0.76
-10.14 1.20 0.75
-10.36 1.25 0.71
-10.29 1.27 0.72
-11.43 1.55 0.56
-11.52 1.59 0.55
-11.78 1.65 0.51
-3.66 0.55 1.64
-3.60 0.55 1.65
-5.88 0.90 1.33
-9.49 -1.59 0.52
-9.52 -1.53 0.52
-5.96 -1.06 1.01
-6.10 -1.04 0.99
-6.18 -1.01 0.98
-6.48 -1.02 0.94
-6.20 -0.97 0.98
-6.17 -0.94 0.98
-2.08 -0.50 1.54
-2.04 -0.48 1.54
-2.37 -0.50 1.50
-6.42 -0.88 0.95
-6.16 -0.84 0.98
-6.12 -0.81 0.99
-6.05 -0.78 1.00
-5.94 -0.75 1.01
-6.04 -0.74 1.00
-2.88 -0.46 1.43
-3.34 -0.48 1.37
-6.29 -0.70 0.96
-3.69 -0.48 1.32
-5.41 -0.59 1.08
-4.02 -0.47 1.27
-3.79 -0.44 1.30
-3.54 -0.41 1.34
-4.36 -0.45 1.23
-3.46 -0.38 1.35
-5.03 -0.45 1.14
-5.15 -0.44 1.12
-4.86 -0.41 1.16
-4.94 -0.39 1.15
-5.01 -0.38 1.14
-4.87 -0.36 1.16
-5.50 -0.31 1.07
-4.83 -0.26 1.16
-6.59 -0.30 0.92
-4.64 -0.22 1.19
-4.50 -0.20 1.21
-4.40 -0.18 1.22
-4.58 -0.17 1.20
-6.55 -0.19 0.93
-6.71 -0.17 0.91
-4.85 -0.12 1.16
-6.64 -0.13 0.92
-6.61 -0.11 0.92
-7.39 -0.09 0.81
-10.76 -0.09 0.36
-10.58 -0.06 0.38
-10.50 -0.02 0.39
-11.99 0.02 0.41
-9.33 0.04 0.80
-8.47 0.05 0.92
-8.50 0.07 0.92
-8.35 0.09 0.94
-8.27 0.11 0.95
-8.26 0.13 0.96
-8.19 0.15 0.97
-8.47 0.18 0.92
-8.36 0.19 0.94
-8.11 0.21 0.98
-6.00 0.17 1.28
-8.21 0.25 0.96
-8.17 0.27 0.97
-8.27 0.29 0.95
-8.16 0.31 0.97
-8.37 0.34 0.94
-10.67 0.45 0.60
-10.48 0.47 0.63
-8.70 0.41 0.89
-9.88 0.49 0.71
-9.72 0.51 0.74
-9.00 0.49 0.84
-9.30 0.53 0.80
-9.05 0.54 0.83
-9.25 0.58 0.81
-9.11 0.59 0.83
-9.16 0.61 0.82
-9.49 0.66 0.77
-9.54 0.69 0.76
-9.12 0.68 0.82
-9.24 0.71 0.80
-9.56 0.76 0.76
-9.23 0.75 0.81
-9.80 0.82 0.72
-9.80 0.85 0.72
-9.78 0.87 0.72
-9.90 0.91 0.71
-9.78 0.92 0.72
-9.79 0.94 0.72
-9.99 0.99 0.69
-10.05 1.02 0.68
-9.78 1.02 0.72
-9.96 1.06 0.69
-10.12 1.12 0.67
-10.55 1.20 0.61
-5.57 0.66 1.33
-10.05 1.19 0.68
-5.64 0.70 1.32
-10.15 1.25 0.66
-10.41 1.31 0.62
-6.00 0.78 1.27
-10.66 1.39 0.59
-10.80 1.44 0.56
-10.73 1.46 0.57
-11.05 1.53 0.53
-10.83 1.52 0.56
-11.20 1.63 0.50
-11.35 1.68 0.48
-11.04 1.69 0.52
-5.85 0.93 1.29
-5.99 0.97 1.26
-3.86 0.99 1.56
-4.59 -0.97 1.14
-4.64 -0.96 1.13
-4.57 -0.93 1.14
-4.72 -0.91 1.12
-5.56 -0.98 1.00
-5.82 -0.97 0.96
-6.18 -0.99 0.91
-6.18 -0.97 0.91
-6.38 -0.95 0.88
-6.09 -0.87 0.92
-2.48 -0.49 1.44
-2.36 -0.47 1.46
-6.05 -0.79 0.93
-5.81 -0.72 0.96
-5.55 -0.66 1.00
-5.78 -0.64 0.97
-4.37 -0.52 1.17
-3.85 -0.46 1.24
-5.32 -0.53 1.03
-4.63 -0.45 1.13
-4.84 -0.43 1.10
-4.96 -0.42 1.08
-5.13 -0.41 1.06
-4.89 -0.36 1.09
-6.38 -0.34 0.88
-6.60 -0.33 0.85
-7.10 -0.23 1.12
-11.86 -0.36 0.44
-11.74 -0.32 0.45
-11.52 -0.29 0.48
-11.81 -0.27 0.44
-11.48 -0.23 0.49
-11.79 -0.21 0.45
-11.96 -0.19 0.42
-11.68 -0.15 0.46
-11.66 -0.13 0.46
-8.69 -0.07 0.89
-8.95 -0.05 0.86
-9.34 -0.03 0.80
-11.96 -0.01 0.42
-8.80 0.14 0.45
-6.77 0.18 0.75
-6.80 0.23 0.75
-6.53 0.25 0.79
-6.57 0.27 0.78
-7.47 0.37 0.65
-7.31 0.39 0.67
-11.99 0.68 0.32
-12.23 0.72 0.28
-12.19 0.75 0.29
-9.34 0.60 0.72
-9.73 0.72 0.66
-9.66 0.76 0.67
-9.55 0.78 0.69
-9.84 0.83 0.64
-9.80 0.89 0.65
-10.23 1.08 0.58
-10.30 1.12 0.57
-10.27 1.21 0.57
-10.48 1.26 0.53
-10.48 1.29 0.53
-10.60 1.33 0.51
-10.89 1.42 0.47
-10.90 1.45 0.47
-10.89 1.47 0.47
-11.05 1.52 0.44
-10.61 1.49 0.51
-10.75 1.56 0.49
-8.05 -1.24 0.56
-5.93 -0.85 0.88
-7.96 -0.80 0.58
-8.38 -0.68 0.51
-8.55 -0.66 0.49
-8.32 -0.62 0.52
-8.60 -0.34 0.48
-9.77 -0.11 0.30
-6.62 -0.04 0.78
-7.79 0.01 0.90
-7.70 0.03 0.91
-7.88 0.05 0.88
-8.36 0.07 0.81
-8.13 0.09 0.84
-8.32 0.11 0.81
-8.24 0.15 0.83
-7.82 0.16 0.89
-8.70 0.22 0.75
-8.75 0.25 0.74
-8.79 0.27 0.74
-11.38 0.37 0.32
-8.59 0.30 0.77
-8.35 0.32 0.80
-8.68 0.35 0.75
-10.08 0.43 0.53
-8.70 0.39 0.75
-9.28 0.44 0.65
-9.28 0.46 0.65
-9.35 0.49 0.64
-9.23 0.51 0.66
-8.61 0.49 0.76
-9.52 0.57 0.61
-9.59 0.60 0.60
-9.59 0.62 0.60
-9.29 0.62 0.65
-9.68 0.67 0.59
-9.38 0.67 0.64
-9.61 0.71 0.60
-9.61 0.74 0.60
-9.47 0.75 0.62
-9.63 0.79 0.59
-9.69 0.82 0.58
-9.63 0.83 0.59
-5.25 0.48 1.30
-9.59 0.88 0.60
-9.72 0.91 0.58
-9.93 0.96 0.54
-9.86 0.98 0.55
-9.93 1.01 0.54
-10.17 1.08 0.50
-9.98 1.08 0.53
-10.09 1.12 0.51
-10.32 1.17 0.47
-10.41 1.21 0.46
-10.37 1.23 0.46
-10.42 1.26 0.46
-10.63 1.31 0.42
-10.79 1.36 0.39
-10.91 1.40 0.37
-11.09 1.45 0.35
-10.95 1.46 0.37
-10.84 1.47 0.38
-10.71 1.48 0.40
-11.16 1.57 0.33
-10.93 1.56 0.37
-10.80 1.57 0.39
-10.94 1.62 0.36
-10.87 1.67 0.37
-10.83 1.69 0.38
-10.27 1.65 0.47
-10.08 1.67 0.50
-9.88 1.67 0.53
-9.59 1.69 0.57
-4.85 -1.40 0.97
-4.80 -1.36 0.98
-4.80 -1.34 0.98
-4.68 -1.30 1.00
-4.62 -1.27 1.01
-4.84 -1.27 0.98
-3.68 -1.06 1.16
-4.94 -1.25 0.96
-4.76 -1.21 0.99
-4.83 -1.20 0.98
-4.83 -1.18 0.98
-4.58 -1.12 1.02
-4.56 -1.10 1.02
-4.73 -1.11 1.00
-4.59 -1.07 1.02
-4.38 -1.03 1.05
-4.40 -1.01 1.05
-4.54 -1.01 1.03
-4.39 -0.98 1.05
-4.42 -0.96 1.05
-4.28 -0.93 1.07
-4.27 -0.91 1.07
-4.27 -0.89 1.07
-4.25 -0.87 1.08
-4.21 -0.85 1.08
-4.30 -0.85 1.07
-4.39 -0.84 1.05
-4.66 -0.86 1.01
-4.37 -0.81 1.06
-5.66 -0.93 0.85
-6.13 -0.96 0.78
-3.79 -0.69 1.15
-5.76 -0.88 0.84
-5.89 -0.88 0.81
-5.80 -0.85 0.83
-5.88 -0.83 0.82
-2.51 -0.48 1.35
-2.19 -0.44 1.41
-2.21 -0.43 1.40
-2.08 -0.41 1.42
-1.98 -0.39 1.44
-2.14 -0.39 1.41
-3.58 -0.49 1.18
-2.02 -0.36 1.43
-2.36 -0.37 1.38
-3.58 -0.45 1.18
-3.78 -0.44 1.15
-4.28 -0.46 1.07
-4.34 -0.45 1.06
-4.27 -0.43 1.07
-3.30 -0.36 1.23
-3.44 -0.35 1.21
-9.77 -0.46 0.58
-9.51 -0.43 0.63
-6.91 -0.28 1.04
-6.95 -0.26 1.04
-7.11 -0.25 1.01
-7.02 -0.23 1.02
-7.11 -0.22 1.01
-7.31 -0.20 0.98
-11.23 -0.28 0.35
-11.11 -0.25 0.37
-11.09 -0.23 0.37
-11.03 -0.20 0.38
-11.59 -0.18 0.29
-11.21 -0.15 0.35
-11.47 -0.12 0.31
-8.40 -0.07 0.80
-7.64 -0.05 0.92
-7.53 -0.03 0.94
-7.94 -0.01 0.88
-6.82 0.00 0.59
-6.91 0.03 0.58
-7.02 0.05 0.56
-7.88 0.07 0.82
-8.09 0.09 0.79
-8.20 0.13 0.77
-9.05 0.17 0.62
-9.08 0.19 0.62
-8.55 0.20 0.71
-8.27 0.21 0.75
-8.44 0.24 0.73
-8.73 0.29 0.68
-8.72 0.31 0.68
-8.94 0.36 0.64
-8.56 0.37 0.70
-8.48 0.38 0.72
-4.52 0.22 1.38
-4.67 0.24 1.36
-8.09 0.43 0.78
-9.57 0.52 0.53
-7.91 0.45 0.81
-8.10 0.49 0.78
-7.85 0.49 0.82
-4.98 0.33 1.31
-5.05 0.35 1.29
-4.93 0.35 1.31
-5.11 0.38 1.28
-5.14 0.39 1.28
-5.03 0.40 1.30
-5.05 0.41 1.29
-4.88 0.41 1.32
-4.94 0.43 1.31
-4.95 0.44 1.31
-9.49 0.84 0.54
-4.86 0.46 1.32
-5.16 0.50 1.27
-5.19 0.51 1.26
-5.15 0.52 1.27
-5.36 0.55 1.24
-5.43 0.57 1.22
-5.26 0.57 1.25
-9.91 1.08 0.46
-9.85 1.09 0.47
-5.58 0.65 1.20
-5.48 0.65 1.21
-10.04 1.19 0.44
-6.15 0.76 1.10
-10.59 1.30 0.34
-10.18 1.28 0.41
-5.79 0.76 1.16
-10.14 1.33 0.42
-10.60 1.41 0.34
-6.14 0.85 1.10
-6.10 0.86 1.10
-10.65 1.52 0.33
-10.66 1.55 0.32
-10.37 1.53 0.37
-10.34 1.56 0.38
-10.49 1.60 0.35
-10.50 1.63 0.35
-10.41 1.64 0.36
-10.20 1.64 0.40
-9.99 1.63 0.43
-9.81 1.63 0.46
-9.94 1.67 0.44
-9.73 1.66 0.48
-9.76 1.69 0.47
-3.16 0.92 1.58
-3.46 1.11 1.52
-3.59 -1.29 1.12
-3.33 -1.19 1.17
-3.51 -1.21 1.14
-3.43 -1.18 1.15
-4.84 -1.42 0.92
-4.77 -1.38 0.93
-4.60 -1.33 0.96
-4.77 -1.35 0.93
-4.39 -1.26 0.99
-5.03 -1.36 0.89
-4.92 -1.32 0.90
-4.71 -1.27 0.94
-4.38 -1.19 1.00
-4.48 -1.17 0.98
-3.71 -1.03 1.11
-4.50 -1.14 0.98
-4.31 -1.10 1.01
-4.35 -1.08 1.00
-4.40 -1.08 1.00
-4.27 -1.04 1.02
-4.06 -0.99 1.05
-4.11 -0.98 1.05
-3.96 -0.95 1.07
-3.99 -0.93 1.07
-3.93 -0.91 1.08
-4.01 -0.90 1.06
-4.25 -0.92 1.02
-4.28 -0.91 1.02
-4.11 -0.87 1.05
-4.04 -0.84 1.06
-3.99 -0.82 1.07
-4.28 -0.84 1.02
-4.29 -0.83 1.02
-4.42 -0.82 1.00
-3.79 -0.74 1.10
-3.71 -0.71 1.11
-4.33 -0.76 1.01
-3.80 -0.69 1.10
-4.35 -0.73 1.01
-4.88 -0.77 0.92
-4.20 -0.68 1.03
-2.00 -0.45 1.40
-2.14 -0.46 1.38
-4.09 -0.63 1.05
-2.31 -0.45 1.35
-2.39 -0.44 1.34
-2.31 -0.43 1.35
-2.31 -0.41 1.35
-2.36 -0.41 1.34
-2.31 -0.39 1.35
-2.12 -0.36 1.38
-2.33 -0.37 1.35
-2.62 -0.38 1.30
-3.08 -0.40 1.22
-3.43 -0.40 1.16
-3.64 -0.40 1.13
-3.97 -0.41 1.07
-3.51 -0.37 1.15
-3.68 -0.36 1.12
-3.37 -0.33 1.17
-3.56 -0.32 1.14
-4.36 -0.35 1.01
-4.33 -0.33 1.01
-2.38 -0.23 1.34
-2.41 -0.22 1.33
-2.11 -0.19 1.38
-2.29 -0.19 1.35
-2.15 -0.17 1.38
-4.37 -0.23 1.00
-4.21 -0.21 1.03
-4.38 -0.20 1.00
-4.60 -0.19 0.97
-6.52 -0.21 0.65
-2.20 -0.10 1.37
-6.40 -0.17 0.67
-2.62 -0.09 1.30
-7.01 -0.09 0.56
-6.73 -0.06 0.61
-6.47 -0.04 0.65
-6.64 -0.02 0.62
-7.73 0.01 0.78
-7.69 0.03 0.79
-7.89 0.05 0.75
-7.83 0.07 0.76
-7.75 0.09 0.78
-7.80 0.11 0.77
-8.00 0.13 0.73
-8.10 0.15 0.71
-8.57 0.18 0.63
-8.23 0.19 0.69
-8.27 0.21 0.68
-8.14 0.23 0.71
-8.27 0.25 0.68
-7.98 0.26 0.73
-7.96 0.28 0.74
-7.94 0.32 0.74
-7.73 0.33 0.78
-7.91 0.36 0.74
-5.34 0.26 1.20
-5.53 0.28 1.17
-5.32 0.28 1.20
-7.49 0.41 0.82
-7.56 0.44 0.80
-7.55 0.45 0.81
-5.40 0.34 1.19
-7.74 0.50 0.77
-5.09 0.35 1.24
-4.98 0.35 1.26
-4.99 0.37 1.26
-4.99 0.38 1.26
-5.75 0.45 1.12
-5.39 0.44 1.18
-7.80 0.64 0.76
-5.56 0.48 1.15
-5.45 0.48 1.17
-5.16 0.47 1.23
-9.44 0.86 0.46
-9.36 0.88 0.48
-9.41 0.91 0.47
-9.58 0.95 0.44
-9.45 0.96 0.46
-9.51 0.99 0.45
-6.95 0.75 0.90
-7.08 0.78 0.88
-6.84 0.77 0.92
-9.46 1.08 0.46
-9.68 1.12 0.42
-6.53 0.78 0.98
-5.38 0.67 1.18
-6.08 0.76 1.05
-6.16 0.79 1.04
-6.25 0.82 1.02
-6.55 0.87 0.97
-6.11 0.83 1.05
-5.66 0.83 1.12
-6.10 0.95 1.04
-9.34 1.46 0.47
-5.93 0.96 1.08
-9.91 1.59 0.36
-9.50 1.55 0.43
-5.76 0.97 1.10
-9.50 1.60 0.43
-9.59 1.64 0.41
-9.66 1.68 0.40
-9.61 1.69 0.41
-2.02 -1.13 1.35
-3.34 -1.32 1.12
-3.41 -1.28 1.10
-3.36 -1.25 1.11
-4.73 -1.49 0.87
-4.84 -1.49 0.85
-4.51 -1.41 0.91
-4.77 -1.44 0.86
-4.73 -1.41 0.87
-4.36 -1.33 0.94
-4.71 -1.38 0.88
-4.59 -1.33 0.90
-4.39 -1.28 0.93
-4.41 -1.27 0.93
-4.42 -1.25 0.93
-4.24 -1.20 0.96
-4.41 -1.22 0.93
-4.21 -1.16 0.97
-4.28 -1.16 0.96
-4.52 -1.18 0.91
-4.17 -1.11 0.97
-3.95 -1.06 1.01
-4.08 -1.06 0.99
-3.88 -1.01 1.03
-3.85 -0.99 1.03
-3.84 -0.98 1.04
-3.83 -0.96 1.04
-3.84 -0.95 1.04
-3.88 -0.94 1.03
-3.76 -0.90 1.05
-3.76 -0.89 1.05
-3.82 -0.88 1.04
-3.67 -0.85 1.06
-3.73 -0.84 1.06
-3.80 -0.83 1.04
-3.73 -0.81 1.06
-3.75 -0.79 1.05
-4.01 -0.81 1.01
-3.72 -0.76 1.06
-3.89 -0.76 1.03
-4.15 -0.78 0.98
-3.69 -0.71 1.06
-4.20 -0.75 0.97
-3.87 -0.70 1.03
-3.70 -0.67 1.06
-3.58 -0.64 1.08
-4.27 -0.69 0.96
-4.11 -0.66 0.99
-4.27 -0.66 0.96
-5.18 -0.73 0.80
-5.28 -0.72 0.79
-4.18 -0.60 0.98
-4.47 -0.61 0.93
-3.82 -0.54 1.04
-3.88 -0.53 1.03
-3.82 -0.51 1.04
-3.63 -0.48 1.07
-3.96 -0.49 1.02
-4.32 -0.50 0.95
-3.86 -0.45 1.03
-3.86 -0.43 1.03
-3.76 -0.41 1.05
-4.18 -0.42 0.98
-4.41 -0.42 0.94
-4.28 -0.40 0.96
-3.91 -0.36 1.03
-4.74 -0.39 0.88
-5.54 -0.41 0.74
-3.95 -0.31 1.02
-3.87 -0.29 1.03
-3.78 -0.27 1.05
-4.05 -0.27 1.00
-4.16 -0.26 0.98
-4.16 -0.24 0.98
-2.30 -0.17 1.31
-2.42 -0.16 1.29
-2.29 -0.14 1.31
-2.24 -0.13 1.32
-4.41 -0.17 0.94
-4.23 -0.15 0.97
-2.18 -0.09 1.33
-7.64 -0.10 0.80
-7.61 -0.08 0.80
-8.04 -0.07 0.73
-7.55 -0.04 0.81
-7.75 -0.03 0.78
-7.75 -0.01 0.78
-6.86 0.00 0.43
-3.53 0.05 1.04
-3.53 0.06 1.04
-6.55 0.11 0.48
-3.58 0.09 1.03
-4.02 0.11 0.95
-3.57 0.12 1.03
-6.67 0.20 0.46
-7.05 0.24 0.39
-8.11 0.27 0.64
-4.93 0.18 1.23
-4.69 0.18 1.27
-5.18 0.21 1.18
-4.77 0.21 1.26
-4.84 0.22 1.25
-5.03 0.24 1.21
-4.96 0.25 1.22
-5.00 0.27 1.21
-5.16 0.29 1.18
-4.90 0.29 1.23
-4.89 0.30 1.23
-5.00 0.32 1.21
-4.85 0.32 1.24
-4.83 0.33 1.24
-4.79 0.34 1.25
-4.95 0.36 1.22
-5.11 0.39 1.19
-5.09 0.40 1.20
-5.12 0.41 1.19
-4.81 0.40 1.25
-5.00 0.43 1.21
-4.95 0.44 1.22
-5.04 0.46 1.20
-9.36 0.85 0.40
-9.28 0.87 0.41
-9.32 0.90 0.40
-9.31 0.92 0.40
-9.37 0.95 0.39
-5.38 0.57 1.14
-5.32 0.58 1.15
-6.11 0.67 1.00
-9.22 1.02 0.42
-5.54 0.64 1.10
-9.21 1.07 0.42
-9.58 1.13 0.35
-6.01 0.74 1.01
-6.08 0.76 1.00
-5.77 0.77 1.06
-5.75 0.79 1.06
-5.85 0.88 1.04
-9.40 1.42 0.37
-9.45 1.54 0.36
-9.51 1.58 0.35
-9.55 1.61 0.34
-9.66 1.65 0.31
-9.52 1.65 0.34
-9.52 1.67 0.34
-4.93 -1.58 0.77
-4.94 -1.56 0.77
-4.99 -1.55 0.76
-4.95 -1.53 0.76
-4.83 -1.48 0.79
-4.88 -1.48 0.78
-4.80 -1.44 0.79
-4.56 -1.38 0.84
-4.41 -1.33 0.87
-4.30 -1.29 0.89
-3.83 -1.19 0.98
-4.05 -1.22 0.93
-3.11 -1.03 1.11
-4.39 -1.24 0.87
-4.11 -1.18 0.93
-4.23 -1.18 0.90
-4.09 -1.14 0.93
-4.03 -1.12 0.94
-3.85 -1.07 0.98
-3.83 -1.05 0.98
-3.96 -1.06 0.95
-3.86 -1.02 0.97
-3.68 -0.98 1.01
-3.79 -0.98 0.99
-3.71 -0.95 1.00
-3.62 -0.93 1.02
-3.61 -0.91 1.02
-3.42 -0.87 1.06
-3.30 -0.84 1.08
-3.51 -0.85 1.04
-3.46 -0.83 1.05
-3.48 -0.82 1.05
-3.48 -0.80 1.05
-3.42 -0.78 1.06
-3.14 -0.73 1.11
-3.30 -0.74 1.08
-3.08 -0.70 1.12
-3.26 -0.70 1.09
-3.15 -0.68 1.11
-3.17 -0.67 1.11
-3.12 -0.65 1.12
-3.33 -0.65 1.08
-3.29 -0.64 1.08
-3.53 -0.65 1.04
-3.23 -0.60 1.09
-3.15 -0.58 1.11
-2.97 -0.55 1.14
-3.01 -0.54 1.13
-3.11 -0.53 1.12
-2.50 -0.47 1.23
-2.92 -0.49 1.15
-2.86 -0.47 1.16
-2.83 -0.46 1.17
-2.83 -0.44 1.17
-3.05 -0.45 1.13
-2.99 -0.43 1.14
-2.55 -0.38 1.22
-2.89 -0.40 1.16
-2.64 -0.37 1.20
-2.89 -0.37 1.16
-2.78 -0.35 1.18
-3.03 -0.35 1.13
-2.45 -0.30 1.24
-2.63 -0.30 1.21
-2.97 -0.31 1.14
-2.49 -0.27 1.23
-4.14 -0.34 0.93
-2.52 -0.25 1.22
-3.14 -0.26 1.11
-3.75 -0.27 1.00
-2.18 -0.20 1.29
-2.30 -0.19 1.26
-1.99 -0.17 1.32
-3.05 -0.19 1.13
-2.16 -0.15 1.29
-2.00 -0.13 1.32
-2.14 -0.13 1.29
-2.14 -0.11 1.29
-2.09 -0.10 1.30
-2.08 -0.09 1.30
-3.83 -0.11 0.98
-2.04 -0.07 1.31
-2.22 -0.06 1.28
-1.99 -0.04 1.32
-3.76 -0.04 1.00
-2.17 -0.02 1.29
-1.97 -0.01 1.32
-7.31 0.03 0.72
-7.55 0.05 0.68
-5.34 0.05 1.11
-5.34 0.06 1.11
-5.20 0.07 1.13
-5.36 0.09 1.10
-5.35 0.10 1.10
-8.55 0.18 0.48
-8.37 0.19 0.52
-5.33 0.14 1.11
-8.45 0.24 0.50
-5.31 0.17 1.11
-5.16 0.17 1.14
-5.21 0.19 1.13
-5.14 0.20 1.14
-5.16 0.21 1.14
-5.23 0.23 1.12
-5.53 0.25 1.07
-5.18 0.25 1.13
-7.70 0.39 0.64
-5.31 0.28 1.11
-5.43 0.30 1.08
-5.41 0.32 1.09
-7.37 0.44 0.70
-5.03 0.32 1.16
-8.26 0.56 0.53
-5.07 0.36 1.15
-5.30 0.39 1.11
-5.35 0.41 1.09
-9.05 0.70 0.37
-5.95 0.48 0.98
-4.75 0.40 1.21
-6.73 0.59 0.82
-8.99 0.80 0.38
-5.00 0.47 1.16
-5.31 0.51 1.10
-6.49 0.63 0.87
-6.83 0.70 0.80
-9.06 0.94 0.37
-6.73 0.72 0.82
-6.89 0.77 0.79
-9.08 1.03 0.36
-6.69 0.82 0.82
-6.26 0.79 0.91
-5.59 0.72 1.04
-5.77 0.77 1.00
-6.07 0.84 0.94
-6.01 0.85 0.95
-5.84 0.84 0.99
-5.91 0.88 0.97
-5.83 0.88 0.99
-5.90 0.91 0.97
-8.91 1.44 0.38
-5.91 1.00 0.97
-8.97 1.52 0.36
-5.92 1.03 0.96
-8.93 1.55 0.37
-6.09 1.09 0.93
-4.90 -1.65 0.70
-4.90 -1.63 0.70
-5.06 -1.65 0.67
-4.92 -1.60 0.70
-5.05 -1.61 0.67
-5.00 -1.58 0.68
-4.95 -1.55 0.69
-4.87 -1.52 0.71
-4.89 -1.50 0.71
-4.88 -1.48 0.71
-4.73 -1.43 0.74
-4.60 -1.39 0.77
-4.51 -1.36 0.78
-4.55 -1.35 0.78
-4.41 -1.30 0.80
-4.23 -1.25 0.84
-4.21 -1.23 0.84
-4.45 -1.26 0.80
-4.43 -1.24 0.80
-4.06 -1.16 0.87
-4.00 -1.13 0.89
-4.23 -1.15 0.84
-4.28 -1.14 0.83
-4.10 -1.10 0.87
-4.13 -1.09 0.86
-3.90 -1.04 0.91
-4.08 -1.05 0.87
-3.88 -1.00 0.91
-3.91 -0.99 0.91
-3.69 -0.94 0.95
-3.69 -0.93 0.95
-3.62 -0.90 0.96
-3.64 -0.89 0.96
-3.53 -0.86 0.98
-3.59 -0.85 0.97
-3.45 -0.82 1.00
-3.52 -0.81 0.98
-3.54 -0.80 0.98
-3.62 -0.79 0.96
-3.45 -0.76 1.00
-3.57 -0.76 0.97
-3.34 -0.72 1.02
-3.45 -0.71 1.00
-3.32 -0.69 1.02
-3.32 -0.67 1.02
-3.34 -0.66 1.02
-3.39 -0.65 1.01
-3.49 -0.65 0.99
-3.25 -0.61 1.04
-3.46 -0.61 1.00
-3.07 -0.56 1.07
-3.35 -0.57 1.02
-3.05 -0.53 1.08
-3.01 -0.51 1.08
-3.05 -0.50 1.07
-3.15 -0.50 1.06
-2.98 -0.47 1.09
-3.11 -0.47 1.06
-2.99 -0.45 1.09
-2.81 -0.42 1.12
-2.61 -0.39 1.16
-3.32 -0.43 1.02
-3.16 -0.40 1.05
-5.74 -0.56 0.56
-3.20 -0.38 1.05
-2.87 -0.34 1.11
-2.97 -0.34 1.09
-3.32 -0.34 1.02
-3.61 -0.34 0.97
-3.58 -0.33 0.97
-3.31 -0.30 1.02
-3.01 -0.27 1.08
-3.38 -0.27 1.01
-4.11 -0.29 0.87
-3.94 -0.27 0.90
-2.46 -0.20 1.19
-8.81 -0.29 0.43
-7.56 -0.23 0.68
-9.28 -0.26 0.34
-7.63 -0.18 0.66
-7.43 -0.15 0.70
-7.67 -0.14 0.66
-7.56 -0.12 0.68
-7.84 -0.10 0.62
-7.62 -0.08 0.66
-7.62 -0.06 0.66
-7.59 -0.05 0.67
-7.65 -0.03 0.66
-7.83 -0.01 0.62
-7.58 0.38 0.60
-4.69 0.25 1.19
-7.30 0.40 0.66
-4.74 0.28 1.18
-4.98 0.30 1.13
-3.23 0.23 1.48
-4.54 0.35 1.22
-4.79 0.46 1.16
-8.53 1.40 0.38
-2.75 -1.04 1.08
-3.01 -1.05 1.03
-2.83 -1.01 1.07
-3.07 -1.04 1.02
-3.49 -1.10 0.94
-3.69 -1.10 0.90
-3.46 -1.05 0.94
-2.72 -0.91 1.09
-3.44 -1.02 0.95
-3.14 -0.95 1.01
-3.34 -0.97 0.97
-3.18 -0.93 1.00
-3.70 -1.00 0.90
-3.82 -1.00 0.87
-3.64 -0.96 0.91
-2.96 -0.81 1.05
-3.25 -0.84 0.99
-3.53 -0.84 0.93
-3.41 -0.81 0.96
-3.49 -0.80 0.94
-3.17 -0.73 1.01
-3.21 -0.73 1.00
-3.12 -0.70 1.02
-2.94 -0.66 1.05
-2.88 -0.65 1.06
-2.94 -0.64 1.05
-2.10 -0.53 1.22
-2.74 -0.59 1.09
-2.71 -0.57 1.10
-2.10 -0.50 1.22
-1.93 -0.47 1.26
-1.65 -0.43 1.31
-2.55 -0.51 1.13
-2.13 -0.46 1.22
-2.09 -0.44 1.23
-2.35 -0.45 1.17
-2.52 -0.46 1.14
-1.93 -0.39 1.26
-1.97 -0.39 1.25
-1.80 -0.36 1.28
-2.09 -0.37 1.22
-2.09 -0.36 1.22
-1.96 -0.34 1.25
-1.97 -0.33 1.25
-1.86 -0.31 1.27
-1.81 -0.30 1.28
-2.03 -0.30 1.24
-2.20 -0.30 1.20
-2.28 -0.29 1.19
-2.25 -0.28 1.19
-2.51 -0.28 1.14
-2.61 -0.27 1.12
-2.47 -0.26 1.15
-3.21 -0.28 1.00
-2.21 -0.22 1.20
-2.10 -0.20 1.22
-2.26 -0.20 1.19
-2.21 -0.18 1.20
-2.02 -0.17 1.24
-2.05 -0.16 1.23
-2.12 -0.15 1.22
-1.98 -0.13 1.25
-1.88 -0.12 1.27
-2.05 -0.11 1.23
-2.09 -0.10 1.22
-2.41 -0.08 1.16
-2.02 -0.07 1.24
-6.01 -0.10 0.43
-2.15 -0.05 1.21
-2.08 -0.03 1.22
-2.29 -0.02 1.18
-1.79 -0.01 1.28
-5.02 0.03 1.07
-5.17 0.05 1.04
-5.05 0.06 1.07
-5.23 0.07 1.03
-5.06 0.08 1.06
-5.06 0.10 1.06
-5.28 0.11 1.02
-5.00 0.12 1.08
-4.85 0.13 1.11
-4.93 0.14 1.09
-4.93 0.15 1.09
-5.01 0.17 1.07
-5.12 0.19 1.05
-5.02 0.19 1.07
-5.05 0.21 1.06
-5.09 0.22 1.05
-4.96 0.23 1.08
-4.96 0.24 1.08
-5.12 0.26 1.04
-5.00 0.27 1.07
-4.94 0.28 1.08
-5.22 0.31 1.02
-7.51 0.45 0.54
-4.95 0.34 1.08
-5.74 0.45 0.91
-6.37 0.58 0.77
-6.85 0.63 0.67
-6.66 0.65 0.71
-6.63 0.66 0.71
-7.03 0.74 0.63
-6.81 0.73 0.67
-6.08 0.69 0.83
-6.56 0.76 0.73
-6.79 0.80 0.68
-5.97 0.72 0.85
-6.11 0.78 0.82
-5.96 0.78 0.85
-5.95 0.79 0.85
-6.08 0.83 0.82
-5.80 0.80 0.88
-5.60 0.79 0.93
-6.77 1.30 0.66
-7.55 1.46 0.49
-6.84 1.34 0.64
-7.02 1.40 0.60
-7.47 1.50 0.50
-6.95 1.42 0.62
-6.48 1.34 0.72
-6.86 1.44 0.63
-6.96 1.47 0.61
-6.93 1.49 0.62
-6.82 1.48 0.64
-6.66 1.47 0.67
-6.66 1.48 0.67
-6.03 1.38 0.81
-5.95 1.38 0.82
-5.98 1.40 0.81
-3.75 1.06 1.29
-4.84 -1.68 0.57
-5.02 -1.68 0.54
-3.17 -1.25 0.93
-5.06 -1.63 0.53
-2.97 -1.18 0.98
-3.16 -1.19 0.94
-3.05 -1.15 0.96
-3.09 -1.15 0.95
-3.25 -1.15 0.92
-3.15 -1.12 0.94
-3.11 -1.09 0.95
-3.09 -1.06 0.95
-4.39 -1.29 0.68
-4.25 -1.24 0.71
-3.05 -1.00 0.96
-4.38 -1.21 0.68
-3.88 -1.11 0.79
-2.91 -0.92 0.99
-4.18 -1.11 0.72
-3.89 -1.05 0.79
-3.85 -1.01 0.80
-3.52 -0.95 0.87
-3.72 -0.96 0.82
-3.55 -0.91 0.86
-3.54 -0.89 0.86
-3.64 -0.89 0.84
-3.63 -0.86 0.84
-3.62 -0.84 0.85
-3.33 -0.79 0.91
-3.36 -0.76 0.90
-3.47 -0.76 0.88
-3.40 -0.74 0.89
-3.42 -0.71 0.89
-3.25 -0.68 0.93
-3.27 -0.67 0.92
-2.99 -0.61 0.98
-2.99 -0.59 0.98
-2.94 -0.58 0.99
-3.04 -0.56 0.97
-3.02 -0.54 0.98
-2.79 -0.51 1.02
-2.86 -0.49 1.01
-2.71 -0.46 1.04
-2.55 -0.44 1.07
-2.91 -0.44 1.00
-2.38 -0.39 1.11
-2.55 -0.39 1.07
-2.43 -0.35 1.10
-2.48 -0.34 1.09
-2.64 -0.34 1.06
-2.61 -0.32 1.06
-5.20 -0.45 0.52
-4.93 -0.27 1.09
-7.01 -0.37 0.65
-6.98 -0.35 0.66
-5.14 -0.25 1.05
-5.33 -0.24 1.01
-5.30 -0.20 1.01
-5.39 -0.19 1.00
-5.67 -0.19 0.94
-5.41 -0.17 0.99
-5.80 -0.13 0.91
-5.39 -0.11 1.00
-7.52 -0.12 0.54
-5.45 -0.06 0.98
-7.96 -0.07 0.45
-5.32 -0.03 1.01
-7.89 -0.03 0.46
-2.12 0.00 1.12
-3.66 0.02 0.78
-3.54 0.03 0.81
-5.20 0.05 0.99
-5.02 0.08 1.03
-4.89 0.09 1.05
-4.85 0.12 1.06
-4.87 0.13 1.06
-4.82 0.14 1.07
-4.84 0.15 1.06
-5.10 0.18 1.01
-4.86 0.19 1.06
-4.82 0.21 1.07
-4.56 0.21 1.12
-4.77 0.23 1.08
-4.78 0.24 1.07
-4.93 0.26 1.04
-4.68 0.27 1.10
-4.66 0.30 1.10
-4.77 0.32 1.07
-4.91 0.34 1.04
-4.55 0.32 1.12
-4.95 0.36 1.03
-5.55 0.43 0.90
-5.38 0.43 0.94
-5.26 0.44 0.96
-5.66 0.48 0.87
-6.40 0.58 0.71
-6.48 0.62 0.69
-6.56 0.65 0.67
-6.61 0.68 0.66
-6.07 0.79 0.77
-5.75 0.77 0.84
-4.51 0.62 1.12
-5.41 0.75 0.92
-4.52 0.66 1.11
-4.35 0.64 1.15
-4.65 0.70 1.08
-4.45 0.69 1.13
-4.49 0.71 1.12
-7.75 1.31 0.38
-7.22 1.25 0.50
-7.13 1.27 0.52
-7.17 1.29 0.51
-6.98 1.28 0.55
-6.91 1.28 0.56
-6.60 1.24 0.63
-6.96 1.33 0.55
-7.24 1.40 0.49
-7.12 1.41 0.51
-6.87 1.38 0.57
-6.77 1.38 0.59
-6.50 1.36 0.65
-6.57 1.39 0.63
-6.70 1.44 0.60
-6.41 1.41 0.66
-5.08 -1.67 0.45
-2.88 -1.17 0.94
-3.05 -1.19 0.91
-2.87 -1.14 0.95
-2.95 -1.14 0.93
-2.28 -0.99 1.08
-2.24 -0.97 1.09
-2.71 -1.05 0.99
-2.81 -1.06 0.96
-2.74 -1.03 0.98
-2.78 -1.03 0.97
-2.90 -1.03 0.95
-3.03 -1.05 0.92
-2.95 -1.02 0.93
-2.95 -1.00 0.93
-2.61 -0.93 1.01
-2.56 -0.91 1.02
-2.71 -0.92 0.99
-2.84 -0.93 0.96
-3.89 -1.09 0.73
-2.85 -0.91 0.96
-2.91 -0.90 0.94
-4.04 -1.07 0.69
-3.78 -1.01 0.75
-3.53 -0.96 0.81
-3.75 -0.98 0.76
-3.53 -0.93 0.81
-3.53 -0.91 0.81
-3.27 -0.86 0.87
-3.40 -0.87 0.84
-2.69 -0.75 1.00
-3.32 -0.83 0.86
-3.24 -0.80 0.87
-2.64 -0.71 1.01
-3.19 -0.77 0.89
-3.12 -0.74 0.90
-3.25 -0.75 0.87
-3.24 -0.73 0.87
-3.18 -0.71 0.89
-3.25 -0.70 0.87
-3.03 -0.66 0.92
-3.11 -0.66 0.90
-2.82 -0.61 0.97
-2.40 -0.56 1.06
-3.03 -0.61 0.92
-3.17 -0.61 0.89
-3.05 -0.58 0.92
-2.70 -0.54 1.00
-3.16 -0.57 0.89
-2.86 -0.53 0.96
-2.77 -0.50 0.98
-2.79 -0.49 0.98
-2.71 -0.47 0.99
-2.19 -0.42 1.11
-2.28 -0.41 1.09
-2.18 -0.39 1.11
-1.86 -0.36 1.18
-1.89 -0.35 1.17
-1.90 -0.34 1.17
-1.89 -0.33 1.17
-2.08 -0.33 1.13
-2.12 -0.32 1.12
-2.13 -0.31 1.12
-2.13 -0.30 1.12
-2.02 -0.28 1.15
-2.22 -0.28 1.10
-1.99 -0.26 1.15
-2.29 -0.26 1.09
-2.06 -0.24 1.14
-1.99 -0.22 1.15
-5.56 -0.37 0.37
-2.42 -0.22 1.06
-2.16 -0.20 1.11
-2.58 -0.20 1.02
-2.14 -0.17 1.12
-2.62 -0.18 1.01
-4.04 -0.21 0.70
-2.99 -0.16 0.93
-3.07 -0.15 0.91
-2.72 -0.13 0.99
-3.64 -0.13 0.79
-3.00 -0.11 0.93
-2.93 -0.09 0.94
-2.66 -0.08 1.00
-5.14 0.11 0.94
-4.70 0.21 1.04
-4.99 0.25 0.97
-5.27 0.40 0.91
-5.99 0.47 0.74
-5.35 0.45 0.88
-6.33 0.65 0.65
-7.39 0.99 0.39
-6.90 1.16 0.50
-6.80 1.16 0.52
-7.21 1.28 0.42
-6.97 1.33 0.47
-6.82 1.32 0.51
-4.75 -1.36 0.45
-3.01 -1.03 0.86
-2.77 -0.97 0.92
-4.47 -1.26 0.52
-4.31 -1.22 0.56
-4.36 -1.21 0.55
-2.75 -0.92 0.92
-4.18 -1.14 0.59
-4.11 -1.12 0.61
-4.02 -1.08 0.63
-3.90 -1.05 0.66
-4.34 -1.10 0.56
-3.80 -1.00 0.68
-3.75 -0.98 0.69
-3.55 -0.93 0.74
-3.76 -0.95 0.69
-3.72 -0.93 0.70
-3.66 -0.91 0.71
-3.47 -0.86 0.76
-3.67 -0.88 0.71
-3.83 -0.88 0.68
-3.59 -0.83 0.73
-4.02 -0.88 0.63
-3.41 -0.78 0.77
-3.56 -0.79 0.74
-3.64 -0.78 0.72
-3.41 -0.74 0.78
-3.28 -0.71 0.81
-3.37 -0.70 0.78
-3.13 -0.66 0.84
-3.13 -0.65 0.84
-3.21 -0.64 0.82
-3.35 -0.64 0.79
-3.42 -0.64 0.77
-3.58 -0.64 0.74
-3.55 -0.62 0.74
-3.25 -0.58 0.81
-3.02 -0.54 0.87
-2.88 -0.51 0.90
-2.65 -0.48 0.95
-2.53 -0.45 0.98
-2.42 -0.39 1.00
-2.34 -0.37 1.02
-2.08 -0.34 1.08
-7.35 -0.10 0.43
-7.02 -0.08 0.51
-7.47 -0.06 0.41
-4.02 0.72 0.25
-3.93 0.51 0.23
-1.82 0.26 0.41
-3.49 0.06 0.24
-2.87 0.17 0.30
-3.26 0.85 0.25
-3.30 0.89 0.22
-1.83 0.29 0.39
-2.98 0.89 0.21
-2.63 0.15 0.23
-2.74 0.21 0.21
-2.62 0.19 0.21
-2.44 0.25 0.23
-2.41 0.17 0.21
-2.43 0.28 0.20
-1.29 -1.07 0.25
-0.88 -0.16 0.21
-1.12 -0.10 0.29
-15.84 0.71 1.64
-15.98 0.79 1.63
-13.26 0.50 1.03
-13.56 0.75 1.01
-13.72 0.48 1.07
-13.89 0.66 1.06
-14.20 1.36 0.96
-9.80 -1.00 1.15
-5.83 -0.38 1.48
-5.62 -0.31 1.49
-11.79 -0.47 0.98
-11.61 -0.43 1.00
-13.45 0.34 0.94
-13.27 0.53 0.95
-15.35 1.39 0.76
-9.58 -1.19 1.09
-9.90 -1.19 1.06
-10.13 -1.18 1.04
-9.29 -0.93 1.11
-5.62 -0.55 1.44
-5.46 -0.50 1.46
-5.54 -0.48 1.45
-5.43 -0.44 1.46
-5.70 -0.43 1.43
-5.37 -0.32 1.46
-5.57 -0.31 1.45
-5.47 -0.27 1.45
-11.27 -0.42 0.94
-11.56 -0.36 0.91
-12.98 0.12 0.70
-14.15 0.53 0.80
-15.72 1.16 0.64
-15.25 1.20 0.68
-15.41 1.25 0.67
-15.10 1.26 0.70
-15.03 1.29 0.70
-15.19 1.41 0.69
-14.75 1.48 0.73
-9.77 -1.23 1.00
-9.80 -1.15 1.00
-5.80 -0.48 1.38
-9.02 -0.52 1.07
-8.90 -0.46 1.08
-5.52 -0.29 1.41
-11.34 -0.46 0.85
-11.45 -0.43 0.84
-11.66 -0.37 0.82
-13.90 0.62 0.73
-14.07 0.66 0.71
-15.75 0.89 0.54
-15.31 1.09 0.58
-15.09 1.11 0.60
-15.11 1.19 0.60
-14.91 1.32 0.62
-14.84 1.38 0.62
-9.57 -1.22 0.94
-9.91 -1.22 0.91
-9.79 -1.18 0.92
-9.60 -1.10 0.94
-5.61 -0.69 1.34
-5.76 -0.68 1.33
-11.85 -1.13 0.71
-11.97 -1.11 0.70
-5.34 -0.55 1.37
-11.54 -0.94 0.74
-5.71 -0.52 1.33
-5.92 -0.47 1.31
-12.15 -0.42 0.91
-15.32 -0.50 0.59
-12.38 -0.37 0.89
-12.21 -0.34 0.91
-12.30 -0.31 0.90
-12.59 0.37 0.54
-14.63 1.01 0.55
-15.03 1.51 0.50
-11.21 -0.78 0.69
-11.58 -0.63 0.65
-11.06 -0.25 0.70
-13.32 0.05 0.61
-13.22 0.08 0.62
-13.08 0.11 0.64
-13.60 0.41 0.58
-14.19 0.60 0.51
-15.26 0.68 0.38
-14.59 0.69 0.46
-13.51 0.70 0.58
-15.84 0.94 0.31
-15.75 0.97 0.32
-15.98 1.02 0.29
-15.76 1.05 0.32
-14.17 0.98 0.50
-15.90 1.13 0.30
-14.81 1.20 0.43
-15.89 1.32 0.30
-9.51 -1.39 0.78
-6.55 -0.94 1.12
-8.83 -1.06 0.86
-11.72 -1.16 0.53
-11.70 -1.09 0.53
-6.85 -0.70 1.09
-11.73 -0.95 0.53
-11.69 -0.88 0.54
-11.85 -0.86 0.52
-11.51 -0.80 0.56
-11.12 -0.44 0.87
-11.74 -0.18 0.79
-11.50 -0.15 0.82
-12.27 -0.13 0.73
-13.53 0.44 0.49
-13.50 0.57 0.50
-15.15 0.82 0.29
-15.21 1.60 0.27
-6.20 -0.99 1.10
-6.61 -0.97 1.05
-9.00 -1.13 0.76
-9.04 -1.08 0.76
-8.98 -1.02 0.77
-6.87 -0.72 1.02
-6.93 -0.70 1.02
-6.96 -0.68 1.01
-5.49 -0.56 1.19
-11.83 -0.96 0.42
-11.47 -0.90 0.47
-11.98 -0.90 0.40
-11.75 -0.85 0.43
-11.66 -0.81 0.44
-8.85 -0.62 0.78
-8.89 -0.60 0.78
-11.77 -0.71 0.43
-9.11 -0.55 0.75
-12.12 -0.66 0.39
-11.94 -0.58 0.41
-11.80 -0.51 0.43
-11.56 -0.43 0.46
-11.54 -0.40 0.46
-11.86 -0.37 0.42
-10.98 -0.32 0.53
-11.09 -0.29 0.51
-11.00 -0.22 0.52
-10.67 -0.15 0.56
-11.28 -0.12 0.49
-10.96 -0.06 0.53
-11.37 0.01 0.68
-11.48 0.04 0.66
-11.34 0.07 0.68
-11.04 0.23 0.72
-10.98 0.25 0.73
-11.12 0.31 0.71
-10.98 0.33 0.72
-13.73 0.45 0.37
-13.68 0.48 0.37
-13.54 0.51 0.39
-13.97 0.56 0.33
-9.24 -1.41 0.65
-6.11 -1.00 1.05
-6.21 -0.88 1.04
-6.22 -0.86 1.04
-5.97 -0.82 1.07
-6.16 -0.82 1.04
-5.93 -0.75 1.07
-5.95 -0.74 1.07
-6.84 -0.77 0.96
-8.04 -0.81 0.80
-11.54 -0.97 0.35
-11.62 -0.94 0.34
-11.60 -0.87 0.35
-11.62 -0.84 0.34
-12.05 -0.83 0.29
-11.72 -0.71 0.33
-11.92 -0.69 0.31
-11.78 -0.61 0.32
-11.76 -0.54 0.33
-12.06 -0.52 0.29
-6.78 -0.22 0.97
-7.06 -0.20 0.93
-6.89 -0.18 0.95
-12.02 -0.16 0.59
-10.50 0.04 0.39
-9.88 0.07 0.48
-10.47 0.10 0.40
-10.69 0.13 0.37
-10.25 0.16 0.43
-10.90 0.20 0.34
-10.84 0.30 0.35
-10.38 0.32 0.41
-13.16 0.40 0.34
-10.89 0.36 0.66
-10.74 0.38 0.68
-10.95 0.41 0.65
-10.84 0.43 0.66
-10.85 0.46 0.66
-11.14 1.62 0.60
-6.27 -0.93 0.97
-6.20 -0.90 0.98
-6.03 -0.87 1.00
-8.05 -0.99 0.72
-6.14 -0.73 0.99
-6.96 -0.77 0.87
-8.59 -0.74 0.65
-8.65 -0.42 0.65
-8.70 -0.40 0.64
-9.14 -0.39 0.58
-6.61 -0.26 0.92
-6.61 -0.24 0.92
-6.59 -0.22 0.92
-10.24 -0.27 0.43
-10.05 -0.23 0.45
-10.61 -0.21 0.38
-11.12 -0.19 0.31
-11.03 -0.15 0.32
-10.95 -0.12 0.33
-12.01 0.04 0.41
-11.91 0.07 0.43
-11.95 0.10 0.42
-11.83 0.13 0.44
-11.59 0.15 0.47
-11.52 0.18 0.48
-11.53 0.21 0.48
-11.98 0.25 0.42
-11.25 0.26 0.52
-10.95 0.28 0.56
-8.23 0.23 0.96
-10.96 0.33 0.56
-10.65 0.35 0.61
-10.80 0.38 0.58
-11.12 0.42 0.54
-10.62 0.43 0.61
-12.59 0.90 0.32
-12.43 0.92 0.34
-12.39 0.95 0.35
-12.64 1.00 0.31
-12.27 1.03 0.36
-12.60 1.39 0.31
-10.54 1.22 0.61
-10.45 1.26 0.62
-10.31 1.32 0.64
-9.23 -1.47 0.47
-5.89 -0.81 0.95
-5.93 -0.80 0.94
-8.41 -1.00 0.59
-7.76 -0.84 0.68
-8.54 -0.74 0.57
-11.88 -0.38 0.43
-11.28 -0.09 0.52
-11.75 -0.07 0.45
-11.55 -0.04 0.48
-9.66 0.24 0.32
-11.31 0.04 0.33
-11.14 0.07 0.36
-11.00 0.09 0.38
-11.27 0.12 0.34
-11.34 0.34 0.33
-9.95 0.89 0.54
-6.23 -1.08 0.76
-6.20 -0.95 0.77
-5.50 -0.76 0.88
-5.82 -0.75 0.83
-5.61 -0.71 0.86
-5.84 -0.71 0.83
-7.80 -0.82 0.51
-4.80 -0.57 0.99
-4.46 -0.53 1.04
-6.64 -0.66 0.70
-8.64 -0.67 0.38
-11.32 -0.45 0.33
-11.04 -0.41 0.38
-11.41 -0.40 0.32
-11.23 -0.37 0.35
-11.32 -0.34 0.33
-11.11 -0.31 0.37
-10.89 -0.09 0.40
-10.80 -0.06 0.42
-10.60 -0.04 0.45
-10.41 -0.01 0.48
-10.70 0.09 0.35
-9.30 0.44 0.58
-8.45 0.42 0.72
-9.34 0.60 0.57
-9.52 0.64 0.54
-9.44 0.65 0.55
-9.40 0.67 0.56
-7.86 0.59 0.82
-9.39 0.72 0.56
-9.50 0.75 0.54
-9.49 0.77 0.54
-9.53 0.80 0.53
-9.51 0.82 0.54
-9.55 0.87 0.53
-9.20 0.86 0.59
-9.80 0.94 0.48
-9.73 0.96 0.50
-9.62 0.97 0.51
-9.63 1.00 0.51
-9.82 1.04 0.48
-9.95 1.13 0.45
-10.50 1.21 0.36
-10.01 1.21 0.44
-10.02 1.29 0.44
-10.59 1.43 0.34
-10.69 1.47 0.32
-7.64 -1.25 0.46
-6.29 -1.06 0.68
-6.27 -1.04 0.68
-6.17 -1.01 0.70
-6.22 -0.99 0.69
-5.73 -0.82 0.78
-5.29 -0.75 0.85
-8.02 -0.99 0.39
-5.77 -0.76 0.77
-5.78 -0.74 0.77
-5.64 -0.71 0.79
-4.75 -0.62 0.94
-7.91 -0.85 0.41
-6.28 -0.64 0.69
-6.76 -0.60 0.61
-6.60 -0.52 0.63
-8.50 -0.53 0.32
-4.25 -0.31 1.02
-8.59 -0.48 0.30
-4.29 -0.28 1.02
-4.22 -0.26 1.03
-4.48 -0.25 0.99
-6.69 -0.31 0.62
-6.57 -0.28 0.64
-6.70 -0.26 0.62
-6.48 -0.24 0.65
-6.43 -0.19 0.66
-8.22 -0.18 0.36
-7.99 0.38 0.73
-8.00 0.40 0.73
-7.80 0.41 0.76
-9.61 0.53 0.44
-9.74 0.56 0.42
-9.59 0.57 0.44
-7.77 0.49 0.77
-7.59 0.51 0.80
-9.26 0.64 0.50
-9.46 0.68 0.47
-9.46 0.70 0.47
-9.19 0.71 0.51
-7.86 0.63 0.75
-9.36 0.79 0.48
-9.41 0.82 0.47
-9.31 0.83 0.49
-9.34 0.99 0.48
-9.18 1.00 0.51
-9.23 1.03 0.50
-9.56 1.13 0.44
-9.72 1.18 0.41
-9.69 1.20 0.41
-9.89 1.25 0.38
-10.02 1.29 0.35
-9.99 1.31 0.36
-10.24 1.36 0.31
-9.56 1.47 0.43
-9.59 1.52 0.42
-9.54 1.58 0.43
-5.77 -1.02 0.70
-6.03 -1.03 0.65
-6.04 -1.01 0.65
-5.91 -0.98 0.67
-6.10 -0.98 0.64
-6.04 -0.95 0.65
-5.93 -0.90 0.67
-5.89 -0.87 0.68
-6.24 -0.36 0.62
-6.43 -0.34 0.58
-4.41 -0.23 0.94
-4.33 -0.21 0.95
-4.40 -0.20 0.94
-4.42 -0.18 0.94
-6.31 -0.21 0.61
-3.95 -0.12 1.02
-6.10 0.13 0.56
-6.39 0.15 0.51
-7.98 0.28 0.66
-7.51 0.28 0.75
-7.60 0.31 0.73
-7.63 0.33 0.73
-8.09 0.36 0.64
-7.54 0.36 0.74
-7.58 0.38 0.74
-7.41 0.39 0.77
-7.38 0.41 0.77
-7.54 0.43 0.74
-7.52 0.45 0.74
-7.58 0.47 0.73
-7.55 0.49 0.74
-7.75 0.52 0.70
-7.70 0.54 0.71
-8.23 0.59 0.61
-8.94 0.66 0.48
-7.73 0.60 0.70
-9.34 0.74 0.40
-7.50 0.62 0.75
-9.26 0.78 0.42
-9.16 0.79 0.44
-9.31 0.83 0.41
-9.28 0.96 0.41
-9.20 0.98 0.42
-9.25 1.00 0.41
-9.40 1.07 0.38
-9.59 1.16 0.34
-9.61 1.18 0.34
-9.39 1.39 0.37
-6.88 -1.41 0.42
-7.01 -1.40 0.39
-6.32 -1.28 0.52
-6.74 -1.32 0.44
-6.61 -1.26 0.47
-6.54 -1.20 0.48
-5.94 -1.10 0.59
-6.19 -1.09 0.55
-6.03 -1.05 0.58
-6.08 -1.04 0.57
-5.83 -0.99 0.61
-5.82 -0.97 0.61
-5.86 -0.95 0.61
-6.06 -0.95 0.57
-6.00 -0.92 0.58
-5.66 -0.83 0.65
-5.19 -0.73 0.73
-5.54 -0.74 0.67
-5.46 -0.71 0.68
-5.17 -0.67 0.74
-5.13 -0.61 0.74
-5.83 -0.36 0.62
-6.29 -0.34 0.53
-4.82 -0.26 0.80
-6.25 -0.29 0.54
-6.30 -0.25 0.53
-6.50 -0.21 0.49
-4.16 -0.14 0.92
-4.07 -0.13 0.94
-6.65 -0.15 0.46
-7.44 -0.12 0.32
-7.21 -0.09 0.36
-7.53 0.07 0.68
-8.67 0.14 0.46
-8.24 0.21 0.54
-8.82 0.27 0.43
-7.57 0.27 0.67
-7.62 0.29 0.66
-7.69 0.31 0.65
-7.56 0.32 0.67
-7.58 0.34 0.67
-7.62 0.36 0.66
-7.59 0.40 0.66
-7.42 0.41 0.70
-7.36 0.42 0.71
-8.79 0.55 0.43
-8.56 0.60 0.47
-8.65 0.62 0.45
-8.84 0.66 0.42
-9.07 0.72 0.37
-9.10 0.74 0.36
-8.84 0.77 0.41
-8.84 0.81 0.41
-8.92 0.84 0.40
-9.09 0.88 0.36
-9.06 0.92 0.37
-9.02 0.96 0.37
-9.08 1.01 0.36
-8.87 1.48 0.38
-6.57 -1.37 0.39
-6.24 -1.29 0.45
-6.35 -1.29 0.43
-6.31 -1.24 0.44
-6.00 -1.18 0.50
-6.41 -1.21 0.42
-6.45 -1.19 0.42
-6.25 -1.12 0.45
-6.10 -1.08 0.48
-6.09 -1.06 0.49
-6.11 -1.04 0.48
-5.99 -1.01 0.51
-5.93 -0.98 0.52
-5.81 -0.91 0.54
-5.93 -0.90 0.52
-5.84 -0.87 0.54
-5.81 -0.85 0.54
-5.92 -0.84 0.52
-5.68 -0.79 0.57
-5.54 -0.76 0.59
-5.86 -0.77 0.53
-5.95 -0.76 0.52
-5.23 -0.67 0.66
-5.81 -0.70 0.54
-5.47 -0.66 0.61
-5.42 -0.63 0.62
-5.55 -0.62 0.59
-5.21 -0.58 0.66
-5.15 -0.56 0.67
-5.47 -0.56 0.61
-5.54 -0.53 0.60
-5.82 -0.52 0.54
-5.87 -0.51 0.53
-5.70 -0.48 0.57
-6.06 -0.45 0.50
-6.07 -0.43 0.49
-6.13 -0.37 0.48
-5.98 -0.35 0.51
-6.22 -0.34 0.47
-7.90 0.41 0.54
-7.34 0.44 0.65
-5.69 -0.69 0.50
-5.56 -0.64 0.53
-6.04 -0.31 0.43
-6.16 -0.25 0.41
-6.30 -0.21 0.38
-6.34 -0.15 0.37
-6.46 -0.06 0.34
-7.55 0.05 0.53
-7.32 0.06 0.58
-7.38 0.08 0.57
-7.89 0.11 0.46
-8.20 0.23 0.40
-8.22 0.25 0.39
-8.23 0.27 0.39
-8.03 0.28 0.43
-7.68 0.29 0.50
-7.64 0.31 0.51
-7.59 0.33 0.52
-7.34 0.33 0.57
-7.27 0.35 0.59
-7.43 0.37 0.55
-7.31 0.39 0.58
-7.63 0.42 0.51
-7.79 0.45 0.48
-5.00 -1.64 0.54
-4.92 -1.58 0.56
-5.75 -1.06 0.40
-5.45 -0.93 0.46
-5.78 -0.86 0.39
-5.62 -0.79 0.43
-5.77 -0.78 0.40
-5.52 -0.72 0.45
-5.70 -0.72 0.41
-5.53 -0.68 0.45
-5.46 -0.64 0.46
-5.61 -0.63 0.43
-5.67 -0.61 0.42
-5.47 -0.56 0.46
-5.62 -0.55 0.43
-5.59 -0.53 0.44
-5.41 -0.48 0.47
-6.97 -0.33 0.66
-7.54 -0.23 0.54
-7.21 -0.04 0.61
-7.27 0.06 0.52
-7.52 0.12 0.47
-7.57 0.14 0.46
-7.77 0.24 0.41
-7.64 0.36 0.44
-7.62 0.38 0.44
-7.73 0.41 0.42
-4.80 -1.46 0.52
-5.50 -0.78 0.38
-5.40 -0.73 0.40
-5.29 -0.70 0.42
-5.52 -0.68 0.37
-5.41 -0.63 0.40
-5.38 -0.61 0.40
-5.43 -0.59 0.39
-5.34 -0.57 0.41
-5.43 -0.56 0.40
-5.46 -0.54 0.39
-5.30 -0.51 0.42
-5.29 -0.49 0.43
-5.43 -0.48 0.40
-5.41 -0.46 0.40
-5.47 -0.42 0.39
-5.14 -0.39 0.46
-5.49 -0.39 0.38
-4.47 -0.30 0.60
-5.37 -0.32 0.41
-5.52 -0.31 0.38
-4.61 -1.30 0.49
