# .PCD v0.7 - Point Cloud Data file format
VERSION 0.7
FIELDS x y z
SIZE 4 4 4
TYPE F F F
COUNT 1 1 1
WIDTH 1397
HEIGHT 1
VIEWPOINT 0 0 0 1 0 0 0
POINTS 1397
DATA ASCII
-5.08593750 2.18750000 1.29882813
-5.17187500 2.24609375 1.28417969
-5.01562500 2.19531250 1.30761719
-5.00781250 2.21093750 1.30859375
-5.12500000 2.27343750 1.28906250
-5.00781250 2.23828125 1.30664063
-5.03906250 2.26953125 1.29980469
-5.16406250 2.33203125 1.28027344
-4.99609375 2.28515625 1.30468750
-5.08593750 2.33593750 1.28906250
-5.00781250 2.32031250 1.30175781
-5.10156250 2.37109375 1.28613281
-5.03906250 2.36328125 1.29492188
-4.91406250 2.32812500 1.31250000
-4.96875000 2.36328125 1.30371094
-5.01953125 2.40625000 1.29492188
-4.92968750 2.38281250 1.30664063
-4.82031250 2.35156250 1.32421875
-4.98046875 2.43359375 1.29785156
-4.82812500 2.38281250 1.32031250
-4.90625000 2.43359375 1.30664063
-4.89843750 2.44921875 1.30664063
-4.91406250 2.47265625 1.30371094
-5.07031250 2.55859375 1.27734375
-5.00000000 2.53906250 1.28808594
-5.03906250 2.57031250 1.28027344
-4.92187500 2.53515625 1.29785156
-4.73437500 2.46875000 1.32812500
-4.85156250 2.53515625 1.30761719
-4.84375000 2.55078125 1.30664063
-4.78125000 2.53906250 1.31542969
-4.62500000 2.48046875 1.33984375
-4.82812500 2.59375000 1.30664063
-4.85156250 2.61718750 1.30078125
-4.76562500 2.58984375 1.31445313
-4.41015625 2.43750000 1.37011719
-4.47656250 2.48046875 1.35937500
-4.58593750 2.55468750 1.33984375
-4.39062500 2.47656250 1.37011719
-4.50781250 2.54296875 1.35058594
-4.41796875 2.51953125 1.36425781
-4.58984375 2.61718750 1.33496094
-4.63281250 2.65625000 1.32617188
-4.44531250 2.57812500 1.35546875
-4.57031250 2.65234375 1.33496094
-4.71875000 2.74609375 1.30957031
-4.41796875 2.60937500 1.35742188
-4.26171875 2.53906250 1.38183594
-4.14062500 2.48828125 1.40136719
-4.25000000 2.56640625 1.38085938
-4.14062500 2.51953125 1.39843750
-4.28515625 2.61328125 1.37304688
-4.24218750 2.60546875 1.37792969
-4.57031250 2.79687500 1.32421875
-4.31250000 2.67578125 1.36523438
-4.38281250 2.73046875 1.35253906
-4.53125000 2.82812500 1.32617188
-4.60937500 2.88671875 1.31250000
-4.64062500 2.91796875 1.30566406
-4.57031250 2.89453125 1.31640625
-4.39843750 2.81640625 1.34375000
-4.42968750 2.85156250 1.33789063
-4.46484375 2.89062500 1.33007813
-4.15234375 2.72656250 1.38085938
-4.32031250 2.84375000 1.35058594
-4.19921875 2.78906250 1.37011719
-4.22656250 2.81640625 1.36523438
-3.88671875 2.63281250 1.42089844
-3.89257813 2.64843750 1.41894531
-3.86132813 2.65234375 1.42285156
-3.77929688 2.61718750 1.43554688
-3.86718750 2.68359375 1.41894531
-3.79296875 2.65234375 1.43066406
-3.75781250 2.64843750 1.43554688
-4.10937500 2.87500000 1.37402344
-3.74023438 2.66406250 1.43554688
-3.80078125 2.71875000 1.42382813
-3.75000000 2.69921875 1.43164063
-3.98242188 2.85546875 1.39062500
-4.08203125 2.93359375 1.37207031
-3.52539063 2.60156250 1.46679688
-3.38476563 2.52734375 1.49023438
-3.21875000 2.43750000 1.51660156
-3.13671875 2.39843750 1.53027344
-3.36328125 2.55859375 1.49023438
-3.35351563 2.56250000 1.49023438
-3.21093750 2.48437500 1.51464844
-3.41796875 2.63281250 1.47656250
-3.56054688 2.74218750 1.45117188
-4.07812500 3.10156250 1.35839844
-3.61914063 2.80859375 1.43750000
-4.21484375 3.21875000 1.33203125
-3.99023438 3.08593750 1.37011719
-3.78125000 2.95703125 1.40527344
-3.65429688 2.89062500 1.42675781
-3.46289063 2.77734375 1.45898438
-3.39257813 2.74609375 1.46972656
-3.50390625 2.83984375 1.44921875
-4.13281250 3.28515625 1.33496094
-4.06640625 3.25390625 1.34667969
-3.96093750 3.19531250 1.36425781
-3.79296875 3.09765625 1.39160156
-3.88281250 3.17578125 1.37500000
-4.08593750 3.33593750 1.33691406
-4.14843750 3.39843750 1.32421875
-3.68750000 3.08984375 1.40429688
-3.71484375 3.12500000 1.39843750
-3.93164063 3.29296875 1.35839844
-3.90234375 3.29296875 1.36230469
-3.80468750 3.24218750 1.37695313
-3.97265625 3.37890625 1.34570313
-3.91796875 3.35546875 1.35449219
-3.91015625 3.36328125 1.35449219
-3.87304688 3.35546875 1.35937500
-3.74414063 3.27343750 1.38183594
-3.82812500 3.35937500 1.36425781
-3.72460938 3.29296875 1.38085938
-3.62109375 3.23437500 1.39843750
-3.53710938 3.18359375 1.41210938
-3.59570313 3.24609375 1.40039063
-3.54882813 3.22656250 1.40722656
-3.67187500 3.33593750 1.38281250
-3.62304688 3.31640625 1.39062500
-3.57617188 3.30078125 1.39746094
-3.53710938 3.28515625 1.40332031
-3.52929688 3.29687500 1.40332031
-3.55468750 3.33203125 1.39746094
-3.50781250 3.31250000 1.40429688
-3.41992188 3.25390625 1.41894531
-3.46093750 3.30468750 1.41015625
-3.47070313 3.33593750 1.40527344
-3.37500000 3.27343750 1.42285156
-3.23632813 3.17578125 1.44726563
-3.29687500 3.23828125 1.43457031
-3.46289063 3.39062500 1.40136719
-3.25585938 3.23828125 1.43847656
-3.19921875 3.21484375 1.44726563
-3.33789063 3.33984375 1.41992188
-3.44921875 3.44921875 1.39648438
-3.48632813 3.50000000 1.38769531
-3.40625000 3.44921875 1.40136719
-3.38671875 3.44531250 1.40332031
-3.25390625 3.35156250 1.42773438
-3.44140625 3.53125000 1.38867188
-3.28515625 3.41406250 1.41796875
-3.26953125 3.41406250 1.41992188
-3.41601563 3.55859375 1.38867188
-3.23632813 3.42187500 1.42187500
-3.01171875 3.24218750 1.46484375
-3.14648438 3.37890625 1.43652344
-3.14843750 3.39453125 1.43359375
-3.25585938 3.51171875 1.41113281
-3.41015625 3.66796875 1.37890625
-2.94335938 3.26171875 1.46972656
-3.07812500 3.40234375 1.44042969
-3.01953125 3.36328125 1.45117188
-3.07031250 3.42578125 1.43847656
-3.04492188 3.42187500 1.44238281
-2.58398438 3.01562500 1.53222656
-3.07421875 3.48437500 1.43261719
-3.18164063 3.59765625 1.41015625
-3.24023438 3.66796875 1.39648438
-3.13476563 3.58593750 1.41601563
-3.22656250 3.68750000 1.39550781
-3.17578125 3.66406250 1.40332031
-2.97460938 3.49609375 1.44140625
-2.99609375 3.53125000 1.43652344
-2.91406250 3.46875000 1.45019531
-2.86914063 3.44140625 1.45800781
-2.81835938 3.41015625 1.46679688
-2.90429688 3.51562500 1.44628906
-2.77734375 3.40625000 1.47070313
-2.85546875 3.50000000 1.45312500
-3.01757813 3.67187500 1.41796875
-3.12109375 3.79687500 1.39453125
-3.08007813 3.77343750 1.40136719
-2.92578125 3.63281250 1.43164063
-3.14648438 3.87500000 1.38281250
-2.79492188 3.54296875 1.45410156
-2.88476563 3.64843750 1.43359375
-3.19726563 3.98437500 1.36718750
-2.99218750 3.79296875 1.40820313
-2.77929688 3.59375000 1.45019531
-2.98046875 3.82031250 1.40625000
-2.95898438 3.82031250 1.40722656
-2.95898438 3.83593750 1.40625000
-3.07226563 3.97656250 1.37988281
-1.80664063 -1.54296875 1.57910156
-1.60546875 -1.44531250 1.61035156
-1.97070313 -1.50390625 1.55859375
-2.02734375 -1.35546875 1.55664063
-2.69335938 -1.53125000 1.45703125
-2.38867188 -1.42578125 1.50292969
-2.33203125 -1.39453125 1.51269531
-1.69726563 -1.19140625 1.60742188
-2.23828125 -1.31250000 1.52832031
-1.70117188 -1.12500000 1.60839844
-1.83203125 -1.14843750 1.58886719
-2.08789063 -1.21093750 1.55175781
-2.04687500 -1.13671875 1.55859375
-3.33203125 -1.32031250 1.37402344
-2.76367188 -1.17187500 1.45800781
-2.22070313 -0.97656250 1.53906250
-2.68164063 -1.06250000 1.47070313
-2.63867188 -1.04296875 1.47753906
-2.49804688 -0.99218750 1.49902344
-2.91210938 -1.06640625 1.43847656
-3.54101563 -1.18359375 1.34765625
-3.39648438 -1.13671875 1.36914063
-3.60742188 -1.15625000 1.33789063
-4.75000000 -1.36328125 1.17285156
-4.25781250 -1.21875000 1.24511719
-4.78906250 -1.28906250 1.16796875
-4.37890625 -1.19531250 1.22753906
-4.53515625 -1.20703125 1.20507813
-3.98437500 -1.09375000 1.28613281
-4.22656250 -1.12109375 1.25097656
-4.14843750 -1.09375000 1.26269531
-4.12500000 -1.07812500 1.26562500
-4.03125000 -1.04296875 1.27929688
-3.83398438 -0.99609375 1.30859375
-3.94726563 -1.00000000 1.29296875
-3.80664063 -0.96093750 1.31347656
-3.97851563 -0.97265625 1.28906250
-5.00000000 -1.11718750 1.14160156
-4.82031250 -1.07421875 1.16796875
-4.64062500 -1.02734375 1.19335938
-4.60937500 -1.00781250 1.19824219
-4.72656250 -1.00781250 1.18164063
-4.96875000 -1.02343750 1.14648438
-5.01562500 -1.01171875 1.14062500
-4.67187500 -0.94921875 1.19042969
-4.91406250 -0.96875000 1.15527344
-4.54687500 -0.90234375 1.20800781
-4.66796875 -0.89843750 1.19140625
-4.62500000 -0.87890625 1.19726563
-4.88281250 -0.89843750 1.16015625
-4.75781250 -0.86328125 1.17871094
-4.79687500 -0.85156250 1.17285156
-4.82031250 -0.83593750 1.16992188
-4.93359375 -0.83593750 1.15429688
-4.95312500 -0.81640625 1.15136719
-4.76953125 -0.78125000 1.17773438
-4.78906250 -0.76562500 1.17480469
-4.96093750 -0.76562500 1.15039063
-5.25781250 -0.78125000 1.10839844
-4.89062500 -0.72656250 1.16113281
-5.04296875 -0.72265625 1.13867188
-4.85156250 -0.69140625 1.16601563
-4.83593750 -0.67187500 1.16894531
-4.99218750 -0.66406250 1.14648438
-5.09375000 -0.65625000 1.13183594
-5.21875000 -0.65234375 1.11425781
-5.32812500 -0.64453125 1.09863281
-5.31250000 -0.62500000 1.10058594
-5.50000000 -0.62109375 1.07324219
-5.57812500 -0.60937500 1.06250000
-5.71093750 -0.60156250 1.04492188
-6.05468750 -0.60546875 0.99462891
-5.75000000 -0.56640625 1.03906250
-5.74218750 -0.54687500 1.03906250
-6.32812500 -0.56640625 0.95556641
-6.35937500 -0.54687500 0.95117188
-6.47656250 -0.53515625 0.93457031
-6.64453125 -0.51953125 0.91064453
-6.75781250 -0.51171875 0.89404297
-6.37500000 -0.46484375 0.94873047
-6.33593750 -0.44531250 0.95458984
-6.26562500 -0.42187500 0.96435547
-6.14062500 -0.39453125 0.98242188
-6.17968750 -0.37890625 0.97656250
-6.22265625 -0.35937500 0.97070313
-6.03906250 -0.33203125 0.99755859
-5.87890625 -0.30468750 1.01953125
-5.96093750 -0.28515625 1.00781250
-5.71093750 -0.25781250 1.04394531
-5.61328125 -0.24218750 1.05761719
-5.55468750 -0.22265625 1.06640625
-5.30078125 -0.19531250 1.10253906
-5.13281250 -0.17187500 1.12695313
-5.00781250 -0.14843750 1.14355469
-7.91406250 -0.18750000 0.72802734
-7.87500000 -0.16406250 0.73388672
-3.35937500 -0.07812500 1.37988281
-3.31250000 -0.06250000 1.38671875
-7.16406250 -0.08593750 0.83496094
-7.32812500 -0.06250000 0.81152344
-6.85937500 -0.03906250 0.87792969
-3.89257813 -0.01171875 1.30273438
-6.94921875 0.00781250 1.05273438
-7.04296875 0.02343750 1.03906250
-4.36328125 0.02734375 1.44531250
-6.57031250 0.05859375 1.11035156
-6.67968750 0.07421875 1.09375000
-4.39843750 0.05859375 1.43945313
-4.82812500 0.08203125 1.37402344
-9.05468750 0.17187500 0.73193359
-9.20312500 0.19531250 0.70898438
-7.20312500 0.17578125 1.01171875
-4.97656250 0.13281250 1.35058594
-8.01562500 0.23046875 0.88867188
-7.74609375 0.24218750 0.92919922
-9.32812500 0.31250000 0.68798828
-9.26562500 0.33593750 0.69775391
-5.46093750 0.21875000 1.27539063
-9.57812500 0.39453125 0.64941406
-9.69531250 0.42187500 0.63183594
-9.93750000 0.46093750 0.59472656
-9.82031250 0.48046875 0.61132813
-9.87500000 0.50781250 0.60253906
-9.68750000 0.51953125 0.63037109
-5.62500000 0.32421875 1.25000000
-5.80078125 0.35156250 1.22167969
-5.96093750 0.37500000 1.19824219
-8.95312500 0.57421875 0.74121094
-8.98437500 0.59765625 0.73632813
-8.84375000 0.60546875 0.75732422
-8.48437500 0.60546875 0.81201172
-8.43750000 0.62500000 0.81884766
-6.42187500 0.50390625 1.12500000
-8.39062500 0.66796875 0.82421875
-6.21875000 0.51953125 1.15625000
-6.27343750 0.53906250 1.14746094
-8.12500000 0.70703125 0.86425781
-8.12500000 0.72656250 0.86328125
-8.03125000 0.74218750 0.87646484
-8.03125000 0.76171875 0.87646484
-7.89062500 0.76562500 0.89746094
-7.92187500 0.78906250 0.89306641
-7.94531250 0.81250000 0.88867188
-7.91015625 0.82812500 0.89404297
-7.82812500 0.84375000 0.90625000
-7.74609375 0.85937500 0.91748047
-7.63281250 0.86328125 0.93408203
-7.44921875 0.86328125 0.96240234
-7.72656250 0.91406250 0.91894531
-7.73437500 0.93359375 0.91796875
-7.85937500 0.96875000 0.89794922
-7.93750000 0.99609375 0.88525391
-7.62500000 0.98046875 0.93310547
-6.53125000 0.86718750 1.10058594
-6.36718750 0.86328125 1.12500000
-6.64843750 0.91796875 1.08105469
-6.74218750 0.94531250 1.06640625
-6.72656250 0.96093750 1.06835938
-6.61328125 0.96093750 1.08496094
-6.75781250 1.00000000 1.06250000
-6.43750000 0.97265625 1.11132813
-6.26562500 0.96484375 1.13671875
-6.20703125 0.97265625 1.14550781
-6.26171875 0.99609375 1.13671875
-6.13281250 0.99218750 1.15625000
-6.13281250 1.01171875 1.15527344
-6.29687500 1.05468750 1.12988281
-5.95703125 1.01562500 1.18164063
-5.98437500 1.03906250 1.17773438
-5.96093750 1.04687500 1.17968750
-5.78515625 1.03906250 1.20605469
-5.91406250 1.07421875 1.18554688
-5.78125000 1.07031250 1.20507813
-5.92187500 1.10937500 1.18359375
-5.88281250 1.11718750 1.18945313
-5.83593750 1.12500000 1.19628906
-5.80859375 1.13281250 1.19921875
-5.70703125 1.13281250 1.21484375
-5.66015625 1.14062500 1.22167969
-5.75781250 1.17578125 1.20605469
-5.96875000 1.23046875 1.17187500
-5.69140625 1.19140625 1.21484375
-5.68750000 1.20703125 1.21484375
-5.99218750 1.28125000 1.16699219
-6.37500000 1.37500000 1.10644531
-5.70312500 1.25781250 1.21093750
-5.83593750 1.30078125 1.18847656
-5.83593750 1.31250000 1.18847656
-5.59375000 1.28125000 1.22558594
-6.35937500 1.45703125 1.10546875
-5.76953125 1.34765625 1.19726563
-5.73046875 1.35546875 1.20214844
-5.58593750 1.33593750 1.22460938
-5.86718750 1.41796875 1.17968750
-5.68359375 1.39453125 1.20800781
-5.75000000 1.42187500 1.19726563
-6.01562500 1.50000000 1.15332031
-5.75000000 1.45312500 1.19628906
-5.61718750 1.43750000 1.21484375
-5.42968750 1.41015625 1.24316406
-5.42968750 1.42578125 1.24316406
-5.58593750 1.48046875 1.21777344
-5.49218750 1.47265625 1.23242188
-5.57031250 1.50781250 1.21972656
-5.39062500 1.47265625 1.24707031
-5.38671875 1.48828125 1.24707031
-5.33593750 1.49218750 1.25390625
-5.37500000 1.51953125 1.24707031
-5.37109375 1.53125000 1.24707031
-5.25390625 1.51171875 1.26562500
-5.17187500 1.51171875 1.27636719
-5.16015625 1.51953125 1.27832031
-5.11718750 1.52343750 1.28417969
-5.13281250 1.54687500 1.28125000
-5.08984375 1.54687500 1.28710938
-4.63281250 1.43359375 1.35839844
-4.83593750 1.50781250 1.32617188
-4.52343750 1.42578125 1.37500000
-4.62890625 1.47265625 1.35742188
-4.34375000 1.40625000 1.40234375
-4.42187500 1.44531250 1.38867188
-4.43750000 1.46093750 1.38476563
-4.58593750 1.51562500 1.36132813
-4.64062500 1.54296875 1.35253906
-4.80468750 1.60937500 1.32519531
-5.06250000 1.70312500 1.28320313
-4.75390625 1.62500000 1.33203125
-4.72656250 1.62890625 1.33496094
-4.76562500 1.65234375 1.32812500
-4.80468750 1.67968750 1.32128906
-4.79687500 1.69531250 1.32226563
-4.82421875 1.71484375 1.31640625
-5.14062500 1.82812500 1.26464844
-5.12500000 1.83984375 1.26562500
-5.31250000 1.92187500 1.23437500
-5.18750000 1.89062500 1.25390625
-5.28906250 1.94140625 1.23730469
-5.20703125 1.92968750 1.25000000
-5.15625000 1.92578125 1.25683594
-5.13671875 1.93359375 1.25976563
-5.02343750 1.91406250 1.27636719
-5.24218750 2.00781250 1.24023438
-4.87500000 1.89453125 1.29882813
-4.62500000 1.82031250 1.33886719
-5.21875000 2.04296875 1.24121094
-4.96484375 1.96484375 1.28222656
-5.03906250 2.00781250 1.26855469
-5.10937500 2.05468750 1.25585938
-4.82031250 1.96093750 1.30273438
-5.17187500 2.10937500 1.24414063
-5.27343750 2.15625000 1.22656250
-5.39453125 2.21875000 1.20605469
-5.32031250 2.20703125 1.21777344
-5.32031250 2.22656250 1.21679688
-5.50000000 2.30859375 1.18554688
-5.38671875 2.28515625 1.20312500
-5.50781250 2.34765625 1.18164063
-5.64843750 2.41406250 1.15820313
-5.39062500 2.33203125 1.19921875
-5.23437500 2.28906250 1.22460938
-5.39843750 2.37109375 1.19531250
-5.06250000 2.25000000 1.25000000
-4.95312500 2.22265625 1.26757813
-5.30078125 2.38281250 1.20898438
-5.15625000 2.33984375 1.23144531
-5.37890625 2.44531250 1.19335938
-5.27734375 2.42187500 1.20996094
-5.18359375 2.39843750 1.22363281
-4.99218750 2.33203125 1.25488281
-5.07031250 2.38671875 1.24023438
-4.81250000 2.28515625 1.28320313
-4.76171875 2.28125000 1.29003906
-4.96093750 2.38281250 1.25585938
-5.00781250 2.42187500 1.24609375
-4.92968750 2.40625000 1.25781250
-4.90625000 2.40625000 1.26171875
-4.90234375 2.42187500 1.26074219
-4.91406250 2.44140625 1.25781250
-4.89843750 2.44921875 1.25976563
-4.97656250 2.50390625 1.24511719
-4.72656250 2.40625000 1.28613281
-4.76953125 2.44531250 1.27734375
-4.97656250 2.55468750 1.24218750
-4.94531250 2.55859375 1.24511719
-5.00000000 2.59765625 1.23437500
-4.81250000 2.52343750 1.26562500
-4.95312500 2.60937500 1.24023438
-4.71093750 2.51171875 1.28027344
-4.67968750 2.51171875 1.28515625
-4.84375000 2.60546875 1.25585938
-4.28906250 2.35546875 1.34863281
-4.53125000 2.48828125 1.30664063
-4.24218750 2.36328125 1.35449219
-4.57812500 2.53906250 1.29687500
-4.21875000 2.38281250 1.35644531
-4.12500000 2.34765625 1.37109375
-4.20703125 2.40625000 1.35546875
-4.20703125 2.41796875 1.35449219
-4.08593750 2.37109375 1.37402344
-4.04687500 2.36328125 1.38085938
-4.15625000 2.43359375 1.36132813
-4.00390625 2.37500000 1.38476563
-3.96875000 2.37109375 1.39062500
-4.33984375 2.57421875 1.32519531
-4.62500000 2.73437500 1.27441406
-4.29687500 2.58593750 1.33007813
-4.32812500 2.61328125 1.32324219
-4.46093750 2.70312500 1.29882813
-4.78906250 2.89453125 1.24023438
-4.68359375 2.85156250 1.25781250
-4.44531250 2.74218750 1.29785156
-4.71484375 2.90625000 1.24902344
-4.70703125 2.91796875 1.24902344
-4.50000000 2.81640625 1.28515625
-4.81250000 3.00781250 1.22851563
-4.57031250 2.89453125 1.26855469
-4.55859375 2.90234375 1.26953125
-4.31250000 2.78125000 1.31152344
-3.40429688 2.28515625 1.47070313
-3.81445313 2.53906250 1.39648438
-2.66796875 1.90234375 1.59765625
-3.61132813 2.45703125 1.42968750
-3.80664063 2.58203125 1.39355469
-3.84375000 2.62109375 1.38574219
-3.76367188 2.58203125 1.39941406
-3.83593750 2.64062500 1.38476563
-3.83789063 2.66015625 1.38281250
-3.83984375 2.67578125 1.38085938
-3.95312500 2.76171875 1.36035156
-3.94140625 2.76562500 1.36035156
-3.79492188 2.69140625 1.38574219
-4.12109375 2.90625000 1.32617188
-4.09765625 2.92187500 1.32812500
-3.82421875 2.76953125 1.37500000
-3.56445313 2.62109375 1.42089844
-3.82617188 2.80078125 1.37207031
-3.66796875 2.71484375 1.39941406
-3.34570313 2.53125000 1.45605469
-3.36132813 2.55078125 1.45312500
-3.54101563 2.68359375 1.41796875
-3.52343750 2.68359375 1.42089844
-3.41601563 2.62890625 1.43847656
-3.48437500 2.68750000 1.42480469
-3.40039063 2.66406250 1.43750000
-3.58984375 2.79687500 1.40234375
-3.49804688 2.75390625 1.41699219
-4.28906250 3.29687500 1.26953125
-3.65820313 2.89062500 1.38476563
-3.43945313 2.76953125 1.42285156
-3.60546875 2.89843750 1.39062500
-3.15625000 2.60937500 1.47265625
-3.87500000 3.12109375 1.33691406
-3.81250000 3.08984375 1.34765625
-3.76171875 3.07421875 1.35546875
-3.59765625 2.97265625 1.38378906
-3.88476563 3.20312500 1.32812500
-3.69140625 3.08593750 1.36230469
-4.17968750 3.44531250 1.26953125
-3.89062500 3.26171875 1.32128906
-3.94531250 3.31640625 1.30859375
-4.02343750 3.40234375 1.29199219
-3.89257813 3.35156250 1.31250000
-3.81445313 3.31250000 1.32617188
-3.80664063 3.32031250 1.32617188
-3.85156250 3.36718750 1.31640625
-3.84179688 3.37890625 1.31640625
-3.80664063 3.36718750 1.32128906
-3.76171875 3.35156250 1.32812500
-3.72656250 3.34765625 1.33300781
-3.71289063 3.35156250 1.33398438
-3.60546875 3.28515625 1.35351563
-3.66210938 3.34375000 1.34082031
-3.62109375 3.32812500 1.34667969
-3.65820313 3.37500000 1.33789063
-3.64453125 3.40234375 1.33691406
-3.57226563 3.36328125 1.34960938
-3.55468750 3.36328125 1.35156250
-3.49804688 3.35156250 1.35937500
-3.41015625 3.29296875 1.37500000
-3.33789063 3.25390625 1.38671875
-3.30468750 3.25781250 1.39062500
-3.54687500 3.48046875 1.33984375
-3.38476563 3.35546875 1.37109375
-3.31250000 3.32812500 1.38183594
-3.34179688 3.36718750 1.37500000
-3.39648438 3.43750000 1.36132813
-3.30468750 3.39062500 1.37695313
-3.13671875 3.28125000 1.40722656
-3.26562500 3.41015625 1.37890625
-3.29687500 3.46093750 1.37011719
-3.22851563 3.41406250 1.38281250
-3.10937500 3.32812500 1.40527344
-2.95507813 3.20703125 1.43554688
-3.00585938 3.26953125 1.42285156
-3.29687500 3.53906250 1.36230469
-3.26171875 3.52734375 1.36718750
-3.17187500 3.46484375 1.38378906
-3.00000000 3.32812500 1.41699219
-3.11523438 3.44531250 1.39160156
-2.99218750 3.35156250 1.41503906
-2.86523438 3.25781250 1.43945313
-3.10156250 3.48437500 1.38867188
-2.97460938 3.41015625 1.41113281
-3.24609375 3.67578125 1.35253906
-3.09765625 3.55468750 1.38183594
-2.85351563 3.34375000 1.43164063
-3.07226563 3.56640625 1.38281250
-3.07226563 3.58203125 1.38183594
-2.95898438 3.48828125 1.40332031
-3.07226563 3.62109375 1.37792969
-2.94726563 3.51562500 1.40234375
-2.90625000 3.49218750 1.41015625
-2.84765625 3.45312500 1.42089844
-2.72265625 3.35156250 1.44531250
-2.74023438 3.38281250 1.44042969
-2.74023438 3.39453125 1.43847656
-2.64062500 3.32031250 1.45703125
-2.82226563 3.51562500 1.41601563
-2.91992188 3.62890625 1.39257813
-2.88085938 3.60937500 1.39843750
-3.08398438 3.83593750 1.35253906
-2.86328125 3.62500000 1.39843750
-2.94335938 3.72656250 1.37890625
-2.92187500 3.72656250 1.38085938
-2.92382813 3.74218750 1.37890625
-3.05273438 3.89453125 1.34863281
-2.94335938 3.80468750 1.37011719
-3.34179688 4.23046875 1.28027344
-2.91406250 3.80468750 1.37304688
-2.97851563 3.89843750 1.35546875
-2.59570313 3.51171875 1.43945313
-1.89257813 -1.78125000 1.52148438
-2.46484375 -1.94140625 1.43164063
-1.95117188 -1.65234375 1.51953125
-1.94921875 -1.61718750 1.52148438
-1.89648438 -1.58203125 1.52929688
-1.65625000 -1.47656250 1.56933594
-2.23437500 -1.56640625 1.48144531
-1.97656250 -1.46484375 1.52343750
-1.84375000 -1.40625000 1.54492188
-2.52734375 -1.60546875 1.43847656
-1.74218750 -1.32812500 1.56347656
-1.94140625 -1.35546875 1.53222656
-2.45312500 -1.50000000 1.45312500
-2.03906250 -1.35546875 1.51855469
-2.46289063 -1.47265625 1.45214844
-2.15820313 -1.35937500 1.50097656
-1.93554688 -1.27734375 1.53613281
-1.98828125 -1.27343750 1.52929688
-2.58789063 -1.41796875 1.43554688
-3.08789063 -1.54296875 1.35839844
-2.33203125 -1.28515625 1.47753906
-2.21679688 -1.24218750 1.49609375
-1.88671875 -1.13671875 1.54785156
-2.20507813 -1.18359375 1.50000000
-2.02148438 -1.12500000 1.52734375
-2.85742188 -1.20703125 1.40234375
-3.06445313 -1.24609375 1.37109375
-2.80859375 -1.17187500 1.41015625
-3.10937500 -1.22656250 1.36328125
-2.87500000 -1.16406250 1.40039063
-2.53710938 -1.03906250 1.45312500
-3.24609375 -1.17968750 1.34570313
-2.70898438 -1.05078125 1.42675781
-3.71093750 -1.23828125 1.27441406
-2.63281250 -1.00000000 1.44042969
-3.03515625 -1.07031250 1.37890625
-3.97070313 -1.24609375 1.23535156
-5.42968750 -1.48437500 1.01269531
-2.83398438 -0.95703125 1.41113281
-2.40234375 -0.83593750 1.47753906
-4.69921875 -1.23828125 1.12695313
-4.71875000 -1.22656250 1.12402344
-4.62890625 -1.19531250 1.13769531
-4.12500000 -1.07812500 1.21582031
-4.06250000 -1.05078125 1.22558594
-2.34179688 -0.75000000 1.48730469
-4.85937500 -1.13281250 1.10449219
-5.00781250 -1.13671875 1.08300781
-5.28125000 -1.16406250 1.04199219
-5.07031250 -1.11328125 1.07324219
-5.03125000 -1.08984375 1.08007813
-4.81640625 -1.03906250 1.11230469
-4.75781250 -1.01562500 1.12109375
-4.90234375 -1.01953125 1.09960938
-4.89453125 -1.00000000 1.10156250
-5.23437500 -1.03125000 1.04980469
-5.21484375 -1.01171875 1.05371094
-4.99609375 -0.96484375 1.08691406
-4.85937500 -0.92968750 1.10742188
-4.91406250 -0.91796875 1.09863281
-4.82812500 -0.89062500 1.11230469
-4.89062500 -0.87890625 1.10351563
-4.92968750 -0.86718750 1.09765625
-5.05078125 -0.86718750 1.07910156
-5.02343750 -0.84375000 1.08398438
-5.01562500 -0.82812500 1.08398438
-4.98437500 -0.80468750 1.08984375
-4.92187500 -0.78125000 1.09960938
-4.90234375 -0.76562500 1.10253906
-5.01562500 -0.75781250 1.08496094
-4.90625000 -0.72656250 1.10253906
-5.00781250 -0.72265625 1.08691406
-4.96093750 -0.69921875 1.09472656
-5.06640625 -0.69140625 1.07812500
-5.33593750 -0.70312500 1.03808594
-5.17578125 -0.66796875 1.06250000
-5.16406250 -0.65234375 1.06347656
-5.08984375 -0.62890625 1.07519531
-5.21875000 -0.61718750 1.05566406
-5.63281250 -0.62890625 0.99316406
-7.50000000 -0.76171875 0.71044922
-6.49218750 -0.66015625 0.86425781
-5.76953125 -0.58593750 0.97314453
-7.25000000 -0.67187500 0.75000000
-5.80468750 -0.55078125 0.96875000
-6.10156250 -0.55078125 0.92236328
-6.03906250 -0.53125000 0.93164063
-6.05859375 -0.51171875 0.92919922
-6.11718750 -0.49218750 0.92041016
-6.26562500 -0.48046875 0.89843750
-6.34375000 -0.46484375 0.88623047
-6.26171875 -0.44140625 0.89941406
-6.28125000 -0.42187500 0.89550781
-6.17968750 -0.39843750 0.91113281
-6.03125000 -0.37109375 0.93310547
-6.09375000 -0.35156250 0.92431641
-5.98437500 -0.33203125 0.93994141
-5.93750000 -0.30859375 0.94775391
-5.80468750 -0.28515625 0.96679688
-7.65625000 -0.25781250 0.94628906
-4.42968750 -0.14843750 1.43750000
-8.45312500 -0.24609375 0.82714844
-8.39843750 -0.21875000 0.83398438
-7.44531250 -0.17968750 0.97851563
-8.75000000 -0.18750000 0.78125000
-8.15625000 -0.15625000 0.87109375
-8.01562500 -0.13281250 0.89208984
-9.35937500 -0.13281250 0.68896484
-9.03125000 -0.10546875 0.73730469
-4.40625000 -0.04296875 1.44042969
-9.13281250 -0.05468750 0.72119141
-9.46875000 -0.03515625 0.67089844
-6.90234375 -0.00781250 1.06054688
-2.92968750 0.00390625 1.36230469
-8.88281250 0.03125000 0.41796875
-8.52343750 0.05078125 0.47460938
-8.51562500 0.07812500 0.47460938
-8.53906250 0.10546875 0.47192383
-7.75000000 0.12109375 0.59765625
-7.57812500 0.14453125 0.62304688
-7.64843750 0.16796875 0.61181641
-7.69531250 0.19140625 0.60449219
-7.39843750 0.21093750 0.65136719
-7.53125000 0.23437500 0.63037109
-7.31640625 0.25390625 0.66406250
-7.47656250 0.28125000 0.63818359
-7.28906250 0.29687500 0.66748047
-7.44921875 0.32812500 0.64160156
-7.58593750 0.35156250 0.61962891
-8.51562500 0.41015625 0.47192383
-8.68750000 0.44531250 0.44433594
-8.13281250 0.44531250 0.53222656
-7.67187500 0.44921875 0.60498047
-8.63281250 0.44531250 0.72314453
-8.60937500 0.46484375 0.72802734
-8.67968750 0.48828125 0.71582031
-8.93750000 0.52734375 0.67333984
-6.48437500 0.40625000 1.06738281
-8.96875000 0.57421875 0.66748047
-9.37500000 0.62109375 0.60253906
-9.01562500 0.61718750 0.66113281
-9.27343750 0.66406250 0.61816406
-8.82031250 0.65234375 0.69140625
-8.57812500 0.66015625 0.72900391
-8.25781250 0.65234375 0.77978516
-8.44531250 0.68750000 0.74902344
-8.00781250 0.67578125 0.81933594
-8.12500000 0.70312500 0.79980469
-8.14843750 0.72656250 0.79638672
-7.95312500 0.73437500 0.82568359
-8.07812500 0.76562500 0.80566406
-8.04687500 0.78125000 0.81103516
-8.00000000 0.80078125 0.81738281
-8.23437500 0.83984375 0.77929688
-7.97656250 0.83593750 0.82080078
-7.97265625 0.85546875 0.82080078
-7.87109375 0.86718750 0.83642578
-7.90625000 0.89062500 0.83007813
-7.79296875 0.90234375 0.84716797
-7.77343750 0.91796875 0.85107422
-7.71875000 0.92968750 0.85937500
-7.44531250 0.91796875 0.90283203
-7.46093750 0.93750000 0.89990234
-7.50000000 0.96093750 0.89257813
-6.71484375 0.88671875 1.01855469
-5.99609375 0.81250000 1.13378906
-6.48828125 0.89453125 1.05468750
-6.41015625 0.90234375 1.06640625
-6.63671875 0.94531250 1.02929688
-6.58593750 0.95312500 1.03613281
-2.78515625 0.45312500 1.65039063
-6.60937500 0.99218750 1.03125000
-6.32031250 0.97265625 1.07812500
-6.32812500 0.98828125 1.07617188
-6.39453125 1.01562500 1.06445313
-6.60546875 1.06250000 1.03027344
-6.37500000 1.04296875 1.06738281
-6.33593750 1.05468750 1.07324219
-6.10937500 1.03515625 1.10937500
-6.20312500 1.07031250 1.09375000
-6.24609375 1.09375000 1.08593750
-6.35546875 1.12500000 1.06738281
-6.06640625 1.09375000 1.11328125
-5.82031250 1.07031250 1.15234375
-6.06250000 1.12500000 1.11230469
-6.12500000 1.15625000 1.10253906
-5.95312500 1.14062500 1.12988281
-6.21093750 1.20312500 1.08789063
-6.14843750 1.20703125 1.09667969
-5.74218750 1.14843750 1.16210938
-5.69531250 1.15625000 1.16894531
-6.10937500 1.25000000 1.10156250
-5.66406250 1.17968750 1.17285156
-5.58203125 1.17968750 1.18652344
-6.17968750 1.31250000 1.08789063
-5.94531250 1.28125000 1.12597656
-5.76953125 1.26171875 1.15332031
-5.34375000 1.19531250 1.22265625
-5.88281250 1.31640625 1.13378906
-5.00781250 1.15234375 1.27539063
-5.59375000 1.28906250 1.18066406
-5.26562500 1.23437500 1.23339844
-5.98437500 1.40234375 1.11425781
-6.13281250 1.45312500 1.08886719
-5.67968750 1.37109375 1.16210938
-5.39062500 1.32421875 1.20898438
-6.61718750 1.60937500 1.00781250
-5.59375000 1.39843750 1.17578125
-5.43750000 1.37890625 1.19921875
-5.69531250 1.44921875 1.15625000
-5.41406250 1.40625000 1.20214844
-5.65625000 1.47656250 1.16113281
-5.74218750 1.51171875 1.14648438
-5.37500000 1.44140625 1.20703125
-5.38281250 1.45703125 1.20507813
-5.25000000 1.43359375 1.22558594
-5.33984375 1.47265625 1.20996094
-5.43359375 1.51562500 1.19335938
-5.36718750 1.51171875 1.20410156
-5.54687500 1.57421875 1.17382813
-5.06640625 1.46093750 1.25292969
-5.15234375 1.49609375 1.23828125
-4.95312500 1.45703125 1.27050781
-5.21093750 1.54687500 1.22656250
-4.39453125 1.33984375 1.36132813
-4.42187500 1.35546875 1.35644531
-4.55468750 1.41015625 1.33300781
-4.92187500 1.52343750 1.27148438
-4.63281250 1.45703125 1.31933594
-4.05859375 1.30859375 1.41406250
-4.55859375 1.46093750 1.33007813
-4.11718750 1.35156250 1.40234375
-4.35937500 1.42968750 1.36132813
-4.31250000 1.42968750 1.36816406
-4.70312500 1.55859375 1.30175781
-3.72265625 1.27734375 1.46679688
-4.04687500 1.39062500 1.41113281
-4.39062500 1.50390625 1.35253906
-4.27343750 1.48046875 1.37109375
-4.28906250 1.49609375 1.36816406
-4.68750000 1.63671875 1.29980469
-4.51562500 1.59765625 1.32910156
-4.39843750 1.57031250 1.34765625
-4.25000000 1.53515625 1.37304688
-2.81445313 1.08984375 1.61328125
-4.28906250 1.57812500 1.36328125
-2.58203125 1.03125000 1.65234375
-5.28515625 1.93359375 1.19335938
-4.89062500 1.81250000 1.25976563
-5.50781250 2.03515625 1.15429688
-3.50390625 1.37500000 1.49316406
-4.76562500 1.82031250 1.27734375
-4.34375000 1.68359375 1.34863281
-4.36328125 1.71093750 1.34375000
-4.30468750 1.69921875 1.35351563
-3.47265625 1.41796875 1.49511719
-3.70507813 1.51562500 1.45507813
-3.21289063 1.35156250 1.53710938
-3.51757813 1.47265625 1.48437500
-3.34570313 1.42187500 1.51367188
-2.76757813 1.21875000 1.61132813
-3.00195313 1.31640625 1.57031250
-3.08398438 1.35546875 1.55566406
-2.87304688 1.28515625 1.59179688
-2.70117188 1.23046875 1.62109375
-2.67187500 1.23046875 1.62500000
-2.64062500 1.22656250 1.62890625
-3.28710938 1.48046875 1.51757813
-3.43750000 1.55078125 1.49023438
-2.78515625 1.30859375 1.60351563
-2.74609375 1.30468750 1.60839844
-3.21679688 1.50000000 1.52734375
-2.89843750 1.38281250 1.58105469
-3.30468750 1.55468750 1.50976563
-3.48242188 1.63671875 1.47851563
-3.20507813 1.53906250 1.52539063
-4.07812500 1.90234375 1.37304688
-2.85742188 1.41015625 1.58496094
-3.41210938 1.65625000 1.48632813
-2.84960938 1.42968750 1.58398438
-2.75585938 1.40234375 1.60058594
-2.59179688 1.34375000 1.62792969
-3.15234375 1.59375000 1.52929688
-3.00000000 1.53515625 1.55566406
-2.82031250 1.46875000 1.58593750
-2.83007813 1.48437500 1.58300781
-2.84960938 1.50000000 1.57910156
-2.76171875 1.47265625 1.59472656
-2.74609375 1.47656250 1.59667969
-2.85351563 1.53125000 1.57617188
-2.97265625 1.59765625 1.55468750
-2.75390625 1.50781250 1.59277344
-2.75781250 1.51953125 1.59082031
-2.69140625 1.50000000 1.60156250
-2.57812500 1.45703125 1.62109375
-2.55273438 1.45312500 1.62500000
-2.61132813 1.49218750 1.61328125
-2.54492188 1.46875000 1.62500000
-2.51171875 1.46875000 1.62988281
-2.44140625 1.44140625 1.64160156
-2.47460938 1.46875000 1.63476563
-2.95898438 1.70703125 1.54785156
-2.41796875 1.45703125 1.64355469
-2.52734375 1.51953125 1.62304688
-2.67187500 1.59765625 1.59667969
-2.61914063 1.58593750 1.60546875
-2.65625000 1.60937500 1.59765625
-2.42773438 1.50781250 1.63769531
-2.47656250 1.53906250 1.62792969
-2.76953125 1.69921875 1.57519531
-3.09765625 1.87500000 1.51464844
-2.53515625 1.60156250 1.61523438
-2.40820313 1.54687500 1.63769531
-2.47851563 1.58984375 1.62304688
-2.35742188 1.53906250 1.64453125
-2.39257813 1.56640625 1.63769531
-2.47656250 1.62109375 1.62207031
-2.47265625 1.62500000 1.62207031
-2.36718750 1.57812500 1.64062500
-2.57812500 1.70312500 1.59960938
-2.48828125 1.66406250 1.61621094
-2.42187500 1.64062500 1.62695313
-2.34960938 1.60937500 1.64062500
-2.60546875 1.75390625 1.59277344
-2.43750000 1.67187500 1.62207031
-2.29882813 1.60937500 1.64648438
-2.53125000 1.74609375 1.60253906
-2.31640625 1.63671875 1.64160156
-2.21679688 1.59375000 1.66015625
-2.35937500 1.67968750 1.63183594
-2.26171875 1.63671875 1.64941406
-2.30273438 1.66796875 1.64062500
-2.36132813 1.71093750 1.62890625
-2.29296875 1.68359375 1.64062500
-2.23828125 1.66015625 1.65039063
-2.25390625 1.67968750 1.64648438
-2.22851563 1.67187500 1.65039063
-2.31250000 1.73046875 1.63378906
-2.12109375 1.62890625 1.66894531
-2.30664063 1.75390625 1.63281250
-2.15234375 1.66406250 1.66113281
-2.21484375 1.71093750 1.64843750
-2.18359375 1.70703125 1.65234375
-2.19726563 1.71875000 1.65039063
-2.26562500 1.77343750 1.63574219
-2.11523438 1.68750000 1.66406250
-2.24218750 1.77734375 1.63867188
-2.16406250 1.74218750 1.65136719
-2.12304688 1.72265625 1.65917969
-2.18945313 1.77734375 1.64550781
-2.21875000 1.80078125 1.63964844
-2.22265625 1.81640625 1.63769531
-2.30664063 1.87500000 1.62109375
-2.99804688 2.33203125 1.48632813
-2.90234375 2.28515625 1.50292969
-3.06054688 2.39843750 1.47265625
-2.51171875 2.05468750 1.57714844
-2.92968750 2.33984375 1.49511719
-2.79101563 2.25781250 1.52050781
-2.85156250 2.31640625 1.50683594
-2.75781250 2.26171875 1.52441406
-2.58789063 2.16406250 1.55664063
-2.59179688 2.17968750 1.55468750
-2.08398438 1.84375000 1.65234375
-2.74414063 2.30078125 1.52246094
-2.20703125 1.94531250 1.62597656
-1.94140625 1.78125000 1.67675781
-2.81445313 2.38671875 1.50488281
-1.86718750 1.74609375 1.68945313
-2.50390625 2.19921875 1.56347656
-3.28320313 2.75000000 1.40820313
-1.85937500 1.76562500 1.68847656
-2.63867188 2.32421875 1.53320313
-3.66406250 3.07031250 1.32812500
-1.90234375 1.82812500 1.67675781
-3.71093750 3.13281250 1.31640625
-3.59765625 3.06640625 1.33789063
-3.68750000 3.14843750 1.31738281
-3.56054688 3.07031250 1.34179688
-3.75585938 3.22656250 1.30078125
-3.68359375 3.19531250 1.31250000
-2.18750000 2.10546875 1.61230469
-3.77343750 3.28906250 1.29199219
-3.70117188 3.25781250 1.30468750
-3.57226563 3.17578125 1.32910156
-2.20312500 2.15625000 1.60546875
-3.84960938 3.42187500 1.26855469
-2.07031250 2.08203125 1.62890625
-2.13085938 2.13671875 1.61523438
-2.03515625 2.07421875 1.63378906
-1.97070313 2.03515625 1.64648438
-2.11523438 2.16015625 1.61523438
-3.27734375 3.07421875 1.37597656
-3.41015625 3.19921875 1.34570313
-2.57812500 2.55468750 1.51660156
-2.12500000 2.20703125 1.60937500
-2.33984375 2.39453125 1.56347656
-3.23828125 3.12500000 1.37500000
-2.77929688 2.76953125 1.46972656
-2.83007813 2.82421875 1.45703125
-2.25195313 2.37890625 1.57519531
-2.32226563 2.44531250 1.55957031
-2.60351563 2.68359375 1.49902344
-2.53515625 2.64062500 1.51269531
-2.72265625 2.81250000 1.47167969
-2.50585938 2.64453125 1.51562500
-2.69726563 2.81250000 1.47363281
-2.29296875 2.49218750 1.55761719
-2.58203125 2.75000000 1.49414063
-2.60351563 2.77734375 1.48925781
-2.28320313 2.51953125 1.55566406
-2.68359375 2.87500000 1.46875000
-2.47656250 2.71093750 1.51171875
-2.54492188 2.78906250 1.49414063
-2.54492188 2.80468750 1.49218750
-2.58984375 2.85156250 1.48242188
-2.67773438 2.94531250 1.46191406
-2.15820313 2.50000000 1.57226563
-2.39453125 2.72265625 1.51953125
-2.36132813 2.70703125 1.52539063
-1.94140625 2.34765625 1.61425781
-2.10742188 2.51171875 1.57617188
-2.58203125 2.95312500 1.47167969
-2.38281250 2.78125000 1.51367188
-2.62890625 3.01953125 1.45898438
-2.58398438 2.99218750 1.46679688
-1.78125000 2.26953125 1.64257813
-2.26953125 2.73046875 1.53222656
-2.11523438 2.60546875 1.56445313
-2.45703125 2.93359375 1.48730469
-2.05664063 2.57812500 1.57421875
-2.47070313 2.98828125 1.48046875
-1.86718750 2.42968750 1.61328125
-2.87695313 3.41015625 1.38476563
-2.80273438 3.35546875 1.39941406
-2.76367188 3.33203125 1.40722656
-2.51367188 3.10937500 1.46093750
-2.55078125 3.16015625 1.45117188
-2.46484375 3.09375000 1.46875000
-2.46875000 3.11328125 1.46582031
-2.33007813 2.99218750 1.49511719
-2.51562500 3.19531250 1.45117188
-2.42382813 3.11718750 1.47070313
-2.43945313 3.14453125 1.46484375
-2.35546875 3.07031250 1.48242188
-2.25976563 3.01171875 1.50000000
-2.42773438 3.19921875 1.45996094
-2.16406250 2.95312500 1.51757813
-2.39453125 3.22656250 1.45996094
-0.82812500 -1.40625000 1.66796875
-1.43945313 -1.49218750 1.57226563
-1.38671875 -1.46093750 1.58203125
-1.16406250 -1.34375000 1.62109375
-1.16796875 -1.27343750 1.62402344
-1.72460938 -1.46875000 1.53125000
-1.29492188 -1.29687500 1.60351563
-1.41210938 -1.30859375 1.58398438
-1.69531250 -1.35546875 1.53906250
-1.52929688 -1.28515625 1.56835938
-1.70898438 -1.30078125 1.53906250
-1.73437500 -1.25781250 1.53710938
-1.62109375 -1.21484375 1.55664063
-1.66406250 -1.18750000 1.55078125
-1.58593750 -1.14453125 1.56445313
-1.68164063 -1.16406250 1.54882813
-1.25390625 -1.02734375 1.61914063
-1.64453125 -1.11328125 1.55664063
-1.65625000 -1.10546875 1.55468750
-1.55273438 -1.05859375 1.57226563
-1.76757813 -1.10937500 1.53710938
-1.79492188 -1.10937500 1.53222656
-1.42968750 -0.99609375 1.59277344
-1.37304688 -0.97265625 1.60253906
-1.16210938 -0.90625000 1.63769531
-1.24414063 -0.92187500 1.62500000
-1.60937500 -0.96875000 1.56640625
-2.00195313 -0.87500000 1.50585938
-2.00585938 -0.72265625 1.50878906
-1.72851563 -0.54296875 1.55371094
-4.95703125 -0.97265625 1.03906250
-4.97656250 -0.96093750 1.03613281
-4.98828125 -0.94531250 1.03417969
-5.21875000 -0.95312500 0.99707031
-8.43750000 -1.33984375 0.48461914
-5.29687500 -0.92578125 0.98535156
-5.26953125 -0.90625000 0.98974609
-5.25390625 -0.88671875 0.99267578
-5.28906250 -0.87109375 0.98681641
-5.12500000 -0.83203125 1.01269531
-5.10156250 -0.81250000 1.01757813
-5.16796875 -0.80078125 1.00683594
-5.21484375 -0.79296875 0.99951172
-4.79687500 -0.73437500 1.06640625
-4.80468750 -0.71484375 1.06542969
-4.85156250 -0.70312500 1.05761719
-8.07812500 -0.99609375 0.54492188
-5.05078125 -0.69140625 1.02636719
-4.92968750 -0.66015625 1.04589844
-5.02734375 -0.65625000 1.03027344
-4.76562500 -0.61328125 1.07226563
-5.57812500 -0.66406250 0.94335938
-7.27343750 -0.78906250 0.67285156
-5.31250000 -0.60546875 0.98535156
-7.11718750 -0.73046875 0.69873047
-4.08593750 -0.48046875 1.18066406
-6.84765625 -0.66406250 0.74169922
-7.12500000 -0.66406250 0.69775391
-6.46875000 -0.59765625 0.80175781
-6.13281250 -0.55468750 0.85498047
-5.83593750 -0.51171875 0.90283203
-4.03906250 -0.38281250 1.18750000
-4.01562500 -0.36718750 1.19238281
-6.19140625 -0.48046875 0.84667969
-6.29687500 -0.46093750 0.83007813
-6.34375000 -0.44531250 0.82177734
-6.45312500 -0.43359375 0.80419922
-6.39062500 -0.40625000 0.81445313
-6.29296875 -0.38281250 0.82958984
-6.17968750 -0.35937500 0.84814453
-2.55273438 -0.19140625 1.42382813
-5.57812500 -0.29687500 0.94335938
-4.72656250 -0.24609375 1.07812500
-5.91406250 -0.26562500 0.89013672
-2.95507813 -0.15625000 1.35937500
-3.90625000 -0.17187500 1.20800781
-3.70117188 -0.15234375 1.24121094
-2.92578125 -0.12109375 1.36425781
-3.30664063 -0.11718750 1.30371094
-2.93359375 -0.09375000 1.36230469
-2.99218750 -0.08203125 1.35253906
-2.96484375 -0.07031250 1.35742188
-2.79882813 -0.05468750 1.38281250
-2.99023438 -0.04687500 1.35253906
-4.82812500 -0.04687500 1.06250000
-2.60351563 -0.01953125 1.41406250
-2.56054688 -0.00781250 1.42089844
-9.61718750 0.01171875 0.49023438
-9.64062500 0.03515625 0.48632813
-9.26562500 0.05468750 0.54882813
-9.40625000 0.08203125 0.52587891
-9.61718750 0.10546875 0.48999023
-9.62500000 0.12890625 0.48803711
-9.71875000 0.15625000 0.47241211
-9.71875000 0.18359375 0.47143555
-9.87500000 0.20703125 0.44531250
-9.82812500 0.23437500 0.45385742
-9.86718750 0.25781250 0.44702148
-9.73437500 0.27734375 0.46923828
-9.90625000 0.30468750 0.43896484
-9.87500000 0.33203125 0.44482422
-9.95312500 0.35937500 0.43115234
-10.01562500 0.38671875 0.42041016
-10.25000000 0.41796875 0.38085938
-10.25781250 0.44531250 0.37866211
-10.70312500 0.48828125 0.30322266
-10.50000000 0.50781250 0.33691406
-10.29687500 0.52343750 0.37158203
-10.42968750 0.55859375 0.34838867
-10.27343750 0.57812500 0.37353516
-9.15625000 0.53906250 0.56201172
-9.48437500 0.57812500 0.50585938
-9.61718750 0.61328125 0.48339844
-9.28125000 0.61328125 0.53955078
-9.30468750 0.64062500 0.53466797
-9.50000000 0.67578125 0.50146484
-9.32812500 0.68750000 0.52832031
-8.95312500 0.68750000 0.59130859
-8.80468750 0.69921875 0.61621094
-8.75000000 0.71484375 0.62597656
-9.05468750 0.76171875 0.57470703
-8.75000000 0.76171875 0.62402344
-8.16406250 0.73046875 0.72265625
-8.42968750 0.77734375 0.67675781
-8.32812500 0.78906250 0.69335938
-8.24218750 0.80468750 0.70800781
-4.28906250 0.44921875 1.37304688
-8.62500000 0.87890625 0.64208984
-4.87890625 0.53515625 1.27148438
-5.19921875 0.64453125 1.21679688
-7.72656250 0.97265625 0.78857422
-6.24218750 0.92968750 1.03515625
-6.27343750 0.94921875 1.03027344
-6.28125000 0.96875000 1.02734375
-2.74414063 0.48437500 1.62500000
-5.79687500 0.94921875 1.10742188
-5.89843750 0.98046875 1.08984375
-5.87890625 0.99218750 1.09277344
-5.63671875 0.96484375 1.13281250
-5.42187500 0.96093750 1.16894531
-5.73046875 1.04296875 1.11523438
-3.63867188 0.71484375 1.47070313
-5.79296875 1.09765625 1.10253906
-5.02343750 0.97656250 1.23339844
-5.39453125 1.06250000 1.16992188
-5.57812500 1.10937500 1.13769531
-5.46484375 1.10546875 1.15625000
-5.91406250 1.20312500 1.07910156
-5.22656250 1.12890625 1.19433594
-3.85937500 0.87500000 1.42675781
-4.54687500 1.02734375 1.30859375
-4.69921875 1.06640625 1.28222656
-4.60156250 1.06250000 1.29882813
-4.88671875 1.13281250 1.25000000
-4.69531250 1.10546875 1.28125000
-4.60546875 1.10156250 1.29589844
-4.24609375 1.03515625 1.35742188
-4.16406250 1.03125000 1.37109375
-4.19531250 1.05078125 1.36523438
-4.31250000 1.08593750 1.34472656
-3.84179688 0.99218750 1.42480469
-4.18750000 1.08203125 1.36425781
-4.17578125 1.09375000 1.36523438
-3.98632813 1.06250000 1.39746094
-4.17187500 1.11718750 1.36523438
-4.12500000 1.11328125 1.37304688
-4.17968750 1.14062500 1.36230469
-3.99023438 1.10546875 1.39453125
-4.37500000 1.21484375 1.32714844
-4.03125000 1.14062500 1.38671875
-4.03906250 1.15625000 1.38476563
-4.16796875 1.19531250 1.36132813
-4.44531250 1.28125000 1.31250000
-3.85351563 1.14453125 1.41503906
-4.23046875 1.25000000 1.34863281
-4.01953125 1.20703125 1.38574219
-4.14843750 1.25390625 1.36132813
-4.25000000 1.29296875 1.34277344
-4.72656250 1.43359375 1.25976563
-4.34375000 1.34765625 1.32519531
-4.33593750 1.35546875 1.32714844
-4.12500000 1.30468750 1.36328125
-4.28125000 1.37109375 1.33398438
-4.11718750 1.33203125 1.36230469
-4.09375000 1.33984375 1.36621094
-3.79296875 1.26562500 1.41699219
-3.70703125 1.25000000 1.43164063
-3.90820313 1.31640625 1.39648438
-4.03125000 1.36328125 1.37402344
-3.88085938 1.33593750 1.39843750
-3.96289063 1.37109375 1.38378906
-4.19140625 1.45312500 1.34277344
-3.59179688 1.28515625 1.44824219
-3.44921875 1.25000000 1.47265625
-3.45898438 1.25781250 1.47070313
-3.06835938 1.14843750 1.53808594
-3.34960938 1.25000000 1.48828125
-3.11718750 1.18359375 1.52832031
-3.43164063 1.29296875 1.47265625
-3.23242188 1.24218750 1.50683594
-3.41406250 1.31250000 1.47363281
-2.84570313 1.13281250 1.57421875
-2.82031250 1.13281250 1.57812500
-3.43164063 1.35156250 1.46777344
-3.26562500 1.30859375 1.49707031
-3.51171875 1.39453125 1.45312500
-3.31835938 1.34375000 1.48632813
-3.48242188 1.41015625 1.45703125
-3.85351563 1.55078125 1.39062500
-3.23632813 1.34765625 1.49902344
-3.17578125 1.33984375 1.50878906
-3.67578125 1.52734375 1.41894531
-3.29101563 1.39453125 1.48730469
-3.16796875 1.36328125 1.50878906
-3.19140625 1.38281250 1.50390625
-2.95507813 1.30859375 1.54589844
-2.83398438 1.27734375 1.56640625
-2.72851563 1.24218750 1.58398438
-2.89257813 1.31640625 1.55468750
-2.71289063 1.25390625 1.58593750
-2.68554688 1.25390625 1.58984375
-2.72070313 1.27734375 1.58300781
-2.58789063 1.23437500 1.60644531
-3.04882813 1.42578125 1.52246094
-4.26562500 1.91015625 1.30078125
-2.99414063 1.42187500 1.53027344
-2.88281250 1.39062500 1.54980469
-3.13867188 1.50000000 1.50390625
-2.99414063 1.45312500 1.52929688
-3.11328125 1.51171875 1.50585938
-2.91406250 1.44140625 1.54101563
-2.70117188 1.36328125 1.57910156
-2.88085938 1.44921875 1.54589844
-2.92382813 1.47656250 1.53710938
-2.83593750 1.44921875 1.55273438
-2.89648438 1.48046875 1.54101563
-2.74804688 1.43359375 1.56738281
-2.83593750 1.48046875 1.54980469
-2.79492188 1.47265625 1.55664063
-2.67578125 1.42968750 1.57812500
-2.75585938 1.47656250 1.56250000
-2.76367188 1.48828125 1.56054688
-2.90429688 1.55859375 1.53417969
-2.72070313 1.49218750 1.56640625
-2.71875000 1.50000000 1.56640625
-2.75781250 1.52343750 1.55859375
-2.72070313 1.51562500 1.56445313
-2.70703125 1.52343750 1.56640625
-2.73242188 1.54296875 1.56054688
-2.52929688 1.45312500 1.59863281
-2.57031250 1.48828125 1.58886719
-2.54687500 1.48437500 1.59277344
-2.58984375 1.51171875 1.58398438
-2.58007813 1.51953125 1.58398438
-2.67187500 1.57421875 1.56738281
-2.62109375 1.55468750 1.57617188
-2.41210938 1.46875000 1.61328125
-2.51171875 1.52734375 1.59472656
-2.49804688 1.52734375 1.59570313
-2.50585938 1.53906250 1.59375000
-2.50195313 1.54687500 1.59375000
-2.55468750 1.58203125 1.58398438
-2.54296875 1.58984375 1.58398438
-2.63867188 1.64453125 1.56542969
-2.56835938 1.62109375 1.57714844
-2.58593750 1.64062500 1.57324219
-2.53906250 1.62890625 1.58105469
-2.44921875 1.58984375 1.59765625
-2.51562500 1.63281250 1.58398438
-2.51562500 1.64062500 1.58300781
-2.47460938 1.63281250 1.58984375
-2.46289063 1.63281250 1.59179688
-2.60156250 1.72265625 1.56347656
-2.40625000 1.62500000 1.60058594
-2.38085938 1.62109375 1.60449219
-2.50781250 1.69921875 1.57910156
-2.46093750 1.67968750 1.58789063
-2.58007813 1.76171875 1.56347656
-2.46875000 1.70703125 1.58398438
-2.41601563 1.68750000 1.59375000
-2.46484375 1.72656250 1.58300781
-2.35937500 1.67578125 1.60253906
-2.32421875 1.66406250 1.60839844
-2.32031250 1.67187500 1.60839844
-2.26953125 1.65625000 1.61718750
-2.29101563 1.67968750 1.61132813
-2.42187500 1.75781250 1.58593750
-2.30664063 1.70703125 1.60644531
-2.77148438 1.98437500 1.51562500
-2.36718750 1.75781250 1.59375000
-2.30664063 1.73437500 1.60449219
-2.35546875 1.77734375 1.59375000
-2.40429688 1.81250000 1.58300781
-2.48828125 1.87500000 1.56542969
-2.37109375 1.81250000 1.58789063
-2.36718750 1.82031250 1.58789063
-2.26171875 1.76953125 1.60742188
-2.18945313 1.73828125 1.62011719
-2.38085938 1.85937500 1.58203125
-2.18750000 1.75000000 1.61914063
-2.28710938 1.82421875 1.59765625
-2.37304688 1.88281250 1.58105469
-2.23046875 1.80468750 1.60839844
-2.23046875 1.81250000 1.60644531
-2.20898438 1.81640625 1.60839844
-2.24218750 1.84375000 1.60156250
-2.16796875 1.80859375 1.61523438
-2.58007813 2.08593750 1.53125000
-2.72851563 2.18750000 1.50195313
-2.75195313 2.21093750 1.49511719
-2.88867188 2.31250000 1.46679688
-2.43750000 2.03906250 1.55566406
-2.62890625 2.17187500 1.51562500
-2.64453125 2.19140625 1.51171875
-2.68554688 2.23437500 1.50195313
-2.77148438 2.30078125 1.48339844
-2.57421875 2.18359375 1.52246094
-2.25976563 1.97656250 1.58593750
-2.33203125 2.04296875 1.56933594
-2.13085938 1.91406250 1.60937500
-2.15039063 1.93750000 1.60449219
-2.11132813 1.92187500 1.61132813
-2.31250000 2.07031250 1.56933594
-3.02539063 2.57812500 1.42089844
-3.15039063 2.67968750 1.39355469
-2.18945313 2.01953125 1.59082031
-3.27734375 2.79687500 1.36425781
-3.50195313 2.96875000 1.31640625
-3.53515625 3.01171875 1.30761719
-3.50976563 3.00781250 1.31152344
