# .PCD v0.7 - Point Cloud Data file format
VERSION 0.7
FIELDS x y z
SIZE 4 4 4
TYPE F F F
COUNT 1 1 1
WIDTH 1340
HEIGHT 1
VIEWPOINT -18 6 0 1 0 0 0
POINTS 1340
DATA ASCII
-14.64257813 0.50000000 2.15625000
-14.65234375 0.48828125 2.15625000
-15.03125000 0.56640625 2.15625000
-17.11132813 1.39453125 2.15625000
-17.43457031 0.33984375 2.15039063
-17.47216797 0.26171875 2.14843750
-17.59228516 0.27734375 2.14843750
-17.47314453 1.12500000 2.15234375
-17.39843750 1.36718750 2.15429688
-17.84851074 0.19531250 2.14648438
-17.46289063 1.31640625 2.15429688
-17.83605957 0.53515625 2.14843750
-18.47460938 0.12500000 2.14453125
-18.27294922 0.58203125 2.14648438
-18.53906250 0.16015625 2.14257813
-18.77783203 0.72656250 2.14453125
-19.06054688 1.10937500 2.14453125
-12.52343750 -0.98046875 2.08203125
-13.97656250 -1.57421875 2.08007813
-11.41796875 -0.34765625 2.05468750
-10.99218750 -1.18750000 2.04101563
-11.42187500 -2.39843750 2.02734375
-11.53125000 -2.37500000 2.02929688
-12.83593750 -1.92578125 2.04492188
-12.90234375 -1.81640625 2.04687500
-13.14453125 -2.03906250 2.04296875
-14.47070313 0.30859375 2.08593750
-11.77734375 -3.10937500 1.99023438
-11.66406250 -3.50781250 1.98242188
-19.56152344 -1.21093750 2.01171875
-22.19140625 -5.36718750 1.90820313
-21.96875000 -4.92187500 1.91894531
-22.06640625 -4.96875000 1.91601563
-21.95312500 -4.66406250 1.92285156
-27.78906250 -1.73046875 1.86132813
-10.33203125 -1.43750000 1.97363281
-10.26562500 -1.69921875 1.96875000
-10.99218750 -2.67968750 1.95996094
-11.41796875 -2.25781250 1.97265625
-11.02734375 -2.99218750 1.95410156
-11.41796875 -2.34375000 1.97070313
-11.44531250 -2.34375000 1.97167969
-11.76562500 -2.25000000 1.97656250
-11.35156250 -3.08593750 1.95605469
-11.74609375 -3.23437500 1.95605469
-12.66015625 -1.32421875 2.00390625
-13.11718750 -0.98437500 2.01562500
-13.01953125 -1.55468750 2.00195313
-13.42187500 -1.29687500 2.00976563
-13.48046875 -1.50781250 2.00585938
-14.03125000 -0.28515625 2.03515625
-14.12109375 -0.04296875 2.04101563
-14.31054688 0.00781250 2.04296875
-14.41992188 0.35156250 2.05273438
-14.50195313 0.45703125 2.05468750
-14.48242188 0.12890625 2.04687500
-14.60156250 0.16406250 2.04882813
-14.81250000 0.46875000 2.05664063
-17.30908203 1.22656250 2.06640625
-17.51342773 0.64062500 2.05078125
-17.89013672 -0.44921875 2.02343750
-17.75891113 0.07812500 2.03515625
-22.02734375 -5.27343750 1.87109375
-19.51855469 0.98046875 2.02734375
-20.22460938 1.24609375 2.01757813
-5.64843750 -0.84375000 1.86328125
-11.10546875 -2.63281250 1.93164063
-11.45312500 -2.07031250 1.94824219
-11.59375000 -2.07812500 1.95019531
-14.57421875 0.67578125 2.04296875
-21.91796875 -4.92187500 1.84179688
-22.16796875 -5.11718750 1.83398438
-28.21093750 -1.87890625 1.75878906
-11.07812500 -1.85156250 1.91015625
-11.05468750 -2.13281250 1.90332031
-11.30859375 -2.52343750 1.89746094
-11.42968750 -2.58593750 1.89746094
-11.16015625 -3.22656250 1.87695313
-11.31640625 -3.08593750 1.88281250
-11.63281250 -2.53125000 1.90136719
-12.70703125 -1.95312500 1.93066406
-12.96484375 -1.48828125 1.94531250
-13.56250000 -1.31250000 1.95703125
-13.65234375 -1.09375000 1.96386719
-13.81250000 -1.20312500 1.96191406
-21.90429688 -5.08593750 1.78710938
-22.07421875 -5.14843750 1.78222656
-23.83203125 -3.52343750 1.78417969
-23.97265625 -3.24218750 1.78710938
-27.69531250 -2.67968750 1.70117188
-27.72656250 -2.48437500 1.70312500
-27.53125000 -2.27343750 1.71191406
-27.82812500 -2.21875000 1.70410156
-27.67968750 -2.07812500 1.71093750
-28.48437500 -2.43750000 1.68261719
-27.56250000 -1.76171875 1.71875000
-27.65625000 -1.73828125 1.71679688
-27.92968750 -1.87500000 1.70703125
-28.44531250 -2.11718750 1.68847656
-11.50390625 -2.12500000 1.87402344
-11.69531250 -2.45312500 1.86718750
-11.62890625 -3.23437500 1.84375000
-14.05664063 -0.21875000 1.96679688
-14.35546875 -0.21875000 1.96875000
-14.62890625 0.51171875 1.99511719
-14.52343750 -0.07812500 1.97460938
-14.60351563 0.13671875 1.98242188
-18.10791016 1.51953125 2.00585938
-22.07421875 -5.35937500 1.72753906
-22.21875000 -5.42968750 1.72265625
-22.24609375 -5.35937500 1.72460938
-23.89453125 -3.05468750 1.74609375
-27.18750000 -1.98046875 1.67285156
-28.68750000 -2.03906250 1.62304688
-11.45312500 -0.51562500 1.88867188
-10.11718750 -2.88281250 1.78906250
-11.01953125 -1.58593750 1.84667969
-11.39062500 -1.57812500 1.85449219
-11.23437500 -1.94921875 1.83984375
-11.05468750 -2.59375000 1.81640625
-11.40625000 -2.21093750 1.83496094
-11.60937500 -2.15625000 1.84082031
-11.02734375 -3.25781250 1.79492188
-11.47265625 -2.67187500 1.82128906
-11.58203125 -2.52343750 1.82812500
-12.05468750 -1.79296875 1.86035156
-11.53125000 -2.96093750 1.81347656
-11.51171875 -3.20312500 1.80468750
-11.50781250 -3.26562500 1.80273438
-11.46093750 -3.53125000 1.79296875
-11.52343750 -3.61718750 1.79101563
-11.60156250 -3.57031250 1.79394531
-11.60937500 -3.60937500 1.79296875
-12.64843750 -1.45312500 1.88085938
-13.84375000 -1.24609375 1.90332031
-14.42968750 -0.05859375 1.95117188
-14.40429688 -0.33593750 1.94140625
-14.51953125 0.01562500 1.95507813
-14.56250000 -0.03906250 1.95312500
-14.77929688 0.44921875 1.97265625
-14.47460938 -1.05468750 1.91601563
-17.84265137 -0.09765625 1.93750000
-18.41625977 0.69921875 1.95410156
-21.86718750 -5.15625000 1.68945313
-18.91015625 0.96484375 1.95117188
-27.76562500 -2.26562500 1.59375000
-27.49218750 -1.96093750 1.60937500
-27.56250000 -1.96875000 1.60644531
-27.67968750 -1.88281250 1.60351563
-28.60156250 -2.30468750 1.56347656
-28.54687500 -2.22656250 1.56640625
-28.71875000 -2.16406250 1.56152344
-28.54687500 -1.89062500 1.57226563
-28.50781250 -1.82421875 1.57519531
-24.82812500 1.09765625 1.75878906
-10.14453125 -3.29687500 1.73144531
-11.21093750 -3.33593750 1.75195313
-11.39062500 -3.14062500 1.76269531
-11.41015625 -3.53906250 1.74902344
-11.52343750 -3.75000000 1.74316406
-14.58789063 0.47265625 1.94921875
-22.20703125 -5.21875000 1.62890625
-28.77343750 -2.04687500 1.50097656
-10.98437500 -0.72265625 1.80078125
-10.80078125 -1.10156250 1.78222656
-10.79296875 -1.49609375 1.76757813
-10.86328125 -1.57812500 1.76660156
-11.17578125 -1.26953125 1.78613281
-11.01953125 -1.68750000 1.76660156
-10.91406250 -1.87890625 1.75683594
-11.26171875 -1.39453125 1.78417969
-10.82812500 -2.09375000 1.74707031
-11.09375000 -1.72656250 1.76757813
-10.22656250 -3.10156250 1.69335938
-12.05078125 -0.50390625 1.83691406
-11.40234375 -1.62109375 1.77929688
-11.44921875 -1.58593750 1.78125000
-11.55078125 -1.61328125 1.78320313
-11.40625000 -1.89453125 1.76855469
-10.75390625 -3.08593750 1.70703125
-10.60937500 -3.38281250 1.69238281
-10.99218750 -2.77343750 1.72460938
-11.51953125 -1.95312500 1.76855469
-11.26562500 -2.43750000 1.74414063
-11.55468750 -2.06250000 1.76562500
-11.31250000 -2.58593750 1.73925781
-11.45312500 -2.42187500 1.74902344
-11.93750000 -1.57421875 1.79296875
-11.64453125 -2.20312500 1.76171875
-11.04296875 -3.42187500 1.70019531
-11.13281250 -3.35937500 1.70507813
-11.04687500 -3.57031250 1.69433594
-11.07421875 -3.57031250 1.69531250
-11.10156250 -3.57031250 1.69531250
-11.23046875 -3.36718750 1.70605469
-11.15625000 -3.57812500 1.69628906
-11.22656250 -3.60156250 1.69726563
-11.19140625 -3.71875000 1.69140625
-12.12890625 -1.94140625 1.78222656
-11.68750000 -3.14843750 1.72460938
-11.60546875 -3.42968750 1.71191406
-11.70312500 -3.28125000 1.71972656
-11.66406250 -3.47656250 1.71093750
-11.62500000 -3.61718750 1.70410156
-12.25781250 -2.54687500 1.76074219
-12.78906250 -1.48437500 1.81445313
-13.28906250 -0.82812500 1.85058594
-13.23828125 -1.18750000 1.83398438
-13.30078125 -1.07812500 1.83984375
-13.38671875 -0.89453125 1.84960938
-13.20312500 -1.43359375 1.82324219
-13.12500000 -1.68359375 1.81152344
-13.48437500 -0.92187500 1.84960938
-13.32031250 -1.42187500 1.82519531
-13.54296875 -1.00390625 1.84667969
-13.62500000 -0.82421875 1.85546875
-13.57421875 -1.01562500 1.84667969
-13.63281250 -0.90234375 1.85253906
-13.67187500 -0.83593750 1.85644531
-13.72656250 -0.71875000 1.86230469
-13.70312500 -0.84765625 1.85644531
-13.86718750 -0.39843750 1.87792969
-13.85546875 -0.49218750 1.87304688
-13.71484375 -0.96093750 1.85156250
-13.52734375 -1.58593750 1.82128906
-13.98437500 -0.23828125 1.88574219
-13.48828125 -1.82421875 1.81054688
-13.78906250 -0.94531250 1.85253906
-13.48437500 -1.96484375 1.80371094
-13.94140625 -0.57031250 1.87109375
-14.09765625 -0.11718750 1.89257813
-13.84765625 -0.98046875 1.85156250
-14.00195313 -0.52734375 1.87304688
-14.04882813 -0.42578125 1.87890625
-14.01757813 -0.58203125 1.87109375
-14.18945313 -0.10937500 1.89453125
-14.37304688 0.42578125 1.91992188
-14.32812500 0.12109375 1.90625000
-14.29296875 -0.05078125 1.89843750
-14.22656250 -0.34375000 1.88476563
-14.32421875 -0.04687500 1.89843750
-14.26171875 -0.44140625 1.88085938
-14.34765625 -0.17187500 1.89355469
-14.41992188 0.04687500 1.90429688
-14.48437500 0.24218750 1.91308594
-14.37304688 -0.30468750 1.88769531
-14.56640625 0.40234375 1.92089844
-14.60937500 0.52343750 1.92675781
-14.52148438 0.11718750 1.90820313
-14.64843750 0.57812500 1.92968750
-14.50390625 -0.06640625 1.89941406
-14.56054688 0.10546875 1.90820313
-14.52929688 -0.08593750 1.89941406
-14.60742188 0.19140625 1.91210938
-14.67382813 0.42187500 1.92285156
-14.69921875 0.46875000 1.92578125
-14.65234375 0.21093750 1.91308594
-14.68359375 0.29296875 1.91699219
-14.73046875 0.37890625 1.92187500
-14.68945313 0.13281250 1.91015625
-14.78906250 0.53125000 1.92871094
-14.47851563 -0.99218750 1.85839844
-14.75390625 0.24609375 1.91601563
-14.62500000 -0.66796875 1.87402344
-14.85742188 0.30078125 1.91894531
-14.93750000 0.16406250 1.91406250
-15.03125000 0.42187500 1.92578125
-15.08007813 0.06250000 1.91015625
-15.18945313 0.65234375 1.93750000
-15.56250000 0.57031250 1.93457031
-15.61132813 0.81250000 1.94628906
-15.79882813 0.48828125 1.93066406
-16.61621094 1.38671875 1.96679688
-16.73925781 1.01171875 1.94921875
-17.20214844 0.19531250 1.90625000
-17.33251953 0.11328125 1.90136719
-17.32128906 0.45312500 1.91601563
-17.54467773 -0.17968750 1.88476563
-17.43652344 0.28906250 1.90722656
-17.75366211 -0.67968750 1.85937500
-17.47558594 0.29296875 1.90625000
-17.55810547 0.07031250 1.89550781
-17.41796875 0.57031250 1.91992188
-17.63989258 -0.10156250 1.88671875
-17.60253906 0.06640625 1.89453125
-17.44140625 0.62109375 1.92187500
-17.35937500 0.92187500 1.93554688
-17.35937500 0.95703125 1.93750000
-17.63671875 0.13671875 1.89746094
-17.65478516 0.12500000 1.89648438
-17.47851563 0.74609375 1.92578125
-17.72656250 0.17187500 1.89648438
-17.61572266 0.53515625 1.91503906
-17.78869629 0.07421875 1.89160156
-17.62451172 0.62500000 1.91796875
-17.97619629 -0.15234375 1.87792969
-18.04223633 0.00000000 1.88378906
-17.83032227 0.58203125 1.91210938
-18.24560547 0.17968750 1.88671875
-18.05249023 0.74609375 1.91406250
-18.51220703 0.17968750 1.88085938
-18.54003906 0.25390625 1.88281250
-18.26708984 1.00000000 1.91894531
-18.51074219 0.55859375 1.89550781
-18.31030273 0.96875000 1.91699219
-18.45239258 0.72656250 1.90429688
-18.73291016 0.35156250 1.88183594
-18.81396484 0.26171875 1.87597656
-21.99609375 -5.46875000 1.56640625
-18.33105469 1.19140625 1.92578125
-22.18359375 -5.61718750 1.55566406
-22.21093750 -5.53906250 1.55859375
-22.41406250 -5.77343750 1.54394531
-18.71484375 0.80468750 1.89941406
-18.59375000 1.06250000 1.91308594
-18.89453125 0.69140625 1.89062500
-18.85400391 0.78515625 1.89550781
-18.94238281 0.66796875 1.88769531
-19.25976563 0.18359375 1.86035156
-19.00585938 0.61718750 1.88476563
-18.81201172 0.95312500 1.90234375
-18.86035156 0.90234375 1.89941406
-18.87158203 0.91015625 1.89941406
-18.89550781 0.89843750 1.89843750
-18.83984375 1.00781250 1.90429688
-18.94921875 0.86328125 1.89550781
-19.02734375 0.76953125 1.88964844
-19.11816406 0.65234375 1.88281250
-19.34863281 0.32812500 1.86328125
-18.94531250 0.96875000 1.89941406
-18.97558594 0.94921875 1.89746094
-19.19042969 1.01953125 1.89355469
-19.20898438 1.24609375 1.90136719
-23.86328125 -4.57812500 1.54589844
-19.60058594 1.10546875 1.88281250
-23.58984375 -3.53125000 1.59082031
-23.66015625 -3.43750000 1.59179688
-19.14062500 1.91406250 1.92578125
-20.70507813 0.46093750 1.82324219
-23.90625000 -1.85546875 1.63281250
-27.26562500 -2.54687500 1.48242188
-27.45312500 -2.51562500 1.47558594
-27.67968750 -2.38281250 1.46972656
-28.44531250 -2.86718750 1.42578125
-28.04687500 -2.50781250 1.45117188
-28.50000000 -2.33593750 1.43554688
-28.57031250 -2.33593750 1.43261719
-28.50781250 -2.12500000 1.44042969
-28.57031250 -1.95312500 1.44140625
-28.78125000 -1.74218750 1.43652344
-11.04296875 -3.31250000 1.65722656
-11.05859375 -3.33593750 1.65625000
-11.08203125 -3.34375000 1.65722656
-11.06250000 -3.42968750 1.65332031
-11.07421875 -3.50781250 1.64941406
-11.06640625 -3.58593750 1.64648438
-11.60937500 -3.41406250 1.66601563
-11.49609375 -3.71093750 1.65039063
-11.65234375 -3.43750000 1.66601563
-11.57812500 -3.71875000 1.65136719
-11.78125000 -3.32812500 1.67382813
-13.86718750 -0.25000000 1.85449219
-14.41796875 0.34765625 1.89160156
-14.46875000 0.33984375 1.89160156
-14.59179688 0.35156250 1.89355469
-14.72265625 0.45703125 1.90039063
-16.73437500 1.17187500 1.93457031
-16.99804688 1.07812500 1.92675781
-17.02001953 1.21875000 1.93359375
-17.39746094 0.63671875 1.89843750
-21.85351563 -5.80468750 1.49902344
-22.06250000 -5.29687500 1.51562500
-22.23046875 -5.53125000 1.50000000
-21.95703125 -4.99218750 1.53125000
-18.94238281 0.70703125 1.86328125
-18.76855469 1.01562500 1.88085938
-18.85107422 0.90625000 1.87402344
-18.86816406 0.90625000 1.87304688
-18.87939453 0.91406250 1.87304688
-18.92480469 0.86718750 1.87011719
-18.96093750 0.83593750 1.86718750
-18.89990234 0.95703125 1.87500000
-19.03710938 0.76562500 1.86230469
-19.03320313 0.80078125 1.86425781
-19.08007813 0.75390625 1.86035156
-19.08496094 0.76953125 1.86132813
-19.29589844 0.55468750 1.84570313
-23.42968750 -3.53125000 1.54296875
-23.49609375 -3.47656250 1.54296875
-23.61328125 -3.52343750 1.53613281
-23.93359375 -3.81250000 1.51367188
-23.87500000 -3.29687500 1.53515625
-23.94531250 -1.33984375 1.59863281
-27.54687500 -2.44531250 1.41015625
-28.30468750 -2.14843750 1.38281250
-28.50781250 -2.19531250 1.37207031
-28.50000000 -1.85156250 1.38085938
-10.96875000 -1.03515625 1.70800781
-11.16406250 -1.03125000 1.71484375
-11.14453125 -1.12500000 1.70996094
-11.30078125 -0.93750000 1.72363281
-10.85546875 -1.61718750 1.67968750
-10.95312500 -1.58593750 1.68359375
-12.36718750 0.06250000 1.80175781
-11.67968750 -1.16406250 1.72460938
-10.93359375 -3.00000000 1.61816406
-11.59765625 -2.00781250 1.68359375
-10.87109375 -3.50781250 1.59277344
-10.91406250 -3.47656250 1.59570313
-10.92187500 -3.51562500 1.59375000
-10.97656250 -3.47656250 1.59765625
-11.02343750 -3.43750000 1.60058594
-10.93359375 -3.65625000 1.58789063
-10.96093750 -3.65625000 1.58789063
-11.05859375 -3.63281250 1.59179688
-11.06250000 -3.72656250 1.58691406
-11.24218750 -3.65625000 1.59570313
-11.67968750 -3.20312500 1.62792969
-11.67578125 -3.25781250 1.62500000
-11.73046875 -3.25000000 1.62695313
-11.76171875 -3.25000000 1.62792969
-11.72265625 -3.38281250 1.62011719
-11.80468750 -3.25781250 1.62792969
-11.80468750 -3.31250000 1.62597656
-11.84375000 -3.28906250 1.62792969
-11.87890625 -3.27343750 1.62890625
-11.91796875 -3.23437500 1.63183594
-12.76953125 -1.56640625 1.73437500
-12.83593750 -2.16406250 1.70507813
-13.32421875 -1.35546875 1.75585938
-13.29296875 -1.48828125 1.74902344
-13.32421875 -1.46093750 1.75097656
-13.37500000 -1.42187500 1.75390625
-13.31250000 -1.65234375 1.74023438
-13.50000000 -1.33593750 1.76074219
-14.04687500 0.17187500 1.84765625
-13.89843750 -0.45312500 1.81250000
-13.80468750 -0.84375000 1.79101563
-14.06835938 -0.07812500 1.83496094
-13.88281250 -1.03515625 1.78222656
-13.83593750 -1.36328125 1.76464844
-13.90234375 -1.38281250 1.76464844
-14.05273438 -1.03125000 1.78515625
-14.05273438 -1.21875000 1.77441406
-14.46679688 0.10937500 1.85058594
-14.40625000 -0.30078125 1.82812500
-14.27343750 -0.96093750 1.79101563
-14.57812500 0.10937500 1.85253906
-14.66015625 0.33984375 1.86621094
-14.68750000 0.34765625 1.86621094
-14.24218750 -1.67578125 1.75292969
-14.28906250 -1.54687500 1.75976563
-14.39843750 -1.13671875 1.78320313
-14.36914063 -1.50781250 1.76367188
-14.41796875 -1.44140625 1.76757813
-14.69335938 -0.97656250 1.79492188
-14.85937500 -0.21875000 1.83789063
-14.98046875 -0.26171875 1.83593750
-15.20312500 0.44140625 1.87597656
-16.29980469 -2.31250000 1.72460938
-16.47265625 -2.35937500 1.72070313
-18.10534668 -0.37109375 1.80468750
-18.08630371 -0.23437500 1.81152344
-21.84375000 -6.13281250 1.41894531
-22.04296875 -6.31250000 1.40429688
-22.19140625 -5.66406250 1.43164063
-22.27343750 -5.75000000 1.42480469
-22.34765625 -5.82031250 1.41894531
-22.30859375 -5.56250000 1.43261719
-22.44921875 -5.74218750 1.41992188
-22.23437500 -5.30468750 1.44726563
-18.99316406 0.39062500 1.81640625
-18.84082031 0.67578125 1.83496094
-18.83398438 0.71484375 1.83691406
-18.84863281 0.71484375 1.83593750
-18.83593750 0.76562500 1.83886719
-18.85644531 0.75781250 1.83789063
-18.76757813 0.92968750 1.84863281
-18.90087891 0.73828125 1.83593750
-18.86914063 0.81250000 1.83984375
-18.91455078 0.76562500 1.83691406
-18.89160156 0.82812500 1.83984375
-18.92480469 0.80078125 1.83789063
-18.90185547 0.86328125 1.84179688
-18.91894531 0.86328125 1.84082031
-18.93017578 0.87109375 1.84082031
-18.96044922 0.84765625 1.83886719
-19.01269531 0.79296875 1.83398438
-18.96386719 0.89453125 1.84082031
-19.12207031 0.67578125 1.82519531
-19.00488281 0.87890625 1.83886719
-19.16406250 0.66406250 1.82324219
-19.18554688 0.65625000 1.82226563
-19.17480469 0.69921875 1.82421875
-19.20898438 0.67578125 1.82226563
-19.40917969 0.42968750 1.80371094
-19.37890625 0.55468750 1.81054688
-23.36718750 -5.19531250 1.41406250
-19.16308594 0.98828125 1.83789063
-19.14355469 1.03906250 1.84082031
-19.02832031 1.22656250 1.85253906
-19.17871094 1.03906250 1.83886719
-19.07031250 1.21484375 1.85058594
-19.03906250 1.27734375 1.85449219
-23.60156250 -4.87500000 1.41992188
-20.43750000 0.18750000 1.75488281
-23.64062500 -3.57031250 1.47363281
-23.50390625 -1.32421875 1.56542969
-20.85742188 1.19921875 1.77441406
-25.59375000 -1.54296875 1.46191406
-27.95312500 -2.42968750 1.31933594
-21.12890625 2.25781250 1.79492188
-28.28906250 -2.31250000 1.30566406
-28.39843750 -2.34375000 1.29980469
-28.10937500 -2.11718750 1.32031250
-28.39843750 -2.25781250 1.30175781
-28.69531250 -2.35937500 1.28417969
-28.53125000 -2.03906250 1.30078125
-28.72656250 -2.11718750 1.28906250
-28.53125000 -1.95703125 1.30371094
-28.49218750 -1.76953125 1.31054688
-28.54687500 -1.72265625 1.30859375
-11.33984375 -1.17968750 1.67382813
-11.64843750 -1.87109375 1.64843750
-10.74609375 -3.65625000 1.53027344
-10.91406250 -3.50781250 1.54296875
-10.89062500 -3.60937500 1.53710938
-11.07031250 -3.37500000 1.55468750
-11.41406250 -3.56250000 1.55468750
-11.55468750 -3.39062500 1.56738281
-11.77734375 -2.97656250 1.59472656
-11.70703125 -3.22656250 1.58007813
-11.62890625 -3.50000000 1.56347656
-11.79687500 -3.20312500 1.58300781
-11.75781250 -3.39843750 1.57226563
-11.84375000 -3.26562500 1.58105469
-11.88671875 -3.22656250 1.58398438
-11.94140625 -3.16406250 1.58886719
-14.05273438 -1.28125000 1.73632813
-14.07421875 -1.26953125 1.73730469
-14.02343750 -1.52734375 1.72167969
-14.62109375 0.63671875 1.85546875
-14.14453125 -1.26562500 1.73925781
-14.58007813 -0.38671875 1.79492188
-15.61132813 1.15234375 1.89453125
-16.19335938 -2.03125000 1.70312500
-17.31054688 1.70312500 1.90820313
-17.56103516 1.35937500 1.88281250
-17.44628906 1.71093750 1.90429688
-22.29296875 -5.62500000 1.36914063
-22.60937500 -6.05468750 1.33593750
-22.33593750 -5.51562500 1.37304688
-22.53125000 -5.66406250 1.35839844
-18.71386719 0.89062500 1.82226563
-18.86425781 0.66406250 1.80468750
-18.81933594 0.76562500 1.81152344
-18.76123047 0.88671875 1.82031250
-18.84716797 0.79687500 1.81250000
-18.94580078 0.71484375 1.80468750
-18.87988281 0.84765625 1.81347656
-18.94726563 0.76562500 1.80761719
-18.93945313 0.80468750 1.80957031
-18.81054688 1.03515625 1.82519531
-18.93066406 0.89453125 1.81445313
-18.99853516 0.81640625 1.80761719
-18.93261719 0.94140625 1.81640625
-19.05468750 0.77734375 1.80371094
-19.12988281 0.68750000 1.79687500
-19.04296875 0.84765625 1.80761719
-19.09863281 0.78515625 1.80273438
-19.18066406 0.71484375 1.79589844
-19.21191406 0.69531250 1.79394531
-19.06640625 0.93750000 1.81152344
-23.60156250 -5.39843750 1.33300781
-19.03027344 1.24609375 1.82714844
-19.03417969 1.28515625 1.82910156
-19.06152344 1.26953125 1.82714844
-23.42578125 -4.71875000 1.37207031
-23.70703125 -3.53906250 1.41503906
-23.67968750 -3.46875000 1.41894531
-23.63281250 -3.28125000 1.42968750
-23.81250000 -3.30468750 1.42089844
-23.69531250 -3.04687500 1.43652344
-23.35937500 -1.72656250 1.50781250
-23.14843750 -1.34375000 1.53320313
-27.22656250 -2.58593750 1.28125000
-28.43750000 -2.92187500 1.20898438
-28.49218750 -2.39062500 1.22265625
-28.61718750 -2.29687500 1.21875000
-28.57812500 -2.02343750 1.22851563
-28.40625000 -1.78906250 1.24511719
-28.50781250 -1.76953125 1.24023438
-28.57812500 -1.76953125 1.23632813
-10.50781250 -1.32421875 1.59277344
-11.26171875 -0.37500000 1.66992188
-11.47265625 -0.28125000 1.68359375
-11.35937500 -0.55078125 1.66503906
-10.55078125 -1.69531250 1.57617188
-11.42968750 -0.51562500 1.66992188
-9.55468750 -3.19531250 1.46093750
-11.41015625 -0.80078125 1.65429688
-11.26562500 -1.29296875 1.62304688
-9.81250000 -3.51562500 1.45312500
-9.89843750 -3.52343750 1.45605469
-10.12890625 -3.35937500 1.47265625
-10.12500000 -3.41406250 1.46972656
-10.16796875 -3.44531250 1.46972656
-11.44140625 -1.46093750 1.62109375
-11.43359375 -1.90234375 1.59667969
-10.67578125 -3.33593750 1.49316406
-10.57812500 -3.55468750 1.47851563
-11.58984375 -1.88281250 1.60253906
-10.74218750 -3.41406250 1.49121094
-11.30468750 -2.56250000 1.55664063
-10.79296875 -3.53125000 1.48632813
-10.89062500 -3.40625000 1.49609375
-10.79687500 -3.62500000 1.48144531
-10.83984375 -3.60156250 1.48339844
-10.85156250 -3.63281250 1.48242188
-10.89843750 -3.59375000 1.48535156
-11.01562500 -3.43750000 1.49804688
-10.98046875 -3.55468750 1.49023438
-11.93750000 -1.80859375 1.61816406
-11.89843750 -1.92187500 1.61035156
-12.23828125 -1.32031250 1.65429688
-12.08984375 -1.64062500 1.63281250
-12.32812500 -1.23046875 1.66308594
-11.20703125 -3.48437500 1.50097656
-11.27343750 -3.46875000 1.50390625
-11.25000000 -3.62500000 1.49511719
-11.44531250 -3.34375000 1.51660156
-11.51562500 -3.25000000 1.52343750
-11.47265625 -3.39062500 1.51464844
-11.53515625 -3.31250000 1.52050781
-11.58203125 -3.27343750 1.52441406
-11.56250000 -3.36718750 1.51855469
-11.64843750 -3.24218750 1.52832031
-11.71875000 -3.14843750 1.53515625
-11.77734375 -3.08593750 1.54101563
-11.76171875 -3.17187500 1.53515625
-11.70312500 -3.34375000 1.52343750
-11.69140625 -3.42968750 1.51855469
-12.64843750 -1.41015625 1.66113281
-11.77343750 -3.36718750 1.52441406
-11.77343750 -3.42187500 1.52148438
-11.85546875 -3.29687500 1.53027344
-11.89062500 -3.28125000 1.53222656
-11.89453125 -3.32812500 1.52929688
-11.92187500 -3.32031250 1.53125000
-12.63671875 -1.85546875 1.63574219
-12.69531250 -1.91015625 1.63378906
-12.92968750 -1.55078125 1.66015625
-13.12109375 -1.41796875 1.67285156
-13.38281250 -1.43359375 1.67773438
-13.60546875 -0.85546875 1.71777344
-13.51171875 -1.16796875 1.69726563
-13.58593750 -1.00390625 1.70898438
-13.65625000 -0.85546875 1.71875000
-13.67968750 -0.83203125 1.72070313
-13.56250000 -1.22656250 1.69433594
-13.50000000 -1.58593750 1.67089844
-13.68750000 -1.07812500 1.70605469
-13.85156250 -0.72656250 1.73046875
-14.00976563 -0.33203125 1.75781250
-13.71484375 -1.37109375 1.68847656
-13.89062500 -0.91796875 1.71972656
-13.84375000 -1.25390625 1.69824219
-13.82031250 -1.38671875 1.68945313
-13.88281250 -1.23437500 1.70019531
-13.83984375 -1.44921875 1.68554688
-13.90625000 -1.40234375 1.69042969
-13.96484375 -1.25781250 1.69921875
-13.98046875 -1.26562500 1.69921875
-13.96875000 -1.43359375 1.68945313
-13.95312500 -1.56250000 1.68066406
-13.96875000 -1.56640625 1.68066406
-14.00585938 -1.49609375 1.68554688
-14.02343750 -1.50000000 1.68554688
-14.04882813 -1.47265625 1.68750000
-14.03515625 -1.59375000 1.67968750
-14.08593750 -1.46484375 1.68847656
-14.61718750 0.52343750 1.82128906
-14.16406250 -1.36328125 1.69628906
-14.57812500 0.26171875 1.80468750
-14.50390625 -0.16796875 1.77636719
-14.25000000 -1.29687500 1.70214844
-14.50585938 -0.28125000 1.76953125
-14.56054688 -0.16796875 1.77734375
-14.30664063 -1.66796875 1.67871094
-14.59179688 -0.42968750 1.76074219
-14.56054688 -1.19921875 1.71191406
-14.59570313 -1.10546875 1.71875000
-14.62890625 -1.01171875 1.72460938
-14.63281250 -1.08203125 1.72070313
-14.63671875 -1.23828125 1.70996094
-15.10156250 0.24218750 1.80957031
-15.72851563 1.00000000 1.86132813
-16.14843750 -1.98828125 1.66601563
-16.24121094 -2.04687500 1.66210938
-16.25878906 -2.03906250 1.66308594
-16.28222656 -2.13281250 1.65625000
-16.29785156 -2.09375000 1.65917969
-16.31347656 -2.04687500 1.66210938
-16.32324219 -1.89453125 1.67187500
-16.83984375 -4.52343750 1.49804688
-17.97033691 -0.71484375 1.72167969
-17.75280762 0.36328125 1.79296875
-17.88403320 0.03906250 1.76953125
-17.90515137 0.02343750 1.76855469
-21.80664063 -6.14843750 1.29003906
-21.87695313 -6.14843750 1.28710938
-22.02343750 -6.36718750 1.27050781
-18.48168945 0.91015625 1.80175781
-22.19921875 -5.69531250 1.30175781
-22.30859375 -5.82812500 1.29101563
-22.45703125 -5.89843750 1.28125000
-22.34765625 -5.64843750 1.29882813
-18.61962891 0.87890625 1.79492188
-18.66015625 0.83593750 1.79101563
-18.60253906 0.98437500 1.80078125
-18.81542969 0.64843750 1.77539063
-18.87207031 0.58203125 1.76953125
-18.91943359 0.52734375 1.76464844
-18.83837891 0.69140625 1.77636719
-18.89501953 0.62500000 1.77050781
-18.97656250 0.51562500 1.76171875
-18.86669922 0.72656250 1.77734375
-19.11035156 0.35546875 1.74804688
-18.87451172 0.76562500 1.77929688
-18.80615234 0.90234375 1.78906250
-18.84472656 0.86328125 1.78515625
-18.89355469 0.81250000 1.78027344
-18.87646484 0.86328125 1.78417969
-18.91601563 0.82812500 1.78027344
-18.96777344 0.77343750 1.77539063
-18.94775391 0.82812500 1.77929688
-18.94628906 0.85546875 1.78125000
-18.92578125 0.91406250 1.78515625
-18.94970703 0.90234375 1.78320313
-19.01855469 0.82031250 1.77636719
-19.04882813 0.80078125 1.77343750
-19.01171875 0.88281250 1.77929688
-19.09375000 0.78125000 1.77050781
-19.08593750 0.82031250 1.77343750
-19.10351563 0.81640625 1.77246094
-19.12792969 0.80859375 1.77050781
-19.16210938 0.78125000 1.76855469
-19.28515625 0.62500000 1.75488281
-19.31054688 0.61328125 1.75292969
-19.16308594 0.85546875 1.77148438
-19.11523438 0.97265625 1.78027344
-19.04296875 1.10156250 1.78906250
-19.09765625 1.04687500 1.78417969
-19.03027344 1.16406250 1.79296875
-19.15917969 1.00390625 1.77929688
-19.05175781 1.17968750 1.79296875
-19.12597656 1.09765625 1.78613281
-19.14355469 1.09765625 1.78515625
-19.10351563 1.17578125 1.79101563
-19.12695313 1.16406250 1.78906250
-19.16210938 1.14062500 1.78613281
-19.16210938 1.16406250 1.78710938
-19.22460938 1.10156250 1.78222656
-23.56640625 -4.64062500 1.30468750
-23.96484375 -4.35156250 1.30078125
-23.58593750 -3.78906250 1.34570313
-23.68359375 -3.50000000 1.35546875
-23.69531250 -3.46875000 1.35644531
-23.69140625 -3.42187500 1.35839844
-23.71093750 -3.39843750 1.35937500
-23.72265625 -3.36718750 1.35937500
-23.82812500 -3.39843750 1.35351563
-23.65625000 -3.11718750 1.37500000
-23.75390625 -3.01562500 1.37500000
-23.80078125 -3.02343750 1.37207031
-22.83593750 -1.29687500 1.49804688
-23.32812500 -1.75781250 1.45214844
-23.03125000 -1.18750000 1.49218750
-23.53515625 -1.26171875 1.46289063
-27.26562500 -2.92968750 1.19628906
-20.87695313 2.12695313 1.74023438
-27.39843750 -2.39062500 1.20800781
-28.09375000 -2.83593750 1.15332031
-27.92187500 -2.54687500 1.17285156
-28.15625000 -2.66406250 1.15527344
-28.15625000 -2.61718750 1.15722656
-28.13281250 -2.56250000 1.16015625
-28.13281250 -2.51562500 1.16210938
-28.10937500 -2.37500000 1.16796875
-28.16406250 -2.36718750 1.16503906
-28.36718750 -2.45312500 1.15039063
-28.22656250 -2.32031250 1.16308594
-28.63281250 -2.54687500 1.13183594
-28.26562500 -2.21875000 1.16406250
-28.54687500 -2.35937500 1.14355469
-27.86718750 -1.88281250 1.19921875
-28.26562500 -2.09375000 1.16796875
-28.45312500 -1.91796875 1.16308594
-9.85156250 -3.60156250 1.38574219
-10.17187500 -3.74218750 1.39062500
-10.52734375 -3.85937500 1.39648438
-10.65234375 -3.69531250 1.41015625
-10.80468750 -3.52343750 1.42578125
-10.74609375 -3.67968750 1.41406250
-10.82031250 -3.59375000 1.42187500
-10.83593750 -3.61718750 1.42089844
-10.91796875 -3.57031250 1.42675781
-10.86718750 -3.71875000 1.41601563
-11.87500000 -1.89843750 1.56054688
-12.21484375 -1.34375000 1.60546875
-12.13281250 -1.53906250 1.59082031
-10.96093750 -3.81250000 1.41308594
-11.36328125 -3.41406250 1.45117188
-11.41796875 -3.52343750 1.44628906
-11.46093750 -3.48437500 1.44921875
-11.69140625 -3.07031250 1.48242188
-11.65234375 -3.20312500 1.47363281
-11.58593750 -3.39843750 1.45898438
-11.69921875 -3.21093750 1.47363281
-11.67187500 -3.38281250 1.46289063
-11.68359375 -3.40625000 1.46093750
-11.76171875 -3.29687500 1.47070313
-11.69921875 -3.48437500 1.45703125
-12.66796875 -1.44531250 1.61425781
-11.81640625 -3.35156250 1.46875000
-11.82031250 -3.39843750 1.46582031
-11.92187500 -3.45312500 1.46582031
-13.83203125 -1.17187500 1.66113281
-13.82421875 -1.25781250 1.65527344
-13.82031250 -1.31640625 1.65136719
-13.86718750 -1.28515625 1.65429688
-13.80859375 -1.54687500 1.63574219
-13.91406250 -1.30859375 1.65332031
-13.90625000 -1.39453125 1.64746094
-13.87890625 -1.56250000 1.63574219
-13.91796875 -1.47656250 1.64257813
-13.99218750 -1.34765625 1.65234375
-14.00000000 -1.38281250 1.65039063
-13.98046875 -1.51953125 1.64062500
-13.99218750 -1.54687500 1.63964844
-14.04687500 -1.47656250 1.64453125
-14.09570313 -1.49218750 1.64453125
-14.07812500 -1.63671875 1.63476563
-14.10351563 -1.67578125 1.63281250
-14.36718750 -1.32031250 1.66113281
-14.61718750 -1.00390625 1.68554688
-16.12597656 -1.86718750 1.63183594
-16.34082031 -2.24218750 1.60351563
-16.68554688 -4.60156250 1.43652344
-21.77734375 -6.23437500 1.21191406
-21.90429688 -6.42187500 1.19628906
-21.80859375 -6.15625000 1.21582031
-22.34375000 -6.35937500 1.18359375
-22.27343750 -6.02343750 1.20703125
-22.10937500 -5.66406250 1.23437500
-22.25781250 -5.67187500 1.22851563
-22.19921875 -5.50781250 1.24023438
-22.24218750 -5.46093750 1.24218750
-22.39062500 -5.65625000 1.22460938
-22.21875000 -5.24218750 1.25585938
-18.90527344 0.52734375 1.73144531
-18.90527344 0.58203125 1.73437500
-18.94091797 0.55078125 1.73144531
-22.80859375 -5.87500000 1.19531250
-22.60937500 -5.07031250 1.25000000
-18.92041016 0.92578125 1.75390625
-18.86230469 1.03906250 1.76269531
-18.96728516 0.92968750 1.75195313
-19.01562500 0.87890625 1.74707031
-19.01269531 0.93359375 1.75000000
-18.92724609 1.08593750 1.76269531
-19.03125000 0.95312500 1.75097656
-18.99072266 1.03906250 1.75683594
-19.06347656 0.95312500 1.74902344
-19.06835938 0.97265625 1.75000000
-19.25000000 0.73046875 1.72851563
-19.06445313 1.05078125 1.75488281
-19.23828125 0.84375000 1.73535156
-19.25683594 1.05859375 1.74609375
-19.19531250 1.16406250 1.75488281
-23.68750000 -3.41406250 1.29296875
-23.55468750 -3.13281250 1.31347656
-23.62890625 -3.17968750 1.30761719
-23.16796875 -1.92187500 1.39453125
-27.32812500 -3.03906250 1.10644531
-27.20312500 -2.56250000 1.13378906
-27.01562500 -2.33593750 1.15429688
-27.16406250 -2.40625000 1.14257813
-27.12500000 -2.29687500 1.14843750
-28.02343750 -2.16406250 1.09960938
-24.50390625 0.95703125 1.43261719
-11.26171875 -0.10546875 1.59863281
-11.21484375 -0.39843750 1.57910156
-11.29687500 -0.43750000 1.58105469
-11.23437500 -0.55468750 1.57128906
-11.42187500 -0.36718750 1.59082031
-11.38281250 -0.44531250 1.58398438
-11.20312500 -0.72265625 1.55957031
-11.36718750 -0.53125000 1.57812500
-11.12500000 -0.89453125 1.54589844
-9.59375000 -3.08593750 1.34570313
-9.57812500 -3.20312500 1.33789063
-9.59375000 -3.35156250 1.33007813
-11.05859375 -1.33203125 1.51660156
-9.67187500 -3.39062500 1.33105469
-11.45312500 -0.82812500 1.56445313
-9.62500000 -3.54687500 1.31933594
-9.64062500 -3.61718750 1.31542969
-11.39062500 -1.37890625 1.52832031
-9.96093750 -3.71093750 1.32324219
-11.09765625 -2.07812500 1.47167969
-10.19531250 -3.63281250 1.33789063
-11.25390625 -2.03125000 1.48144531
-12.13281250 -0.71093750 1.60058594
-11.57812500 -1.68750000 1.51660156
-11.64843750 -1.68750000 1.51855469
-10.60937500 -3.53125000 1.36035156
-10.69531250 -3.43750000 1.36914063
-10.66406250 -3.53906250 1.36132813
-10.55468750 -3.78125000 1.34179688
-10.55078125 -3.84375000 1.33789063
-10.76171875 -3.52343750 1.36718750
-10.84765625 -3.41406250 1.37695313
-10.84375000 -3.47656250 1.37304688
-11.88671875 -1.62890625 1.53222656
-11.00781250 -3.28125000 1.39160156
-11.80078125 -1.86718750 1.51269531
-12.12890625 -1.30859375 1.56152344
-12.21875000 -1.17968750 1.57324219
-12.24609375 -1.16796875 1.57519531
-12.18359375 -1.32812500 1.56250000
-12.05859375 -1.59765625 1.54003906
-11.95312500 -1.84765625 1.51953125
-12.07421875 -1.65625000 1.53710938
-11.01562500 -3.73437500 1.36230469
-12.23437500 -1.43359375 1.55664063
-10.98437500 -3.91406250 1.34960938
-12.18750000 -1.60546875 1.54394531
-11.28515625 -3.42968750 1.39160156
-11.34375000 -3.35937500 1.39843750
-11.49609375 -3.10937500 1.41992188
-12.25000000 -1.65625000 1.54296875
-11.71875000 -2.77343750 1.45019531
-11.82031250 -2.61718750 1.46386719
-11.79687500 -2.71875000 1.45703125
-11.69140625 -2.98437500 1.43554688
-13.53515625 0.77343750 1.74902344
-11.72656250 -3.01562500 1.43457031
-11.72656250 -3.06250000 1.43164063
-11.64453125 -3.29687500 1.41308594
-11.81250000 -2.99218750 1.43847656
-11.69140625 -3.30468750 1.41406250
-11.61718750 -3.51562500 1.39746094
-12.64453125 -1.35937500 1.57617188
-11.77343750 -3.28906250 1.41699219
-12.71484375 -1.28906250 1.58300781
-12.62890625 -1.52734375 1.56445313
-12.83984375 -1.10156250 1.59960938
-12.85937500 -1.10156250 1.60058594
-11.80859375 -3.50000000 1.40429688
-11.85937500 -3.44531250 1.40917969
-11.90625000 -3.39843750 1.41406250
-12.83593750 -1.32812500 1.58398438
-13.27734375 -0.55859375 1.65039063
-13.54687500 -0.61718750 1.65429688
-13.23046875 -1.56640625 1.57910156
-13.42968750 -1.17187500 1.61132813
-13.67187500 -0.59765625 1.65820313
-13.66406250 -0.66406250 1.65332031
-13.61328125 -0.85937500 1.63867188
-13.51953125 -1.17578125 1.61425781
-13.57421875 -1.07031250 1.62304688
-13.73437500 -0.65234375 1.65625000
-13.39062500 -1.71875000 1.57226563
-13.73828125 -0.84375000 1.64257813
-13.70312500 -1.00390625 1.63085938
-13.60937500 -1.33984375 1.60449219
-13.69140625 -1.13671875 1.62109375
-13.70312500 -1.15625000 1.61914063
-13.67578125 -1.30078125 1.60839844
-13.64062500 -1.47265625 1.59570313
-13.78515625 -1.06640625 1.62792969
-13.75390625 -1.22656250 1.61523438
-13.79296875 -1.21484375 1.61718750
-13.80468750 -1.23828125 1.61621094
-13.82812500 -1.21484375 1.61816406
-13.87109375 -1.12890625 1.62500000
-13.87500000 -1.17578125 1.62207031
-13.85156250 -1.30859375 1.61132813
-13.90234375 -1.19921875 1.62011719
-13.89453125 -1.28515625 1.61425781
-13.88671875 -1.37500000 1.60742188
-13.92187500 -1.31640625 1.61230469
-13.93750000 -1.32031250 1.61230469
-13.98437500 -1.21484375 1.62109375
-14.00000000 -1.23046875 1.62011719
-13.97265625 -1.38671875 1.60839844
-14.01562500 -1.30078125 1.61523438
-14.02343750 -1.33593750 1.61328125
-14.07617188 -1.20312500 1.62402344
-14.06835938 -1.29687500 1.61718750
-14.11328125 -1.19140625 1.62500000
-14.12109375 -1.22656250 1.62304688
-14.10351563 -1.36718750 1.61230469
-14.13671875 -1.30468750 1.61718750
-14.15234375 -1.30859375 1.61718750
-14.16210938 -1.33984375 1.61523438
-14.14257813 -1.49218750 1.60351563
-14.19531250 -1.35156250 1.61523438
-14.25390625 -1.17968750 1.62890625
-14.22656250 -1.36328125 1.61425781
-14.21679688 -1.48046875 1.60546875
-14.29492188 -1.21875000 1.62695313
-14.28125000 -1.35156250 1.61621094
-14.28906250 -1.39843750 1.61328125
-14.39453125 -1.00390625 1.64453125
-14.35156250 -1.26953125 1.62402344
-14.42382813 -1.01562500 1.64355469
-14.51367188 -0.68359375 1.66992188
-14.51757813 -0.73828125 1.66503906
-14.41406250 -1.37890625 1.61621094
-14.46093750 -1.23828125 1.62792969
-14.54687500 -0.89453125 1.65429688
-14.55273438 -0.94921875 1.65039063
-14.56640625 -0.96484375 1.64941406
-14.58007813 -0.97265625 1.64941406
-14.57812500 -1.06640625 1.64160156
-14.59765625 -1.05468750 1.64355469
-14.61718750 -1.03515625 1.64550781
-14.58007813 -1.31640625 1.62304688
-14.68945313 -0.82031250 1.66210938
-14.69726563 -0.85937500 1.65917969
-14.65429688 -1.19140625 1.63378906
-14.73242188 -0.84375000 1.66113281
-14.73828125 -0.90234375 1.65625000
-14.88867188 -0.19921875 1.70996094
-14.72851563 -1.24609375 1.63085938
-15.04101563 0.55078125 1.76757813
-14.96875000 0.03515625 1.72851563
-14.91210938 -0.49609375 1.68847656
-15.02734375 0.14453125 1.73730469
-15.32226563 1.22656250 1.82128906
-15.30273438 0.69921875 1.78125000
-15.39257813 -0.71875000 1.67578125
-15.51562500 0.74609375 1.78710938
-15.60742188 0.92187500 1.79980469
-15.63085938 0.94531250 1.80175781
-15.63867188 0.89843750 1.79785156
-16.03808594 -1.43750000 1.62109375
-16.25976563 -1.84765625 1.58886719
-16.27539063 -1.83203125 1.59082031
-16.33203125 -1.88671875 1.58593750
-16.35546875 -1.97656250 1.57910156
-16.37695313 -2.03125000 1.57421875
-16.57617188 -4.66406250 1.37402344
-16.61035156 -4.81250000 1.36328125
-16.62890625 -4.71875000 1.37011719
-16.65234375 -4.71093750 1.37011719
-16.70117188 0.97656250 1.79687500
-18.78125000 -5.42968750 1.28417969
-18.62792969 -3.75781250 1.40917969
-17.43066406 0.40234375 1.73828125
-17.52490234 0.17968750 1.72070313
-17.65600586 -0.20312500 1.68945313
-18.78613281 -3.71875000 1.40722656
-17.70703125 -0.17187500 1.69042969
-17.71533203 -0.15234375 1.69140625
-17.62841797 0.16406250 1.71679688
-17.48632813 0.68359375 1.75781250
-17.50341797 0.67187500 1.75585938
-17.53076172 0.70703125 1.75781250
-17.75390625 0.09375000 1.70800781
-17.86547852 -0.19140625 1.68457031
-17.70507813 0.31640625 1.72558594
-17.63281250 0.56250000 1.74511719
-17.63525391 0.59765625 1.74707031
-17.78552246 0.21093750 1.71484375
-17.97460938 -0.14843750 1.68457031
-17.82922363 0.32812500 1.72265625
-18.01220703 0.00000000 1.69335938
-17.68017578 0.93359375 1.76953125
-18.27197266 0.52343750 1.72070313
-18.07263184 1.03125000 1.76171875
-18.27539063 0.66796875 1.73046875
-18.34521484 0.58593750 1.72167969
-21.84960938 -6.39062500 1.12304688
-21.90039063 -6.42968750 1.11816406
-22.03125000 -6.60937500 1.10156250
-21.87890625 -6.24218750 1.13183594
-18.20373535 1.04296875 1.75781250
-18.19580078 1.08203125 1.76074219
-21.84765625 -5.96875000 1.15039063
-21.91796875 -6.03906250 1.14355469
-21.92578125 -5.99218750 1.14648438
-21.92968750 -5.92968750 1.15039063
-21.99609375 -5.92187500 1.14843750
-22.01171875 -5.88281250 1.15039063
-21.95898438 -5.71875000 1.16308594
-18.29125977 1.13671875 1.76074219
-21.99804688 -5.66406250 1.16503906
-21.88281250 -5.39062500 1.18847656
-22.08593750 -5.69531250 1.16015625
-22.15234375 -5.75781250 1.15332031
-22.04687500 -5.50000000 1.17382813
-22.11718750 -5.56250000 1.16699219
-22.07031250 -5.41406250 1.17871094
-22.03515625 -5.28906250 1.18847656
-19.07714844 -0.02343750 1.65234375
-22.10156250 -5.28906250 1.18554688
-18.79589844 0.53125000 1.70019531
-18.97949219 0.23828125 1.67382813
-18.88964844 0.42578125 1.68945313
-19.08398438 0.11718750 1.66113281
-19.08593750 0.14843750 1.66308594
-19.04492188 0.24609375 1.67089844
-18.92968750 0.46875000 1.69042969
-18.96289063 0.44140625 1.68750000
-19.04394531 0.33593750 1.67675781
-19.00781250 0.42187500 1.68359375
-19.02636719 0.42187500 1.68261719
-22.10546875 -4.55468750 1.23242188
-18.98925781 0.56640625 1.69335938
-18.93066406 0.68750000 1.70410156
-18.93603516 0.70312500 1.70507813
-19.06250000 0.53125000 1.68847656
-18.91259766 0.79296875 1.71093750
-18.95507813 0.75390625 1.70703125
-18.93554688 0.80859375 1.71093750
-19.00292969 0.73046875 1.70312500
-19.13476563 0.55078125 1.68652344
-18.84570313 1.02343750 1.72851563
-18.99951172 0.81250000 1.70800781
-19.04882813 0.76171875 1.70312500
-18.94189453 0.94921875 1.71972656
-18.96240234 0.94531250 1.71875000
-18.97363281 0.95312500 1.71777344
-18.97460938 0.97265625 1.71972656
-19.02441406 0.92187500 1.71386719
-19.00585938 0.97656250 1.71777344
-19.05664063 0.92578125 1.71289063
-19.02832031 0.99218750 1.71777344
-19.11132813 0.89453125 1.70800781
-19.12890625 0.89062500 1.70703125
-19.13378906 0.91015625 1.70800781
-19.18457031 0.85937500 1.70214844
-19.16210938 0.91796875 1.70703125
-19.12304688 0.99609375 1.71386719
-19.08691406 1.07421875 1.71972656
-19.10449219 1.07031250 1.71875000
-19.18652344 0.98046875 1.70996094
-19.16015625 1.03906250 1.71484375
-19.09863281 1.14843750 1.72363281
-19.15722656 1.08984375 1.71777344
-19.20898438 1.04296875 1.71191406
-19.11328125 1.19531250 1.72558594
-19.10937500 1.22265625 1.72753906
-19.05078125 1.32812500 1.73632813
-19.16210938 1.19921875 1.72363281
-19.13769531 1.25390625 1.72851563
-19.16503906 1.23828125 1.72558594
-19.15820313 1.26953125 1.72851563
-19.28417969 1.12500000 1.71289063
-19.26269531 1.17578125 1.71679688
-19.17382813 1.31250000 1.72949219
-23.77343750 -4.46875000 1.15820313
-23.63671875 -4.24218750 1.17871094
-20.20703125 0.21093750 1.61230469
-20.20898438 0.23437500 1.61425781
-20.26562500 0.19140625 1.60839844
-20.38085938 0.07421875 1.59570313
-23.78906250 -4.09375000 1.17871094
-23.92187500 -4.21093750 1.16601563
-23.79296875 -4.00000000 1.18457031
-23.67578125 -3.82031250 1.20117188
-20.42382813 0.16015625 1.59863281
-23.67578125 -3.72656250 1.20605469
-23.84375000 -3.88281250 1.18847656
-23.75781250 -3.73437500 1.20117188
-23.87109375 -3.82031250 1.19042969
-23.83984375 -3.73437500 1.19628906
-20.62890625 0.07812500 1.58203125
-23.78125000 -3.57812500 1.20898438
-23.80078125 -3.55468750 1.20898438
-23.74218750 -3.39843750 1.22070313
-23.62109375 -3.17187500 1.24023438
-20.72656250 0.15234375 1.58105469
-23.84765625 -3.34375000 1.21777344
-23.87890625 -3.33593750 1.21679688
-23.71875000 -2.46093750 1.27246094
-23.74609375 -2.45312500 1.27148438
-23.72265625 -2.39062500 1.27636719
-23.57031250 -2.15625000 1.29785156
-23.50781250 -2.05468750 1.30566406
-23.82031250 -2.33593750 1.27343750
-23.82031250 -2.29687500 1.27539063
-23.61718750 -2.05468750 1.29980469
-22.94531250 -1.34765625 1.37500000
-22.93750000 -1.30859375 1.37792969
-20.13476563 1.48437500 1.68457031
-23.75781250 -1.97265625 1.29589844
-23.48828125 -1.67187500 1.32714844
-23.84765625 -1.94531250 1.29199219
-23.21484375 -1.30859375 1.36132813
-23.15625000 -1.21875000 1.36914063
-23.40234375 -1.41796875 1.34472656
-22.96875000 -0.94531250 1.39453125
-23.74218750 -1.59375000 1.31542969
-23.38281250 -1.19921875 1.35644531
-23.98828125 -1.43359375 1.30859375
-22.45312500 0.69140625 1.50292969
-22.50781250 0.67578125 1.49902344
-22.51953125 0.69140625 1.49902344
-22.62890625 0.63281250 1.48925781
-22.53906250 0.72656250 1.49902344
-22.41796875 0.84375000 1.51171875
-22.70312500 0.65625000 1.48535156
-22.61328125 0.74609375 1.49511719
-22.60546875 0.77734375 1.49707031
-22.57421875 0.82421875 1.50097656
-22.59765625 0.83593750 1.50000000
-22.66406250 0.81250000 1.49414063
-22.72656250 0.79296875 1.48925781
-22.70703125 0.83203125 1.49218750
-22.57812500 0.94921875 1.50585938
-22.67968750 0.89843750 1.49707031
-22.63281250 0.95703125 1.50292969
-26.92968750 -1.98437500 1.09667969
-26.85156250 -1.85156250 1.10742188
-27.00781250 -1.92187500 1.09375000
-28.07812500 -2.48437500 0.99951172
-27.52343750 -2.07031250 1.05273438
-28.10937500 -2.21093750 1.00878906
-28.17187500 -2.20312500 1.00390625
-28.53906250 -2.27343750 0.97656250
-28.25000000 -2.04687500 1.00488281
-24.64843750 0.59765625 1.35058594
-24.52343750 0.78125000 1.36621094
-24.51562500 0.81640625 1.36718750
-4.00000000 -4.48437500 0.89306641
-4.03125000 -4.60937500 0.88916016
-4.64843750 -4.50781250 0.93212891
-10.83203125 0.40234375 1.56250000
-11.24218750 -0.45312500 1.53417969
-11.19140625 -0.67578125 1.51855469
-11.19921875 -0.69531250 1.51757813
-11.12500000 -0.82812500 1.50488281
-9.40625000 -3.34375000 1.26171875
-9.42187500 -3.41406250 1.25781250
-11.27343750 -0.95703125 1.50390625
-9.42968750 -3.63281250 1.24414063
-10.43750000 -3.61718750 1.29003906
-10.44140625 -3.77343750 1.27929688
-10.46875000 -3.76562500 1.28125000
-10.56640625 -3.65625000 1.29296875
-10.61718750 -3.60937500 1.29785156
-10.64843750 -3.60937500 1.29882813
-10.64453125 -3.67187500 1.29394531
-10.75781250 -3.51562500 1.30957031
-10.72656250 -3.62500000 1.30078125
-12.04296875 -1.31640625 1.51367188
-11.99218750 -1.44140625 1.50292969
-12.04296875 -1.39062500 1.50878906
-12.16796875 -1.20703125 1.52636719
-12.11328125 -1.34375000 1.51464844
-12.16406250 -1.28515625 1.52050781
-12.23046875 -1.20703125 1.52929688
-12.17578125 -1.34375000 1.51757813
-12.19140625 -1.35546875 1.51757813
-12.23046875 -1.32421875 1.52050781
-12.21093750 -1.39843750 1.51464844
-12.23046875 -1.40234375 1.51562500
-12.18750000 -1.52734375 1.50488281
-12.25000000 -1.45312500 1.51269531
-12.25390625 -1.48046875 1.51074219
-12.44531250 -1.15234375 1.54101563
-11.34375000 -3.35937500 1.34375000
-11.35156250 -3.39843750 1.34082031
-11.71093750 -2.74218750 1.40136719
-11.62500000 -2.96093750 1.38281250
-11.42578125 -3.40625000 1.34277344
-11.64453125 -3.02343750 1.37890625
-11.65625000 -3.05468750 1.37695313
-11.64062500 -3.13281250 1.37109375
-11.73046875 -3.00000000 1.38281250
-11.68359375 -3.15625000 1.37109375
-12.55468750 -1.38281250 1.52832031
-11.82421875 -2.96875000 1.38867188
-12.54296875 -1.49609375 1.52050781
-12.09375000 -2.50000000 1.43261719
-11.75000000 -3.28125000 1.36328125
-12.51953125 -1.67968750 1.50585938
-12.59765625 -1.55859375 1.51757813
-12.70703125 -1.35937500 1.53515625
-11.79296875 -3.42187500 1.35546875
-11.79687500 -3.46875000 1.35156250
-11.80078125 -3.51562500 1.34863281
-11.83984375 -3.48437500 1.35156250
-13.33593750 -1.34765625 1.55566406
-13.56640625 -0.86328125 1.59863281
-13.46093750 -1.35937500 1.55859375
-14.06054688 0.26562500 1.69726563
-13.57812500 -1.33984375 1.56347656
-13.55859375 -1.45703125 1.55371094
-13.63281250 -1.28906250 1.56835938
-13.60156250 -1.43359375 1.55664063
-13.69140625 -1.21875000 1.57519531
-13.70703125 -1.23046875 1.57519531
-13.73828125 -1.17968750 1.58007813
-13.75781250 -1.17968750 1.58007813
-13.76562500 -1.21484375 1.57812500
-13.81640625 -1.10156250 1.58789063
-13.80078125 -1.21093750 1.57812500
-13.78515625 -1.31640625 1.57031250
-13.80859375 -1.30078125 1.57226563
-13.83203125 -1.28515625 1.57421875
-13.82421875 -1.37500000 1.56640625
-13.82812500 -1.42187500 1.56347656
-13.83984375 -1.43750000 1.56250000
-13.88671875 -1.34375000 1.57031250
-13.92187500 -1.28125000 1.57617188
-13.89453125 -1.44531250 1.56250000
-13.88671875 -1.53125000 1.55566406
-13.98046875 -1.26171875 1.57910156
-13.99609375 -1.26171875 1.57910156
-14.01757813 -1.25390625 1.58007813
-14.03710938 -1.25000000 1.58105469
-14.03125000 -1.33203125 1.57421875
-14.07031250 -1.25390625 1.58105469
-14.08398438 -1.26953125 1.58105469
-14.50390625 0.26953125 1.70800781
-14.11523438 -1.27734375 1.58007813
-14.11718750 -1.33984375 1.57519531
-14.10937500 -1.43750000 1.56738281
-14.14648438 -1.36328125 1.57421875
-14.20703125 -1.19140625 1.58886719
-14.25000000 -1.08984375 1.59765625
-14.22656250 -1.24609375 1.58496094
-14.18359375 -1.50000000 1.56445313
-14.23437500 -1.36328125 1.57617188
-14.31054688 -1.11718750 1.59667969
