# .PCD v0.7 - Point Cloud Data file format
VERSION 0.7
FIELDS x y z
SIZE 4 4 4
TYPE F F F
COUNT 1 1 1
WIDTH 1380
HEIGHT 1
VIEWPOINT 0 0 0 1 0 0 0
POINTS 1380
DATA ascii
-5.58056641 -0.26989746 1.14944458
-5.81298828 -0.25793457 1.11984253
-5.81250000 -0.23803711 1.11971283
-5.12060547 -0.19982910 1.20729065
-5.39306641 -0.18823242 1.17250824
-5.07373047 -0.16223145 1.21292877
-4.69580078 -0.13684082 1.26073456
-5.57763672 -0.13452148 1.14851379
-5.17041016 -0.10925293 1.20001221
-5.09375000 -0.09008789 1.20947266
-5.22753906 -0.07312012 1.19236755
-5.32324219 -0.01794434 1.17944336
-9.37792969 0.00610352 0.89341736
-10.07373047 0.03125000 0.80007935
-9.99707031 0.05541992 0.81000519
-9.40429688 0.07507324 0.88903809
-9.28710938 0.09667969 0.90441132
-8.94921875 0.11511230 0.94930267
-9.08691406 0.13903809 0.93050385
-9.07421875 0.16101074 0.93190002
-4.89599609 0.09997559 1.49127960
-5.03955078 0.11547852 1.47176361
-4.91650391 0.12512207 1.48799896
-4.70068359 0.13159180 1.51666260
-4.89648438 0.14904785 1.49015045
-4.90722656 0.16174316 1.48850250
-4.74902344 0.16870117 1.50941467
-4.84082031 0.18395996 1.49687958
-4.75195313 0.19287109 1.50846863
-4.82031250 0.20764160 1.49904633
-4.77783203 0.21789551 1.50440979
-4.82373047 0.23193359 1.49809265
-4.89697266 0.24780273 1.48789215
-4.77343750 0.25390625 1.50414276
-4.92822266 0.27416992 1.48304749
-4.89843750 0.28503418 1.48684692
-4.90771484 0.29797363 1.48519897
-4.75048828 0.30078125 1.50614929
-4.96826172 0.32653809 1.47646332
-4.84521484 0.33105469 1.49272919
-4.85546875 0.34411621 1.49108124
-4.84179688 0.35559082 1.49256134
-4.94433594 0.37512207 1.47843933
-5.13964844 0.40222168 1.45185089
-4.91162109 0.39770508 1.48216248
-4.63818359 0.38867188 1.51870728
-6.96728516 0.59082031 1.20441437
-4.98144531 0.44104004 1.47176361
-4.67285156 0.42712402 1.51300812
-4.75146484 0.44604492 1.50199890
-4.76123047 0.45922852 1.50034332
-4.59228516 0.45544434 1.52289581
-5.28955078 0.53430176 1.42839813
-4.71484375 0.49108887 1.50556183
-10.44091797 1.08068848 0.73123932
-4.49707031 0.49279785 1.53426361
-9.07128906 0.98767090 0.91512299
-10.53369141 1.16833496 0.71665192
-9.80273438 1.11376953 0.81486511
-9.78222656 1.13586426 0.81702423
-4.37158203 0.53662109 1.54948425
-5.35449219 0.66357422 1.41584015
-9.66748047 1.19506836 0.83058167
-4.35888672 0.56909180 1.55003357
-9.55664063 1.22949219 0.84430695
-4.88378906 0.65856934 1.47796631
-9.86474609 1.31726074 0.80097961
-4.48779297 0.63159180 1.53096008
-9.78808594 1.35607910 0.81001282
-9.89892578 1.39587402 0.79419708
-9.87109375 1.41699219 0.79716492
-9.94238281 1.45166016 0.78682709
-9.71923828 1.44445801 0.81639099
-10.06494141 1.51965332 0.76850128
-10.06640625 1.54516602 0.76753998
-10.11962891 1.57836914 0.75953674
-10.17138672 1.61206055 0.75152588
-4.48583984 0.74890137 1.52700806
-10.28906250 1.70788574 0.73298645
-4.55175781 0.81921387 1.51564026
-4.52929688 0.86352539 1.51689148
-4.36279297 0.90405273 1.53678131
-8.92285156 2.06115723 0.89817810
-9.00244141 2.12585449 0.88530731
-4.94091797 1.39074707 1.44017029
-4.28955078 1.39001465 1.52247620
-3.92236328 -3.03491211 1.26206970
-4.02343750 -3.06481934 1.24826813
-4.11865234 -3.09167480 1.23522186
-3.94091797 -2.98974609 1.26174164
-4.02148438 -3.00903320 1.25096893
-4.15869141 -3.05468750 1.23182678
-4.37597656 -3.13635254 1.20127106
-4.18212891 -3.02819824 1.23007202
-1.70996094 -1.88439941 1.58705902
-4.12548828 -2.96582031 1.23974609
-3.89892578 -2.84545898 1.27313995
-3.79882813 -2.78308105 1.28826141
-4.12255859 -2.90942383 1.24244690
-4.11816406 -2.88940430 1.24385071
-3.91748047 -2.78283691 1.27345276
-4.00195313 -2.80249023 1.26190948
-4.05615234 -2.80798340 1.25494385
-4.09912109 -2.80859375 1.24948883
-3.83789063 -2.67907715 1.28749084
-4.02490234 -2.74133301 1.26145935
-4.15917969 -2.78002930 1.24304962
-4.17041016 -2.76647949 1.24216461
-4.31445313 -2.80895996 1.22223663
-4.65380859 -2.93017578 1.17481232
-2.20019531 -1.90417480 1.52409363
-4.47753906 -2.81970215 1.20127106
-4.67187500 -2.87963867 1.17444611
-4.43505859 -2.76525879 1.20865631
-4.54882813 -2.79199219 1.19327545
-4.84667969 -2.85192871 1.15320587
-4.74462891 -2.79260254 1.16835022
-4.46875000 -2.64855957 1.20857239
-4.34375000 -2.58251953 1.22679138
-5.14697266 -2.86767578 1.11436462
-5.15917969 -2.83142090 1.11409760
-5.32373047 -2.81042480 1.09368896
-5.65820313 -2.88830566 1.04829407
-5.81689453 -2.92321777 1.02673340
-5.43408203 -2.76733398 1.08090973
-5.33007813 -2.71020508 1.09607697
-5.31347656 -2.68420410 1.09900665
-5.27539063 -2.65063477 1.10498047
-5.12158203 -2.57812500 1.12704468
-5.43994141 -2.66577148 1.08329010
-5.19238281 -2.56225586 1.11836243
-4.95410156 -2.44421387 1.15256500
-4.83203125 -2.38513184 1.17004395
-5.05810547 -2.43933105 1.13928223
-4.91406250 -2.37353516 1.15982819
-5.17871094 -2.43884277 1.12369537
-5.29931641 -2.45739746 1.10747528
-1.90917969 -1.37390137 1.57710266
-5.15966797 -2.37402344 1.12789917
-5.31982422 -2.40368652 1.10630035
-1.86035156 -1.32543945 1.58454132
-5.22949219 -2.33630371 1.11983490
-2.36523438 -1.45532227 1.51537323
-5.28808594 -2.31469727 1.11267090
-5.01367188 -2.19445801 1.15152740
-5.25146484 -2.24475098 1.11917114
-4.60156250 -2.02014160 1.20945740
-4.87988281 -2.08068848 1.17172241
-4.66552734 -2.00195313 1.20153809
-4.61914063 -1.97106934 1.20832825
-4.57763672 -1.94201660 1.21434784
-4.76660156 -1.97546387 1.18888092
-4.66699219 -1.91247559 1.20323181
-4.75537109 -1.91784668 1.19158936
-3.94580078 -1.65502930 1.30339813
-4.53320313 -1.78881836 1.22335815
-6.70361328 -2.31872559 0.92732239
-6.77587891 -2.31372070 0.91794586
-6.63916016 -2.25695801 0.93700409
-4.11279297 -1.61572266 1.28208923
-3.17333984 -1.37182617 1.41040039
-6.75830078 -2.19421387 0.92253876
-4.79980469 -1.62133789 1.19101715
-4.72949219 -1.58789063 1.20089722
-6.09326172 -1.80273438 1.01706696
-5.59033203 -1.67749023 1.08547974
-6.03125000 -1.74792480 1.02601624
-6.09472656 -1.71875000 1.01802826
-6.32861328 -1.72229004 0.98690033
-6.40917969 -1.69445801 0.97657776
-6.60009766 -1.70837402 0.95098114
-6.64990234 -1.69531250 0.94464111
-6.62402344 -1.66833496 0.94834900
-6.62695313 -1.64660645 0.94820404
-6.50390625 -1.60253906 0.96501923
-6.31250000 -1.54699707 0.99109650
-6.30419922 -1.52404785 0.99250031
-6.34130859 -1.50903320 0.98771667
-6.23486328 -1.46972656 1.00222015
-6.18017578 -1.43933105 1.00979614
-6.13085938 -1.41027832 1.01659393
-6.29980469 -1.41638184 0.99406433
-6.14746094 -1.37097168 1.01476288
-6.16699219 -1.35314941 1.01229858
-6.12890625 -1.32629395 1.01756287
-5.96435547 -1.28063965 1.03981781
-6.13378906 -1.28515625 1.01727295
-6.30810547 -1.28979492 0.99394226
-6.08007813 -1.23583984 1.02470398
-6.05908203 -1.21203613 1.02764893
-5.76757813 -1.15026855 1.06605530
-5.78662109 -1.13281250 1.06359100
-5.80029297 -1.11462402 1.06190491
-5.91699219 -1.10998535 1.04627991
-5.92480469 -1.09057617 1.04536438
-5.94921875 -1.07336426 1.04212952
-5.75488281 -1.02893066 1.06830597
-2.46142578 -0.60717773 1.51108551
-5.75195313 -0.98876953 1.06880188
-5.70214844 -0.96301270 1.07562256
-5.54199219 -0.92504883 1.09717560
-5.46191406 -0.89672852 1.10788727
-5.63085938 -0.89599609 1.08528137
-5.78222656 -0.89270020 1.06500244
-5.41406250 -0.83422852 1.11446381
-5.26513672 -0.79980469 1.13447571
-5.16162109 -0.77087402 1.14830780
-4.98388672 -0.73498535 1.17220306
-5.00781250 -0.71923828 1.16897583
-5.18212891 -0.71740723 1.14559174
-5.07861328 -0.68957520 1.15941620
-5.08496094 -0.67211914 1.15851593
-5.03466797 -0.64941406 1.16535187
-5.17919922 -0.64355469 1.14583588
-5.08154297 -0.61718750 1.15889740
-5.09960938 -0.60034180 1.15644073
-5.11132813 -0.58312988 1.15476227
-5.07714844 -0.56225586 1.15928650
-5.11230469 -0.54663086 1.15450287
-5.18798828 -0.53369141 1.14428711
-5.25781250 -0.51989746 1.13484192
-5.22949219 -0.49938965 1.13858032
-5.49609375 -0.49755859 1.10272217
-5.32226563 -0.46801758 1.12590027
-5.27587891 -0.44677734 1.13198090
-5.34619141 -0.43188477 1.12251282
-5.38183594 -0.41491699 1.11771393
-5.46191406 -0.40014648 1.10669708
-5.40380859 -0.37829590 1.11434937
-5.54882813 -0.36596680 1.09477997
-5.70507813 -0.35351563 1.07365417
-6.04199219 -0.34753418 1.02840424
-5.64160156 -0.31176758 1.08193207
-5.46142578 -0.28576660 1.10591125
-5.35107422 -0.26293945 1.12055969
-5.43750000 -0.24682617 1.10876465
-5.05468750 -0.21667480 1.15997314
-4.88623047 -0.19421387 1.18241119
-5.03613281 -0.18005371 1.16206360
-4.93701172 -0.15979004 1.17516327
-4.94824219 -0.14233398 1.17348480
-4.89013672 -0.12329102 1.18113708
-9.97509766 -0.13891602 0.81526947
-9.92773438 -0.11413574 0.82131195
-10.31542969 -0.09338379 0.76914978
-9.87353516 -0.06555176 0.82794952
-9.86132813 -0.04138184 0.82932281
-9.09472656 -0.01623535 0.93161774
-7.06640625 -0.00073242 0.81938934
-5.32617188 0.01892090 1.06542969
-7.84130859 0.04821777 0.70910645
-4.78466797 0.05285645 1.14150238
-4.76660156 0.07019043 1.14384460
-4.53417969 0.08508301 1.17655182
-4.74121094 0.10485840 1.14688873
-4.59570313 0.11987305 1.16729736
-4.40283203 0.13317871 1.19427490
-4.34326172 0.14868164 1.20237732
-4.52783203 0.16931152 1.17596436
-4.70507813 0.13098145 1.48207855
-4.66845703 0.14172363 1.48691559
-4.82958984 0.15844727 1.46389771
-4.63720703 0.16406250 1.49083710
-4.70556641 0.17846680 1.48091888
-4.62939453 0.18713379 1.49147797
-4.72607422 0.20288086 1.47746277
-4.63134766 0.21069336 1.49050140
-4.75830078 0.22814941 1.47239685
-4.72216797 0.23840332 1.47721863
-4.82421875 0.25549316 1.46238708
-5.04882813 0.27954102 1.43032837
-4.99511719 0.28930664 1.43762207
-4.85400391 0.29370117 1.45721436
-4.82373047 0.30407715 1.46121979
-4.86914063 0.31909180 1.45457458
-9.21142578 0.61376953 0.83846283
-5.07324219 0.35754395 1.42486572
-9.94091797 0.70996094 0.73394775
-10.43603516 0.77001953 0.66320038
-4.61718750 0.36193848 1.48860168
-10.39599609 0.81823730 0.66776276
-9.36962891 0.76245117 0.81288147
-9.38476563 0.78674316 0.81025696
-4.54687500 0.40307617 1.49729919
-9.47119141 0.84057617 0.79677582
-9.14550781 0.83483887 0.84260559
-4.71386719 0.45312500 1.47241974
-9.15576172 0.88122559 0.83982086
-9.45898438 0.93298340 0.79611969
-9.21386719 0.93212891 0.83046722
-4.87304688 0.51745605 1.44824982
-9.85937500 1.04443359 0.73727417
-9.09423828 0.98815918 0.84561157
-9.11425781 1.01293945 0.84215546
-4.77783203 0.55688477 1.46023560
-9.62646484 1.11596680 0.76783752
-9.14404297 1.08447266 0.83592224
-9.20947266 1.11499023 0.82589722
-9.32763672 1.15197754 0.80845642
-9.58886719 1.20727539 0.77045441
-9.83740234 1.26232910 0.73409271
-9.72412109 1.27221680 0.74955750
-9.55371094 1.27453613 0.77326202
-9.61328125 1.30627441 0.76403046
-9.27587891 1.28479004 0.81159973
-9.54785156 1.34545898 0.77192688
-9.46875000 1.35827637 0.78247833
-9.77441406 1.42529297 0.73783875
-10.03466797 1.48730469 0.69977570
-10.00097656 1.50769043 0.70373535
-10.06542969 1.54223633 0.69367218
-10.11816406 1.57556152 0.68527222
-10.13671875 1.60388184 0.68178558
-10.32031250 1.65808105 0.65442657
-10.28125000 1.67785645 0.65919495
-10.33398438 1.71215820 0.65077209
-10.44824219 1.75708008 0.63328552
-10.30664063 1.75976563 0.65287781
-10.03857422 1.74072266 0.69062042
-10.06787109 1.77099609 0.68550110
-10.17089844 1.81433105 0.66966248
-8.73486328 1.63232422 0.87453461
-4.65527344 1.98681641 1.40434265
-4.75244141 2.03942871 1.38844299
-4.77783203 2.07885742 1.38243866
-4.89843750 2.20239258 1.35868073
-4.22314453 1.98791504 1.45913696
-3.94482422 -3.07507324 1.20819855
-4.02392578 -3.09521484 1.19686127
-3.97851563 -3.05480957 1.20477295
-3.94335938 -3.01977539 1.21107483
-3.82763672 -2.94763184 1.22941589
-4.07031250 -3.04394531 1.19320679
-4.10302734 -3.04077148 1.18907166
-3.98828125 -2.96923828 1.20742035
-4.25830078 -3.07531738 1.16717529
-4.07958984 -2.97497559 1.19514465
-3.62207031 -2.71472168 1.26706696
-3.84521484 -2.78002930 1.23473358
-3.93066406 -2.80029297 1.22257996
-3.80810547 -2.72937012 1.24174500
-3.73974609 -2.68212891 1.25287628
-3.84082031 -2.70886230 1.23831177
-4.72558594 -2.95422363 1.11050415
-4.55468750 -2.86462402 1.13690948
-4.67041016 -2.79675293 1.12412262
-4.31982422 -2.64062500 1.17710114
-4.41162109 -2.65795898 1.16410828
-1.35888672 -1.44262695 1.61949921
-5.47558594 -2.96533203 1.00968933
-5.55761719 -2.97485352 0.99826813
-5.45117188 -2.83068848 1.01773071
-5.28320313 -2.72949219 1.04404449
-4.49951172 -2.41650391 1.16069031
-5.20605469 -2.64221191 1.05735779
-4.89306641 -2.51501465 1.10399628
-5.26611328 -2.62268066 1.04981995
-1.30908203 -1.26770020 1.63134003
-0.98193359 -1.14831543 1.67967987
-1.33496094 -1.25720215 1.62799835
-4.71923828 -2.36230469 1.13241577
-1.21875000 -1.19946289 1.64559937
-1.44726563 -1.26403809 1.61244202
-1.50878906 -1.27441406 1.60350800
-1.36767578 -1.21899414 1.62442780
-1.88964844 -1.37438965 1.54845428
-1.32177734 -1.18518066 1.63156891
-1.48437500 -1.22619629 1.60807800
-1.48046875 -1.21508789 1.60881805
-1.53808594 -1.22277832 1.60066986
-5.15283203 -2.30920410 1.07461548
-1.03125000 -1.04992676 1.67486572
-1.08300781 -1.05651855 1.66754913
-5.33398438 -2.30432129 1.04997253
-5.24365234 -2.25805664 1.06358337
-5.22021484 -2.23156738 1.06748962
-5.60302734 -2.30163574 1.01304626
-1.25976563 -1.05334473 1.64292145
-5.51611328 -2.21618652 1.02718353
-4.57568359 -1.93725586 1.16378021
-4.35986328 -1.86108398 1.19521332
-6.18359375 -2.22753906 0.93459320
-6.44531250 -2.25024414 0.89784241
-2.70800781 -1.29443359 1.43634796
-3.03955078 -1.34973145 1.38918304
-6.73828125 -2.23229980 0.85754395
-6.25683594 -2.00708008 0.92890930
-6.18505859 -1.77685547 0.94283295
-5.81347656 -1.68029785 0.99626923
-4.78417969 -1.43627930 1.14378357
-5.13427734 -1.48681641 1.09411621
-6.53759766 -1.73840332 0.89418030
-6.54150391 -1.71704102 0.89402771
-6.46435547 -1.68054199 0.90523529
-6.66650391 -1.69628906 0.87665558
-6.60693359 -1.66296387 0.88544464
-6.22216797 -1.57141113 0.94055176
-6.48779297 -1.59729004 0.90301514
-6.38720703 -1.55798340 0.91749573
-6.18457031 -1.50122070 0.94660187
-6.52392578 -1.53808594 0.89849091
-6.20751953 -1.46289063 0.94386292
-6.15234375 -1.43273926 0.95185089
-6.18359375 -1.41674805 0.94763947
-5.79589844 -1.33361816 1.00280762
-6.07861328 -1.35839844 0.96280670
-6.08740234 -1.33874512 0.96184540
-6.08984375 -1.31823730 0.96169281
-5.93115234 -1.27368164 0.98434448
-6.23730469 -1.29882813 0.94105530
-6.00439453 -1.24353027 0.97428894
-6.08105469 -1.23400879 0.96356201
-6.02587891 -1.20544434 0.97156525
-5.70068359 -1.13977051 1.01782990
-5.90869141 -1.14855957 0.98836517
-5.95019531 -1.13391113 0.98253632
-5.99267578 -1.11901855 0.97668457
-5.83349609 -1.07800293 0.99935913
-6.14013672 -1.09692383 0.95602417
-5.83691406 -1.03833008 0.99906921
-5.76904297 -1.01000977 1.00872040
-5.74804688 -0.98754883 1.01183319
-5.61669922 -0.95239258 1.03044128
-5.66406250 -0.93835449 1.02378845
-5.55615234 -0.90661621 1.03913879
-5.74121094 -0.90771484 1.01290894
-5.80664063 -0.89489746 1.00379944
-5.27734375 -0.81921387 1.07870483
-5.40478516 -0.81372070 1.06063843
-5.38281250 -0.79260254 1.06375122
-5.38378906 -0.77307129 1.06280518
-5.32666016 -0.74890137 1.07082367
-5.27636719 -0.72534180 1.07804108
-5.23046875 -0.70251465 1.08445740
-5.13867188 -0.67590332 1.09740448
-5.13916016 -0.65771484 1.09726715
-5.16308594 -0.64147949 1.09387207
-5.11230469 -0.61877441 1.10108948
-5.27978516 -0.61389160 1.07726288
-5.11816406 -0.58300781 1.10002899
-5.11914063 -0.56469727 1.09988403
-5.15429688 -0.54907227 1.09485626
-5.16113281 -0.53100586 1.09390259
-5.23046875 -0.51745605 1.08396149
-5.08056641 -0.48925781 1.10509491
-5.21337891 -0.47949219 1.08615875
-5.13818359 -0.45666504 1.09667206
-5.28369141 -0.44665527 1.07607269
-5.16748047 -0.42163086 1.09231567
-5.08691406 -0.39904785 1.10364532
-5.00585938 -0.37683105 1.11498260
-5.14453125 -0.36560059 1.09519958
-5.05810547 -0.34338379 1.10734558
-4.98193359 -0.32189941 1.11786652
-5.03466797 -0.30615234 1.11037445
-5.32958984 -0.29943848 1.06848145
-5.45654297 -0.28540039 1.05032349
-5.20214844 -0.25781250 1.08622742
-4.96386719 -0.23193359 1.11969757
-4.89990234 -0.21215820 1.12858582
-5.00390625 -0.19726563 1.11371613
-4.78906250 -0.17407227 1.14390564
-5.21240234 -0.16589355 1.08394623
-4.99658203 -0.14318848 1.11415863
-4.80419922 -0.12207031 1.14109039
-4.68798828 -0.10278320 1.15735626
-5.04687500 -0.09008789 1.10639191
-4.94726563 -0.07092285 1.12020874
-5.30615234 -0.05590820 1.06923676
-5.34667969 -0.03735352 1.06335449
-5.24609375 -0.01831055 1.07717896
-9.92382813 0.00549316 0.66715240
-10.09033203 0.03015137 0.64200592
-8.57812500 0.04650879 0.86663818
-4.91699219 0.03833008 1.41094971
-10.02441406 0.10327148 0.65094757
-4.89794922 0.06274414 1.41336060
-5.46386719 0.08349609 1.32881927
-5.02246094 0.08947754 1.39422607
-4.94580078 0.10058594 1.40534973
-4.78857422 0.10949707 1.42852783
-4.82226563 0.12231445 1.42327118
-4.60693359 0.12866211 1.45509338
-4.65185547 0.14147949 1.44809723
-4.86523438 0.16015625 1.41610718
-4.63232422 0.16442871 1.45051575
-4.83935547 0.18371582 1.41938782
-4.83203125 0.19555664 1.42015839
-4.77832031 0.20568848 1.42783356
-4.66699219 0.21276855 1.44415283
-5.00195313 0.24011230 1.39401245
-4.87890625 0.24670410 1.41204834
-9.26708984 0.48156738 0.75675964
-5.00878906 0.27819824 1.39200592
-4.97167969 0.28894043 1.39710236
-5.65332031 0.34082031 1.29510498
-5.37353516 0.33825684 1.33646393
-5.30859375 0.34777832 1.34587860
-5.30029297 0.36059570 1.34664917
-5.66259766 0.39843750 1.29212189
-5.05419922 0.37036133 1.38274384
-5.35302734 0.40454102 1.33770752
-5.17236328 0.40478516 1.36441040
-5.14111328 0.41540527 1.36864471
-6.54785156 0.54003906 1.15762329
-6.00976563 0.51245117 1.23790741
-5.16503906 0.45666504 1.36402893
-5.21972656 0.47460938 1.35530853
-5.16650391 0.48303223 1.36299896
-5.38916016 0.51647949 1.32916260
-5.31787109 0.52355957 1.33945465
-5.31591797 0.53686523 1.33935547
-5.38232422 0.55712891 1.32888031
-5.29394531 0.56188965 1.34176636
-5.40673828 0.58703613 1.32436371
-5.34082031 0.59399414 1.33377838
-5.78222656 0.65515137 1.26702881
-5.52587891 0.64172363 1.30503082
-5.33935547 0.63476563 1.33263397
-5.28076172 0.64160156 1.34119415
-5.36376953 0.66491699 1.32810974
-5.28613281 0.66943359 1.33927917
-9.03710938 1.14196777 0.77356720
-5.53417969 0.72753906 1.30097198
-9.38134766 1.23083496 0.72039795
-9.50927734 1.27099609 0.70030212
-5.85351563 0.81237793 1.25126648
-5.38037109 0.76379395 1.32223511
-5.33691406 0.77172852 1.32821655
-5.50097656 0.80834961 1.30297089
-5.38378906 0.80590820 1.32021332
-5.49511719 0.83593750 1.30278015
-5.36621094 0.83129883 1.32174683
-5.39746094 0.84985352 1.31646729
-5.02246094 0.80725098 1.37274933
-10.34277344 1.63830566 0.56593323
-5.83496094 0.96044922 1.24849701
-5.28857422 0.88879395 1.33081818
-5.12011719 0.87536621 1.35588837
-9.74560547 1.64514160 0.65285492
-6.75878906 1.92492676 1.07114410
-6.61914063 2.05078125 1.08404541
-3.97705078 -3.19372559 1.14047241
-3.77001953 -3.07299805 1.17500305
-3.80322266 -3.07116699 1.17066193
-3.67871094 -2.99255371 1.19168854
-3.81054688 -3.03894043 1.17128754
-3.70166016 -2.96862793 1.18977356
-3.70751953 -2.95397949 1.18967438
-3.83886719 -2.99951172 1.16927338
-3.94531250 -3.03186035 1.15309906
-3.82519531 -2.95715332 1.17327881
-3.50683594 -2.78979492 1.22560120
-3.26562500 -2.66040039 1.26525879
-3.54443359 -2.77368164 1.22116852
-3.88671875 -2.91467285 1.16690826
-3.93505859 -2.91894531 1.16004181
-3.79345703 -2.83666992 1.18361664
-3.89355469 -2.86499023 1.16827393
-3.87353516 -2.83801270 1.17239380
-3.69970703 -2.74267578 1.20106506
-3.66259766 -2.70910645 1.20773315
-3.68945313 -2.70410156 1.20423889
-4.02929688 -2.83605957 1.15078735
-3.90820313 -2.76513672 1.17098999
-3.89746094 -2.74316406 1.17342377
-3.93505859 -2.74182129 1.16822815
-4.03076172 -2.76525879 1.15371704
-4.04687500 -2.75451660 1.15190887
-4.19726563 -2.79980469 1.12890625
-4.24609375 -2.80187988 1.12201691
-4.27783203 -2.79711914 1.11766052
-4.18750000 -2.74133301 1.13280487
-4.06933594 -2.67504883 1.15218353
-4.04833984 -2.63098145 1.15704346
-4.09570313 -2.52673340 1.15455627
-5.72998047 -3.00390625 0.90406799
-5.73632813 -2.98449707 0.90392303
-5.97460938 -2.93786621 0.87162781
-5.34521484 -2.69848633 0.97007751
-4.62207031 -2.43005371 1.08300781
-4.53320313 -2.38146973 1.09734344
-4.86767578 -2.47607422 1.04619598
-4.55908203 -2.35375977 1.09455109
-4.77294922 -2.40637207 1.06211090
-4.84375000 -2.41088867 1.05177307
-2.45312500 -1.61047363 1.42170715
-4.97460938 -2.41540527 1.03279877
-4.85302734 -2.35693359 1.05223846
-1.76660156 -1.35351563 1.52867126
-2.15576172 -1.46569824 1.46901703
-1.64404297 -1.29333496 1.54810333
-4.79833984 -2.24584961 1.06352997
-4.84130859 -2.24047852 1.05744171
-4.97314453 -2.26171875 1.03772736
-4.88769531 -2.19812012 1.05196381
-5.05859375 -2.22998047 1.02627563
-4.99072266 -2.19079590 1.03723145
-5.35693359 -2.27807617 0.98170471
-5.10498047 -2.18579102 1.02077484
-5.17626953 -2.18676758 1.01042175
-5.35302734 -2.21752930 0.98386383
-5.33496094 -2.19250488 0.98713684
-5.36816406 -2.18164063 0.98273468
-4.45166016 -1.87500000 1.12390137
-5.75244141 -2.18481445 0.92661285
-5.73388672 -2.15930176 0.92989349
-5.84472656 -2.16735840 0.91353607
-6.24169922 -2.24877930 0.85367584
-6.02734375 -2.17224121 0.88681030
-6.21142578 -2.19726563 0.85934448
-4.34375000 -1.70898438 1.14343262
-4.34130859 -1.69128418 1.14417267
-6.30859375 -2.15576172 0.84609222
-3.00439453 -1.31970215 1.34792328
-6.03369141 -2.02490234 0.88918304
-2.96240234 -1.25549316 1.35522461
-4.53515625 -1.53002930 1.11882019
-4.46337891 -1.49755859 1.12980652
-4.65625000 -1.50366211 1.10136414
-4.85205078 -1.52661133 1.07216644
-5.75146484 -1.69287109 0.93688965
-6.07763672 -1.73876953 0.88798523
-6.08105469 -1.71850586 0.88784790
-5.08398438 -1.50036621 1.03829956
-6.41748047 -1.69824219 0.83847046
-6.49511719 -1.64709473 0.82775116
-6.64648438 -1.65246582 0.80532837
-6.10156250 -1.53320313 0.88739014
-6.84619141 -1.64294434 0.77589417
-6.63232422 -1.58312988 0.80828857
-6.73779297 -1.57897949 0.79271698
-6.95263672 -1.59240723 0.76086426
-6.72070313 -1.53100586 0.79582977
-6.16308594 -1.41772461 0.87965393
-6.21142578 -1.40441895 0.87265015
-6.03076172 -1.35388184 0.89901733
-5.99853516 -1.32812500 0.90402222
-6.01269531 -1.30969238 0.90216064
-6.01513672 -1.28918457 0.90201569
-6.00537109 -1.26721191 0.90358734
-5.90429688 -1.23181152 0.91889954
-5.71728516 -1.18469238 0.94706726
-5.81689453 -1.17883301 0.93233490
-6.01367188 -1.18603516 0.90300751
-6.72070313 -1.26220703 0.79724884
-5.90185547 -1.13012695 0.91988373
-5.61621094 -1.07214355 0.96267700
-5.71093750 -1.06469727 0.94879913
-5.72998047 -1.04724121 0.94608307
-5.73730469 -1.02844238 0.94509125
-5.66357422 -0.99951172 0.95611572
-5.92382813 -1.01110840 0.91732025
-5.53369141 -0.94506836 0.97560883
-5.44873047 -0.91589355 0.98836517
-5.69775391 -0.92480469 0.95127106
-5.73876953 -0.90966797 0.94510651
-5.68896484 -0.88439941 0.95270538
-5.69042969 -0.86474609 0.95256805
-5.62792969 -0.83874512 0.96189117
-5.56542969 -0.81286621 0.97120667
-5.52587891 -0.78967285 0.97708893
-5.37109375 -0.75561523 1.00018311
-5.29687500 -0.72973633 1.01123810
-5.25195313 -0.70678711 1.01799011
-5.29833984 -0.69238281 1.01097107
-5.22412109 -0.66735840 1.02202606
-5.26611328 -0.65209961 1.01586151
-5.16845703 -0.62561035 1.03037262
-5.48046875 -0.63183594 0.98375702
-5.04199219 -0.57910156 1.04905701
-5.11181641 -0.56628418 1.03859711
-5.05517578 -0.54394531 1.04706573
-5.11279297 -0.52978516 1.03832245
-5.00341797 -0.50415039 1.05457306
-4.93994141 -0.48205566 1.06392670
-4.84179688 -0.45812988 1.07844543
-4.85986328 -0.44152832 1.07572937
-4.94091797 -0.42858887 1.06354523
-4.88916016 -0.40795898 1.07118225
-4.99853516 -0.39599609 1.05467224
-5.02783203 -0.37939453 1.05024719
-5.24218750 -0.37170410 1.01821136
-5.13720703 -0.34838867 1.03359985
-5.30517578 -0.33715820 1.00846100
-5.06787109 -0.30883789 1.04368591
-5.06738281 -0.29064941 1.04355621
-4.87646484 -0.26562500 1.07189941
-7.03125000 -0.23913574 1.10034180
-7.13476563 -0.22497559 1.08474731
-7.19189453 -0.20898438 1.07602692
-7.33642578 -0.19482422 1.05438232
-10.12109375 -0.24047852 0.64050293
-10.01660156 -0.21386719 0.65580750
-10.14355469 -0.19177246 0.63670349
-10.24169922 -0.16870117 0.62189484
-10.20654297 -0.14318848 0.62687683
-9.26171875 -0.10803223 0.76699829
-8.85009766 -0.08190918 0.82795715
-6.77539063 -0.04724121 1.13600159
-7.17968750 -0.03222656 1.07559967
-10.06982422 -0.01879883 0.64579773
-7.42871094 -0.00183105 0.62003326
-7.55957031 0.04602051 0.59887695
-7.84814453 0.09655762 0.55326843
-7.75341797 0.12036133 0.56759644
-7.49218750 0.14123535 0.60816956
-7.71093750 0.16870117 0.57358551
-7.63378906 0.19165039 0.58518982
-7.94580078 0.22241211 0.53610229
-7.78710938 0.24377441 0.56039429
-8.20654297 0.30468750 0.49390411
-3.30615234 0.19628906 1.26122284
-7.42675781 0.35437012 0.61483765
-8.51074219 0.41870117 0.44423676
-8.19531250 0.45800781 0.49282837
-4.31494141 0.20690918 1.46776581
-9.19580078 0.45336914 0.70377350
-4.21337891 0.22351074 1.48298645
-4.07373047 0.22680664 1.50462341
-4.30322266 0.25012207 1.46836853
-9.41943359 0.55664063 0.66694641
-9.17968750 0.56518555 0.70386505
-9.33886719 0.59765625 0.67838287
-9.20996094 0.61218262 0.69812775
-9.43896484 0.65026855 0.66178131
-9.27441406 0.66210938 0.68695068
-9.42724609 0.69580078 0.66235352
-9.53466797 0.72705078 0.64498901
-9.31298828 0.73327637 0.67922211
-9.22363281 0.74926758 0.69264221
-9.30761719 0.77893066 0.67890167
-9.40283203 0.80969238 0.66333771
-9.22070313 0.81726074 0.69126129
-9.54638672 0.86901855 0.63946533
-10.45458984 0.97521973 0.49617767
-9.34472656 0.89721680 0.66993713
-9.18603516 0.90515137 0.69422913
-9.47607422 0.95642090 0.64787292
-5.20800781 0.54992676 1.31919861
-9.33789063 0.98901367 0.66838074
-9.19042969 0.99658203 0.69087219
-9.33105469 1.03454590 0.66805267
-9.66113281 1.09411621 0.61529541
-9.24365234 1.07116699 0.68041992
-9.22900391 1.09240723 0.68207550
-9.35205078 1.12988281 0.66195679
-9.34277344 1.15197754 0.66271210
-9.12060547 1.14807129 0.69702148
-9.36328125 1.20117188 0.65784454
-9.56103516 1.24963379 0.62593079
-9.53955078 1.27075195 0.62849426
-5.26367188 0.73034668 1.30437469
-9.62353516 1.32971191 0.61363220
-5.11816406 0.75061035 1.32587433
-9.63964844 1.40441895 0.60858917
-5.36425781 0.81262207 1.28573608
-9.16162109 1.38256836 0.68272400
-9.66064453 1.47998047 0.60265350
-10.20019531 1.58581543 0.51618195
-10.22949219 1.61596680 0.51056671
-9.73291016 1.56420898 0.58851624
-9.84228516 1.60607910 0.57017517
-5.37939453 2.09338379 1.21355438
-4.17285156 1.92321777 1.39699554
-1.47167969 -1.85229492 1.52610779
-1.38623047 -1.47058105 1.55496216
-1.19824219 -1.30334473 1.58902740
-1.17968750 -1.23132324 1.59394073
-1.27539063 -1.20642090 1.58018494
-1.35400391 -1.22241211 1.56764221
-1.06933594 -1.12182617 1.61395264
-1.31445313 -1.19030762 1.57463837
-1.04931641 -0.98315430 1.62018585
-1.12988281 -0.99633789 1.60761261
-6.55078125 -2.27587891 0.74481964
-1.65917969 -0.95959473 1.52594757
-6.78808594 -1.69580078 0.71984863
-6.74658203 -1.62048340 0.72745514
-6.69677734 -1.58984375 0.73536682
-6.66894531 -1.54028320 0.74044037
-3.75732422 -1.02001953 1.19894409
-6.52490234 -1.42871094 0.76408386
-6.54492188 -1.40979004 0.76122284
-6.48388672 -1.37866211 0.77094269
-6.41455078 -1.32507324 0.78231049
-6.35107422 -1.27270508 0.79280090
-6.30126953 -1.24438477 0.80074310
-6.14892578 -1.20202637 0.82485199
-6.10449219 -1.17504883 0.83190918
-5.75000000 -1.10681152 0.88750458
-5.41503906 -1.02380371 0.94027710
-5.44189453 -0.98901367 0.93641663
-5.92041016 -1.02832031 0.86161804
-5.73242188 -0.98571777 0.89116669
-5.64697266 -0.95593262 0.90451813
-5.62988281 -0.93444824 0.90708923
-5.44287109 -0.87487793 0.93650818
-6.06787109 -0.90258789 0.83901978
-5.65478516 -0.83947754 0.90370178
-5.37353516 -0.79174805 0.94768524
-5.29980469 -0.76562500 0.95925903
-5.14404297 -0.73205566 0.98344421
-5.28906250 -0.70886230 0.96065521
-5.22900391 -0.66625977 0.97030640
-5.11425781 -0.63806152 0.98820496
-5.32812500 -0.63732910 0.95472717
-5.55957031 -0.63684082 0.91854858
-5.09765625 -0.58154297 0.98973846
-5.31250000 -0.56066895 0.95610046
-5.11767578 -0.51013184 0.98651886
-5.12890625 -0.49279785 0.98458862
-5.36621094 -0.48925781 0.94746399
-4.98535156 -0.44763184 1.00688934
-5.05419922 -0.43383789 0.99593353
-5.20996094 -0.40600586 0.97129822
-5.02636719 -0.36022949 0.99993896
-5.06689453 -0.34399414 0.99349213
-5.06689453 -0.32617188 0.99335480
-5.32617188 -0.31860352 0.95259857
-5.15771484 -0.29333496 0.97865295
-5.00097656 -0.25158691 1.00279999
-5.46337891 -0.22912598 0.93025208
-4.80419922 -0.19250488 1.03315735
-4.79833984 -0.17480469 1.03392029
-6.70849609 -0.06738281 0.73361969
-5.12890625 -0.03698730 0.98047638
-3.96435547 0.00000000 1.48749542
-9.79980469 0.02832031 0.53063202
-10.01806641 0.05334473 0.49445343
-4.33691406 0.03320313 1.42568970
-4.25537109 0.04333496 1.43887329
-4.45117188 0.05664063 1.40657806
-4.46142578 0.06811523 1.40460205
-4.55908203 0.08093262 1.38840485
-4.23974609 0.08605957 1.44046021
-4.22119141 0.09655762 1.44322968
-4.53173828 0.11486816 1.39196014
-4.32275391 0.12072754 1.42600250
-4.59960938 0.13977051 1.38040924
-4.13574219 0.13671875 1.45620728
-4.29003906 0.15246582 1.43050385
-4.39257813 0.16723633 1.41336060
-4.16699219 0.16955566 1.45027924
-4.37353516 0.18872070 1.41604614
-5.02441406 0.22802734 1.30873871
-4.68750000 0.22534180 1.36370087
-4.62255859 0.23425293 1.37405396
-8.89746094 0.46203613 0.67053986
-5.01220703 0.27819824 1.30932617
-4.91210938 0.28540039 1.32537842
-5.83349609 0.35107422 1.17335510
-9.00976563 0.55639648 0.64997101
-9.19238281 0.59008789 0.61942291
-9.39208984 0.62561035 0.58601379
-5.65332031 0.39758301 1.20143890
-9.38671875 0.67163086 0.58569336
-10.09912109 0.74609375 0.46769714
-9.68164063 0.73974609 0.53594971
-9.45410156 0.74633789 0.57284546
-9.52636719 0.77539063 0.56032562
-9.81689453 0.82263184 0.51168060
-9.34765625 0.80749512 0.58850861
-9.12060547 0.81103516 0.62542725
-9.25585938 0.84558105 0.60244751
-6.88818359 0.65295410 0.99311829
-9.05957031 0.87329102 0.63350677
-9.01123047 0.89111328 0.64095306
-5.89160156 0.60705566 1.15636444
-6.21630859 0.65478516 1.10203552
-5.55908203 0.60278320 1.21038818
-9.00390625 0.98022461 0.63938141
-9.01220703 1.00354004 0.63732147
-5.40283203 0.62817383 1.23484039
-5.73339844 0.67919922 1.17953491
-5.27148438 0.64074707 1.25559235
-5.77929688 0.71386719 1.17076111
-5.32373047 0.67407227 1.24587250
-5.55126953 0.71557617 1.20769501
-5.51367188 0.72521973 1.21330261
-5.41943359 0.72729492 1.22843933
-5.26806641 0.72180176 1.25311279
-5.35156250 0.74645996 1.23872375
-5.23388672 0.74450684 1.25768280
-5.46533203 0.78967285 1.21853638
-5.30810547 0.78198242 1.24416351
-5.39697266 0.80822754 1.22881317
-5.48583984 0.83508301 1.21347046
-5.23144531 0.81201172 1.25531769
-5.29785156 0.83544922 1.24377441
-5.19677734 0.83410645 1.25990295
-5.24609375 0.85510254 1.25122070
-5.12939453 0.85046387 1.27019501
-5.18847656 0.87341309 1.25961304
-5.16796875 0.88378906 1.26239014
-5.11376953 0.88842773 1.27087402
-5.19042969 0.91467285 1.25742340
-5.11376953 0.91540527 1.26972961
-4.94531250 0.90002441 1.29730988
-4.89160156 0.90368652 1.30580902
-4.97363281 0.93103027 1.29141235
-4.97656250 0.94482422 1.29036713
-4.87597656 0.93994141 1.30650330
-8.74902344 1.90979004 0.64414215
-8.64208984 1.93225098 0.66007233
-8.45556641 1.93640137 0.68941498
-6.74072266 1.90283203 0.96152496
-6.62988281 1.89123535 0.97959900
-3.96972656 1.47338867 1.41641235
-3.81445313 -3.11743164 1.05921936
-3.74414063 -3.04687500 1.07389069
-3.87451172 -3.09326172 1.05143738
-3.82470703 -3.05041504 1.06156921
-3.89941406 -3.05065918 1.05017090
-3.69677734 -2.93591309 1.08732605
-3.64648438 -2.87707520 1.09829712
-3.52636719 -2.80358887 1.12055206
-3.79492188 -2.91162109 1.07385254
-3.65869141 -2.83117676 1.09891510
-3.23876953 -2.55712891 1.17762756
-1.80029297 -1.77001953 1.43877411
-1.44433594 -1.38464355 1.51006317
-4.87841797 -2.40686035 0.92764282
-1.17187500 -1.18542480 1.55990601
-4.72363281 -2.22619629 0.95863342
-4.67236328 -2.19213867 0.96788788
-4.87207031 -2.17810059 0.93644714
-5.00585938 -2.14135742 0.91622162
-5.18066406 -2.15246582 0.88781738
-5.37451172 -2.18688965 0.85578156
-6.42626953 -2.43383789 0.67995453
-6.01171875 -2.29956055 0.75021362
-5.74316406 -2.20605469 0.79608154
-7.18310547 -2.56726074 0.55459595
-4.64892578 -1.85925293 0.98162079
-6.36865234 -2.26220703 0.69390106
-6.35009766 -2.21313477 0.69828796
-6.23095703 -2.16162109 0.71881866
-6.46533203 -2.19726563 0.68013763
-5.82910156 -1.95849609 0.78858185
-5.89843750 -1.93310547 0.77796173
-5.82910156 -1.89636230 0.79003906
-5.62451172 -1.82971191 0.82469940
-6.02832031 -1.89953613 0.75776672
-6.04882813 -1.88305664 0.75480652
-6.25000000 -1.90551758 0.72173309
-5.98242188 -1.82641602 0.76673889
-6.28515625 -1.86999512 0.71672058
-6.35107422 -1.86218262 0.70621490
-6.32031250 -1.83398438 0.71170807
-4.96484375 -1.53417969 0.93749237
-6.74658203 -1.87683105 0.64174652
-4.81494141 -1.44946289 0.96347809
-6.35498047 -1.68896484 0.70877838
-6.90673828 -1.74780273 0.61801910
-6.24951172 -1.60473633 0.72717285
-6.72509766 -1.66833496 0.64781189
-6.36376953 -1.58142090 0.70800781
-6.50976563 -1.58532715 0.68428040
-6.46093750 -1.55505371 0.69261169
-6.53222656 -1.54528809 0.68113708
-6.48925781 -1.51611328 0.68853760
-6.62255859 -1.51647949 0.66668701
-3.96777344 -1.06042480 1.10623169
-6.45703125 -1.44531250 0.69468689
-6.23681641 -1.38867188 0.73132324
-5.90234375 -1.31518555 0.78686523
-6.13281250 -1.33032227 0.74897003
-6.22656250 -1.32348633 0.73371124
-6.03515625 -1.27368164 0.76566315
-6.04833984 -1.25500488 0.76363373
-6.13574219 -1.24694824 0.74932098
-5.44580078 -1.12854004 0.86346436
-5.99169922 -1.18505859 0.77358246
-6.56542969 -1.24291992 0.67897797
-5.65136719 -1.09826660 0.82998657
-5.72705078 -1.08874512 0.81756592
-5.22509766 -1.00366211 0.90058136
-5.29492188 -0.99414063 0.88909912
-5.35986328 -0.98315430 0.87857056
-5.48681641 -0.97985840 0.85764313
-5.41455078 -0.95178223 0.86979675
-1.91992188 -0.52258301 1.44542694
-5.51464844 -0.92504883 0.85344696
-5.79150391 -0.93713379 0.80792236
-5.67187500 -0.90405273 0.82763672
-5.44873047 -0.86022949 0.86439514
-5.56005859 -0.85266113 0.84628296
-5.41699219 -0.81860352 0.86979675
-5.36083984 -0.79382324 0.87912750
-5.27539063 -0.76660156 0.89318085
-5.23583984 -0.74414063 0.89967346
-5.31152344 -0.73254395 0.88722992
-5.24902344 -0.70812988 0.89752197
-5.18603516 -0.68408203 0.90779877
-5.12353516 -0.66003418 0.91809082
-5.16455078 -0.64526367 0.91132355
-5.30419922 -0.63806152 0.88846588
-5.17724609 -0.60949707 0.90916443
-5.16064453 -0.58959961 0.91188049
-5.03417969 -0.56176758 0.93259430
-5.12060547 -0.55004883 0.91826630
-5.22607422 -0.53894043 0.90107727
-5.10498047 -0.51232910 0.92083740
-5.04736328 -0.49035645 0.93019104
-5.03613281 -0.47155762 0.93195343
-4.85742188 -0.44274902 0.96120453
-4.86328125 -0.42541504 0.96012878
-6.65625000 -0.37573242 1.05069733
-6.70312500 -0.36157227 1.04301453
-6.64501953 -0.34216309 1.05235291
-6.65576172 -0.32641602 1.05034637
-6.80078125 -0.31628418 1.02658081
-6.96777344 -0.30664063 0.99905396
-7.02490234 -0.29174805 0.98946381
-6.74121094 -0.26391602 1.03569031
-6.86279297 -0.25158691 1.01570129
-6.82861328 -0.23352051 1.02125549
-7.04101563 -0.22302246 0.98613739
-7.06933594 -0.20654297 0.98128510
-6.90136719 -0.18493652 1.00859070
-7.06250000 -0.17163086 0.98197937
-4.27783203 -0.09692383 1.43798065
-7.01562500 -0.13586426 0.98930359
-6.88232422 -0.11645508 1.01094818
-10.01855469 -0.14196777 0.49680328
-10.23193359 -0.11987305 0.46159363
-10.06982422 -0.09362793 0.48792267
-10.24218750 -0.07019043 0.45934296
-10.35107422 -0.04577637 0.44116974
-10.21777344 -0.02014160 0.46277618
-4.53173828 -0.00097656 0.95603180
-4.27197266 0.01550293 1.00071716
-4.68066406 0.03344727 0.92989349
-4.12353516 0.03100586 1.42893982
-4.11083984 0.04150391 1.43084717
-4.28271484 0.05383301 1.40097046
-4.07910156 0.06176758 1.43566895
-4.29248047 0.07580566 1.39882660
-4.43554688 0.08935547 1.37390900
-4.16894531 0.09460449 1.41954041
-4.46826172 0.11254883 1.36778259
-4.51220703 0.12487793 1.35976410
-4.28662109 0.12963867 1.39844513
-4.35449219 0.14270020 1.38643646
-4.28417969 0.15124512 1.39829254
-4.42675781 0.16735840 1.37335205
-4.34521484 0.17541504 1.38719940
-4.51123047 0.19323730 1.35827637
-4.48632813 0.20361328 1.36217499
-4.81933594 0.23010254 1.30440521
-4.61572266 0.23254395 1.33913422
-4.70068359 0.24853516 1.32413483
-4.57861328 0.25390625 1.34493256
-4.84179688 0.27990723 1.29907990
-5.45703125 0.32775879 1.19251251
-5.17871094 0.32470703 1.24019623
-5.04443359 0.32934570 1.26300049
-4.88183594 0.33166504 1.29077148
-5.14501953 0.36157227 1.24488831
-4.48095703 0.32836914 1.35929871
-4.28955078 0.32592773 1.39207458
-4.52880859 0.35485840 1.35018158
-4.45263672 0.36059570 1.36303711
-4.46240234 0.37280273 1.36096954
-4.32861328 0.37329102 1.38379669
-5.07958984 0.44726563 1.25321198
-5.80175781 0.52246094 1.12758636
-5.11035156 0.47595215 1.24705505
-5.54541016 0.52844238 1.17121887
-5.31933594 0.52124023 1.20999908
-8.88916016 0.87683105 0.58992767
-8.89160156 0.89916992 0.58877563
-5.22607422 0.55261230 1.22466278
-8.76513672 0.93029785 0.60940552
-5.17529297 0.57385254 1.23245239
-5.70166016 0.64379883 1.14061737
-6.03173828 0.69458008 1.08267212
-5.75927734 0.67932129 1.12944031
-5.89453125 0.70935059 1.10540009
-5.91992188 0.72753906 1.10031891
-5.91162109 0.74157715 1.10121155
-5.63427734 0.72277832 1.14898682
-5.20263672 0.68334961 1.22372437
-5.38330078 0.71960449 1.19169617
-5.18017578 0.70727539 1.22653961
-4.98291016 0.69445801 1.26039124
-5.22656250 0.74011230 1.21736908
-5.24707031 0.75634766 1.21327972
-5.12402344 0.75280762 1.23415375
-5.15527344 0.77062988 1.22807312
-5.18701172 0.78833008 1.22198486
-5.20166016 0.80395508 1.21890259
-5.28466797 0.82983398 1.20381165
-5.23535156 0.83618164 1.21171570
-5.11865234 0.83178711 1.23161316
-5.09277344 0.84106445 1.23551178
-5.16406250 0.86572266 1.22243500
-5.08740234 0.86682129 1.23532104
-5.07861328 0.87866211 1.23624420
-5.11523438 0.89807129 1.22915649
-4.99316406 0.89086914 1.25006104
-5.00634766 0.90637207 1.24696350
-5.01464844 0.92102051 1.24488068
-5.04052734 0.93859863 1.23978424
-5.08837891 0.96032715 1.23069000
-5.01660156 0.96105957 1.24261475
-4.93505859 0.95910645 1.25652313
-8.33642578 1.62390137 0.65510559
-4.92529297 0.99633789 1.25624847
-8.61914063 1.92199707 0.59342957
-8.71435547 1.96520996 0.57525635
-6.62646484 1.86572266 0.92642975
-5.61572266 2.00476074 1.08133698
-5.57714844 2.02380371 1.08617401
-5.45117188 1.99682617 1.10820770
-5.69091797 2.09533691 1.06283569
-5.65771484 2.10021973 1.06775665
-5.62988281 2.10705566 1.07169342
-5.56982422 2.10205078 1.08164978
-4.02441406 -3.08190918 0.97494507
-1.46923828 -1.83703613 1.45559692
-3.66748047 -2.84228516 1.04584503
-1.49023438 -1.81420898 1.45343781
-1.13378906 -1.56091309 1.52424622
-1.45507813 -1.59643555 1.46975708
-1.35888672 -1.49645996 1.48992920
-2.20556641 -1.81762695 1.33599091
-1.51220703 -1.50451660 1.46411133
-1.37939453 -1.44421387 1.48854828
-1.39892578 -1.44116211 1.48553467
-1.67675781 -1.51306152 1.43629456
-1.51171875 -1.44213867 1.46664429
-1.19042969 -1.30615234 1.52536011
-1.73730469 -1.49121094 1.42716980
-0.96679688 -1.20800781 1.56646729
-1.39306641 -1.34899902 1.48985291
-1.23437500 -1.27404785 1.51916504
-1.18115234 -1.24658203 1.52892303
-1.86962891 -1.46008301 1.40605164
-1.28173828 -1.25183105 1.51203918
-1.14111328 -1.19555664 1.53750610
-1.32324219 -1.24670410 1.50503540
-1.52880859 -1.30407715 1.46862030
-1.48925781 -1.27099609 1.47634125
-1.69482422 -1.32653809 1.43991852
-1.50976563 -1.25732422 1.47325897
-1.69335938 -1.30505371 1.44076538
-1.68457031 -1.29162598 1.44264984
-1.42822266 -1.20178223 1.48877716
-1.59570313 -1.24304199 1.45921326
-6.99462891 -2.79943848 0.50100708
-6.96142578 -2.71777344 0.50936890
-4.65234375 -2.03430176 0.91947937
-1.36425781 -1.07617188 1.50280762
-1.24951172 -1.03454590 1.52341461
-1.15576172 -0.99951172 1.54008484
-1.60351563 -1.11242676 1.46125793
-1.44921875 -1.06054688 1.48875427
-4.23291016 -1.79614258 0.99739838
-5.82519531 -2.18078613 0.71749115
-5.99169922 -2.20312500 0.68878174
-6.37939453 -2.23730469 0.62234497
-6.12548828 -2.15197754 0.66751862
-6.11962891 -2.12866211 0.66933441
-6.56054688 -2.21520996 0.59233093
-5.91796875 -2.01611328 0.70635986
-2.24316406 -1.12255859 1.35186005
-4.58007813 -1.64257813 0.94254303
-5.87646484 -1.92321777 0.71564484
-6.00732422 -1.84826660 0.69519806
-6.43896484 -1.85437012 0.62158203
-6.41943359 -1.82836914 0.62538910
-6.32080078 -1.78649902 0.64300537
-2.54980469 -0.96069336 1.30193329
-6.38574219 -1.66918945 0.63418579
-6.70654297 -1.70715332 0.57872009
-3.16210938 -1.03564453 1.19596863
-2.18603516 -0.84594727 1.36579132
-6.52832031 -1.60803223 0.61086273
-6.48046875 -1.57751465 0.61959839
-6.65380859 -1.58569336 0.58980560
-6.85498047 -1.59802246 0.55504608
-3.76220703 -1.05456543 1.09259796
-3.71826172 -1.03198242 1.10040283
-3.43554688 -0.97058105 1.14971924
-3.57958984 -0.97949219 1.12490082
-3.71142578 -0.98571777 1.10205841
-5.94824219 -1.32019043 0.71430206
-3.61181641 -0.94030762 1.11965942
-5.87304688 -1.26770020 0.72785950
-5.90869141 -1.25292969 0.72179413
-6.06494141 -1.25561523 0.69493103
-5.83300781 -1.20141602 0.73535919
-5.89794922 -1.19055176 0.72432709
-6.02587891 -1.18786621 0.70241547
-5.76416016 -1.13159180 0.74780273
-5.49121094 -1.07495117 0.79516602
-5.17285156 -1.01367188 0.85047150
-5.15673828 -0.99316406 0.85330963
-5.20458984 -0.98071289 0.84526062
-5.28662109 -0.97241211 0.83126068
-5.42529297 -0.97058105 0.80736542
-5.33447266 -0.94079590 0.82307434
-5.30126953 -0.91735840 0.82806396
-5.48583984 -0.91979980 0.79621887
-4.82275391 -0.82592773 0.91105652
-4.95556641 -0.82287598 0.88813782
-5.27783203 -0.83972168 0.83248901
-4.60156250 -0.74975586 0.94936371
-5.38330078 -0.81323242 0.81438446
-5.07421875 -0.76318359 0.86779785
-5.10986328 -0.74853516 0.86172485
-5.07031250 -0.72656250 0.86852264
-4.90429688 -0.69287109 0.89717102
-5.00781250 -0.68457031 0.87918091
-5.06689453 -0.67187500 0.86913300
-5.05615234 -0.65258789 0.87099457
-5.01611328 -0.63110352 0.87782288
-4.92480469 -0.60583496 0.89356995
-4.95361328 -0.59033203 0.88848114
-4.88037109 -0.56677246 0.90124512
-4.83984375 -0.54614258 0.90808868
-4.79443359 -0.52526855 0.91590118
-4.78320313 -0.50708008 0.91776276
-4.87548828 -0.49584961 0.90175629
-4.98535156 -0.48522949 0.88275146
-4.67431641 -0.44787598 0.93626404
-4.95605469 -0.44775391 0.88747406
-4.77832031 -0.41955566 0.91813660
-4.66259766 -0.39575195 0.93788910
-4.66308594 -0.37866211 0.93775940
-4.79589844 -0.36828613 0.91479492
-4.78417969 -0.35021973 0.91665649
-4.70898438 -0.32922363 0.92945099
-4.77880859 -0.31494141 0.91738892
-4.74365234 -0.29614258 0.92324829
-4.73193359 -0.27832031 0.92511749
-4.80029297 -0.26354980 0.91306305
-4.98437500 -0.25231934 0.88110352
-4.92187500 -0.23242188 0.89192200
-4.61572266 -0.20556641 0.94451141
-4.70703125 -0.19116211 0.92848206
-4.56250000 -0.17028809 0.95323181
-4.74609375 -0.15747070 0.92127991
-4.65332031 -0.13830566 0.93708038
-4.79150391 -0.12353516 0.91307068
-4.69287109 -0.10449219 0.92987061
-4.58837891 -0.08605957 0.94766235
-4.63330078 -0.06945801 0.93958282
-4.70800781 -0.05297852 0.92651367
-4.62646484 -0.03527832 0.94033813
-4.53320313 -0.01782227 0.95614624
-8.82470703 0.02416992 0.54565430
-8.70312500 0.04504395 0.56730652
-8.55224609 0.06530762 0.59414673
-8.57275391 0.08630371 0.58984375
-8.01904297 0.10046387 0.68937683
-7.52148438 0.13122559 0.77842712
-4.58740234 0.09216309 1.30700684
-4.64355469 0.11669922 1.29645538
-4.62500000 0.12792969 1.29948425
-5.03222656 0.15136719 1.22562408
-4.94433594 0.16125488 1.24111938
-4.90722656 0.18481445 1.24719238
-7.87060547 0.31152344 0.71174622
-7.76513672 0.34558105 0.73018646
-7.53906250 0.35437012 0.77060699
-7.59912109 0.37597656 0.75902557
-7.57373047 0.39355469 0.76305389
-8.23779297 0.46765137 0.64212799
-8.36816406 0.49560547 0.61805725
-5.93164063 0.38476563 1.05789185
-6.24023438 0.41967773 1.00160217
-8.51464844 0.58801270 0.58937073
-8.74218750 0.62487793 0.54758453
-8.76611328 0.66979980 0.54206848
-8.67773438 0.68481445 0.55752563
-8.71337891 0.73059082 0.54994965
-8.63037109 0.74511719 0.56437683
-8.60888672 0.76489258 0.56734467
-8.53662109 0.80078125 0.57954407
-8.36035156 0.80566406 0.61064148
-8.85058594 0.87341309 0.52091217
-8.48974609 0.88110352 0.58518982
-8.55517578 0.90893555 0.57254028
-6.07568359 0.66931152 1.02264404
-6.22216797 0.70043945 0.99543762
-8.19873047 0.95434570 0.63449860
-8.19873047 0.99536133 0.63317108
-8.08154297 1.00183105 0.65387726
-8.16894531 1.03283691 0.63705444
-6.03857422 0.78820801 1.02490997
-5.62158203 0.76501465 1.09980011
-5.39550781 0.74963379 1.14039612
-5.47119141 0.78771973 1.12559509
-5.22265625 0.76733398 1.17037201
-5.46533203 0.81518555 1.12540436
-5.43896484 0.82556152 1.12947845
-5.41357422 0.83593750 1.13355255
-5.65771484 0.90100098 1.08742523
-5.54492188 0.91247559 1.10705566
-5.19970703 0.87231445 1.16963196
-5.29394531 0.90087891 1.15177917
-5.44287109 0.93920898 1.12348175
-5.25830078 0.92272949 1.15679932
-5.24609375 0.94836426 1.15766907
-5.12792969 0.95483398 1.17838287
-5.26611328 0.99304199 1.15216064
-5.22265625 0.99914551 1.15938568
-5.15087891 0.99987793 1.17182922
-5.09130859 1.00244141 1.18219757
-4.94873047 1.00219727 1.20710754
-5.01220703 1.02795410 1.19446564
-4.99560547 1.05102539 1.19638062
-5.06591797 1.07836914 1.18269348
-8.68212891 1.86901855 0.50967407
-8.70996094 1.89746094 0.50323486
-8.72216797 1.92260742 0.49994659
-5.67089844 1.30493164 1.06484222
-5.54394531 1.29211426 1.08776093
-6.87500000 1.85961914 0.82424927
-5.90039063 2.03527832 0.97871399
-5.80126953 2.01989746 0.99647522
-5.65332031 2.01989746 1.02138519
-5.65722656 2.08642578 1.01572418
-3.52539063 -3.01831055 1.00290680
-3.63916016 -2.98828125 0.98603821
-3.30517578 -2.74194336 1.05706787
-3.51318359 -2.82507324 1.01708984
-3.30566406 -2.69384766 1.05983734
-3.45849609 -2.74841309 1.03109741
-4.36035156 -3.11254883 0.85790253
-3.99560547 -2.90905762 0.93132019
-3.69628906 -2.75646973 0.99056244
-3.80224609 -2.78662109 0.97101593
-3.88623047 -2.80712891 0.95555878
-3.76025391 -2.73388672 0.98103333
-3.86669922 -2.76318359 0.96146393
-3.61865234 -2.63757324 1.01051331
-3.27978516 -2.45861816 1.07787323
-3.46533203 -2.52209473 1.04295349
-3.83056641 -2.62683105 0.97504425
-3.71875000 -2.56323242 0.99746704
-3.84716797 -2.59924316 0.97379303
-3.69140625 -2.51867676 1.00443268
-3.92675781 -2.59765625 0.96026611
-4.08691406 -2.64526367 0.93043518
-4.17236328 -2.66198730 0.91493988
-3.78710938 -2.49011230 0.98963165
-4.12402344 -2.60717773 0.92597961
-4.08056641 -2.53735352 0.93691254
-4.03710938 -2.48571777 0.94693756
-4.00732422 -2.37109375 0.95754242
-2.93066406 -1.93359375 1.16352081
-4.21582031 -2.37731934 0.92117310
-4.28955078 -2.35058594 0.90953064
-4.58300781 -2.43432617 0.85499573
-4.58251953 -2.41577148 0.85588837
-4.55859375 -2.37121582 0.86182404
-2.57373047 -1.68798828 1.23560333
-4.47460938 -2.28857422 0.87994385
-4.49609375 -2.27746582 0.87673950
-4.35742188 -2.21472168 0.90334320
-4.52148438 -2.24963379 0.87342072
-4.62451172 -2.26464844 0.85479736
-4.70556641 -2.27209473 0.84029388
-4.41308594 -2.16174316 0.89566803
-2.34863281 -1.50097656 1.28211212
-4.62060547 -2.19030762 0.85842133
-4.47998047 -2.11132813 0.88594055
-4.24072266 -2.02185059 0.93107605
-3.92968750 -1.91174316 0.98958588
-3.93945313 -1.89819336 0.98844147
-4.36230469 -2.00622559 0.91015625
-4.21142578 -1.94494629 0.93884277
-4.28759766 -1.94982910 0.92535400
-5.10546875 -2.16650391 0.77397156
-4.54443359 -1.98828125 0.87879944
-5.51953125 -2.24414063 0.69857788
