# .PCD v0.7 - Point Cloud Data file format
VERSION 0.7
FIELDS x y z
SIZE 4 4 4
TYPE F F F
COUNT 1 1 1
WIDTH 1360
HEIGHT 1
VIEWPOINT 0 0 0 1 0 0 0
POINTS 1360
DATA ASCII
-7.75000000 2.82128906 1.78211975 
-7.69091797 2.84667969 1.78417969 
-7.47363281 2.79394531 1.79423523 
-7.53759766 2.83789063 1.79078674 
-7.58007813 2.87402344 1.78839111 
-7.62255859 2.91210938 1.78598022 
-7.73681641 2.97363281 1.78013611 
-7.68505859 2.97851563 1.78222656 
-7.46191406 2.92187500 1.79249573 
-7.58642578 2.98828125 1.78613281 
-7.70312500 3.07714844 1.77975464 
-7.83251953 3.14843750 1.77308655 
-7.78564453 3.15332031 1.77493286 
-7.85449219 3.20214844 1.77122498 
-7.56738281 3.11621094 1.78471375 
-6.92724609 3.17089844 1.81016541 
-7.11914063 3.27246094 1.80032349 
-7.04052734 3.26171875 1.80374146 
-7.16162109 3.33496094 1.79737854 
-7.10449219 3.33300781 1.79972839 
-6.98291016 3.30273438 1.80528259 
-7.13574219 3.39062500 1.79731750 
-7.18603516 3.43359375 1.79438782 
-7.33251953 3.52148438 1.78666687 
-7.18994141 3.48046875 1.79330444 
-6.77197266 3.68945313 1.80577087 
-6.72070313 3.68652344 1.80786133 
-2.57373047 -2.59863281 1.95448303 
-8.33154297 -1.58398438 1.71804810 
-5.63037109 0.00683594 1.87641907 
-5.58886719 0.02050781 1.87841797 
-5.66943359 0.05175781 1.87435913 
-8.46240234 0.26660156 1.73620605 
-8.61914063 0.29296875 1.72843933 
-2.45166016 0.19433594 2.03147888 
-10.35253906 0.71386719 1.64123535 
-9.70117188 0.77050781 1.67277527 
-9.16943359 0.80175781 1.69862366 
-6.55566406 0.60449219 1.82781982 
-6.99658203 0.66015625 1.80587769 
-6.77490234 0.69433594 1.81646729 
-6.81835938 0.71679688 1.81414795 
-10.21826172 1.09375000 1.64526367 
-8.00439453 0.89160156 1.75491333 
-8.77539063 0.99414063 1.71649170 
-7.68750000 0.91992188 1.77011108 
-8.80712891 1.06542969 1.71435547 
-7.95507813 1.21875000 1.75447083 
-7.83300781 1.36718750 1.75885010 
-8.03906250 1.44238281 1.74812317 
-8.17187500 1.55175781 1.74050903 
-7.96240234 1.55664063 1.75053406 
-8.04980469 1.59375000 1.74592590 
-8.18359375 1.64062500 1.73892212 
-8.24365234 1.69531250 1.73541260 
-8.26171875 1.72070313 1.73423767 
-8.20068359 1.75292969 1.73680115 
-8.25878906 1.78710938 1.73356628 
-8.09326172 1.77539063 1.74166870 
-7.66113281 1.75000000 1.76268005 
-7.88525391 1.81835938 1.75109863 
-7.97753906 1.85937500 1.74617004 
-7.52099609 1.78125000 1.76901245 
-8.05908203 1.91992188 1.74147034 
-8.39013672 2.01660156 1.72436523 
-7.88916016 1.92578125 1.74955750 
-7.91210938 1.95312500 1.74807739 
-7.81005859 1.95117188 1.75292969 
-7.81640625 1.97363281 1.75238037 
-7.83935547 2.00000000 1.75090027 
-7.86230469 2.02734375 1.74943542 
-8.03320313 2.08984375 1.74041748 
-8.06738281 2.12109375 1.73837280 
-7.84619141 2.08886719 1.74932861 
-7.61865234 2.05371094 1.76062012 
-7.51123047 2.04687500 1.76582336 
-7.68212891 2.11230469 1.75677490 
-7.40429688 2.06250000 1.77064514 
-7.50683594 2.10937500 1.76513672 
-7.54003906 2.13964844 1.76309204 
-7.88525391 2.25097656 1.74510193 
-7.78906250 2.24707031 1.74974060 
-7.26904297 2.12988281 1.77606201 
-7.99707031 2.34765625 1.73837280 
-7.83886719 2.32617188 1.74618530 
-7.40380859 2.22753906 1.76820374 
-7.62890625 2.31152344 1.75625610 
-7.52148438 2.30175781 1.76145935 
-7.75195313 2.41015625 1.74894714 
-7.42431641 2.33789063 1.76545715 
-7.55322266 2.39648438 1.75851440 
-7.50244141 2.40234375 1.76080322 
-7.71484375 2.48730469 1.74945068 
-7.73095703 2.51367188 1.74830627 
-7.59472656 2.49414063 1.75492859 
-7.69482422 2.54687500 1.74938965 
-8.06884766 2.68457031 1.72962952 
-7.91650391 2.66015625 1.73716736 
-7.66796875 2.62597656 1.74929810 
-7.78369141 2.68554688 1.74288940 
-7.70458984 2.68164063 1.74668884 
-7.50292969 2.63867188 1.75680542 
-7.79101563 2.75390625 1.74140930 
-7.59472656 2.71191406 1.75122070 
-7.71533203 2.77441406 1.74453735 
-7.64160156 2.77246094 1.74798584 
-7.56787109 2.76953125 1.75143433 
-7.35546875 2.72070313 1.76216125 
-7.45410156 2.77539063 1.75665283 
-7.49609375 2.81054688 1.75401306 
-7.56640625 2.85742188 1.74992371 
-7.52050781 2.86328125 1.75192261 
-7.52441406 2.88574219 1.75138855 
-7.31250000 2.83496094 1.76206970 
-7.74609375 3.00976563 1.73880005 
-7.56738281 2.96875000 1.74780273 
-7.51074219 2.96972656 1.75039673 
-7.58007813 3.01757813 1.74630737 
-7.58886719 3.04296875 1.74542236 
-7.56982422 3.05957031 1.74597168 
-7.65478516 3.11328125 1.74104309 
-7.46044922 3.06347656 1.75090027 
-7.42578125 3.07324219 1.75233459 
-7.83349609 3.25097656 1.73023987 
-7.44775391 3.12500000 1.75025940 
-7.45068359 3.14941406 1.74966431 
-7.36621094 3.13964844 1.75367737 
-7.43457031 3.18847656 1.74958801 
-7.72070313 3.32324219 1.73391724 
-7.44775391 3.26171875 1.74755859 
-7.69482422 3.38281250 1.73388672 
-7.32568359 3.28027344 1.75270081 
-7.16259766 3.25781250 1.76049805 
-6.95996094 3.19433594 1.77096558 
-6.87646484 3.18164063 1.77497864 
-7.00830078 3.25878906 1.76741028 
-7.04882813 3.29687500 1.76481628 
-7.05615234 3.32226563 1.76391602 
-7.10107422 3.36425781 1.76100159 
-7.06054688 3.36816406 1.76272583 
-6.99316406 3.36230469 1.76591492 
-7.03271484 3.39941406 1.76325989 
-6.83642578 3.33593750 1.77343750 
-7.18603516 3.51269531 1.75395203 
-7.03906250 3.46875000 1.76150513 
-6.89697266 3.42773438 1.76870728 
-6.74414063 3.38085938 1.77656555 
-6.76708984 3.41308594 1.77479553 
-6.96728516 3.54882813 1.76286316 
-6.73583984 3.46289063 1.77505493 
-6.74804688 3.49023438 1.77388000 
-6.53271484 3.41210938 1.78520203 
-6.47119141 3.40429688 1.78808594 
-6.58935547 3.48144531 1.78109741 
-6.41699219 3.42089844 1.79010010 
-6.63085938 3.56738281 1.77728271 
-6.79150391 3.68847656 1.76737976 
-6.44677734 3.54101563 1.78593445 
-6.49121094 3.60644531 1.78244019 
-6.64355469 3.70410156 1.77340698 
-6.32666016 3.56738281 1.79057312 
-6.29833984 3.59472656 1.79109192 
-6.39843750 3.66796875 1.78497314 
-6.51855469 3.75195313 1.77770996 
-6.36376953 3.69335938 1.78584290 
-6.46337891 3.76757813 1.77972412 
-5.92285156 3.73242188 1.80372620 
-5.95898438 3.77441406 1.80111694 
-5.74804688 3.71777344 1.81156921 
-5.65283203 3.70507813 1.81587219 
-4.53027344 3.22753906 1.87576294 
-4.61279297 3.36718750 1.86840820 
-4.47119141 3.56835938 1.86830139 
-4.32958984 3.54394531 1.87469482 
-4.11718750 3.48632813 1.88485718 
-2.11181641 -3.23828125 1.93458557 
-2.68505859 -3.33398438 1.90896606 
-2.97314453 -3.47167969 1.89379883 
-3.18652344 -3.49511719 1.88436890 
-3.09130859 -3.41503906 1.89025879 
-2.91650391 -3.26464844 1.90109253 
-3.37646484 -3.53222656 1.87557983 
-3.04052734 -3.29687500 1.89512634 
-3.40625000 -3.51660156 1.87467957 
-3.00146484 -3.23828125 1.89817810 
-3.04296875 -3.24804688 1.89617920 
-2.99951172 -3.17187500 1.89976501 
-3.18994141 -3.27441406 1.88935852 
-2.94873047 -3.10644531 1.90333557 
-2.97070313 -3.10449219 1.90246582 
-2.72949219 -2.92480469 1.91671753 
-3.17529297 -3.18261719 1.89202881 
-2.65380859 -2.83398438 1.92198181 
-2.85546875 -2.93945313 1.91102600 
-3.09716797 -3.07031250 1.89784241 
-3.10107422 -3.04003906 1.89834595 
-2.77978516 -2.83398438 1.91654968 
-2.93750000 -2.91113281 1.90809631 
-2.82714844 -2.83007813 1.91448975 
-2.93945313 -2.88085938 1.90858459 
-3.12841797 -2.97460938 1.89845276 
-3.13525391 -2.96093750 1.89845276 
-3.19726563 -2.98242188 1.89533997 
-2.95996094 -2.83105469 1.90878296 
-2.93505859 -2.80175781 1.91044617 
-2.90527344 -2.76953125 1.91238403 
-2.96240234 -2.78710938 1.90956116 
-3.22949219 -2.91992188 1.89520264 
-2.82666016 -2.66601563 1.91790771 
-3.19970703 -2.80859375 1.89871216 
-3.21191406 -2.67382813 1.90072632 
-2.96728516 -2.52148438 1.91445923 
-2.86230469 -2.42578125 1.92083740 
-2.67822266 -2.17285156 1.93354797 
-3.04589844 -2.22753906 1.91593933 
-2.54931641 -1.97265625 1.94259644 
-3.10839844 -1.98730469 1.91664124 
-2.92822266 -1.50195313 1.93095398 
-2.76269531 -1.34082031 1.94041443 
-2.80371094 -1.31640625 1.93865967 
-3.22460938 -1.38867188 1.91795349 
-2.77539063 -1.16210938 1.94123840 
-2.64453125 -1.09667969 1.94801331 
-3.71679688 -0.64843750 1.89801025 
-4.61621094 -0.68359375 1.85417175 
-4.75244141 -0.66503906 1.84759521 
-3.90332031 -0.55468750 1.88906860 
-4.37060547 -0.58203125 1.86627197 
-8.81445313 -0.79589844 1.64964294 
-8.36279297 -0.45996094 1.74282837 
-7.90820313 -0.39550781 1.76513672 
-8.10742188 -0.36425781 1.75532532 
-5.74072266 -0.23437500 1.87159729 
-5.72314453 -0.21875000 1.87246704 
-7.98486328 -0.23632813 1.76116943 
-5.41210938 -0.10839844 1.88752747 
-5.91357422 -0.07128906 1.86273193 
-5.68505859 -0.05273438 1.87391663 
-5.69677734 -0.03808594 1.87333679 
-5.85986328 -0.02441406 1.86523438 
-7.36914063 0.05468750 1.67831421 
-10.00097656 1.04492188 1.61000061 
-7.86181641 1.91699219 1.71325684 
-7.86767578 1.93945313 1.71261597 
-7.84570313 1.95605469 1.71351624 
-7.72607422 1.94921875 1.71978760 
-7.98291016 2.03125000 1.70526123 
-8.05175781 2.06933594 1.70114136 
-8.06884766 2.11816406 1.69953918 
-8.25683594 2.18457031 1.68879700 
-7.84765625 2.10742188 1.71113586 
-7.97802734 2.16015625 1.70355225 
-7.51318359 2.06445313 1.72909546 
-7.65478516 2.12207031 1.72085571 
-7.57568359 2.14355469 1.72457886 
-7.81298828 2.22753906 1.71101379 
-7.97705078 2.29199219 1.70152283 
-7.86181641 2.34960938 1.70649719 
-7.63525391 2.35058594 1.71810913 
-7.94873047 2.48437500 1.69973755 
-7.48242188 2.51953125 1.72294617 
-7.72558594 2.63867188 1.70834351 
-7.85791016 2.70410156 1.70045471 
-7.62255859 2.65136719 1.71333313 
-7.92724609 2.77148438 1.69567871 
-7.89794922 2.78417969 1.69689941 
-7.61865234 2.71582031 1.71234131 
-7.72802734 2.77343750 1.70571899 
-7.69335938 2.78515625 1.70722961 
-7.68603516 2.80468750 1.70722961 
-7.70996094 2.85742188 1.70498657 
-7.58642578 2.83691406 1.71159363 
-7.54052734 2.84375000 1.71376038 
-7.58300781 2.87988281 1.71090698 
-7.66943359 2.93261719 1.70552063 
-7.50732422 2.89746094 1.71435547 
-7.71435547 2.99414063 1.70202637 
-7.60253906 2.97656250 1.70800781 
-7.62207031 3.00585938 1.70642090 
-7.57910156 3.03515625 1.70794678 
-7.70800781 3.10546875 1.70004272 
-7.58007813 3.08007813 1.70697021 
-7.41894531 3.04296875 1.71580505 
-7.42187500 3.06640625 1.71513367 
-7.52880859 3.12890625 1.70851135 
-7.40576172 3.10449219 1.71511841 
-7.54296875 3.20214844 1.70620728 
-7.46923828 3.19628906 1.70999146 
-7.47167969 3.21972656 1.70935059 
-7.56152344 3.27734375 1.70364380 
-7.42285156 3.24609375 1.71121216 
-7.45263672 3.28125000 1.70896912 
-7.41992188 3.31250000 1.70988464 
-7.50244141 3.36816406 1.70449829 
-7.01611328 3.21191406 1.73197937 
-7.12890625 3.30273438 1.72434998 
-7.30859375 3.40136719 1.71325684 
-7.03662109 3.30761719 1.72872925 
-7.07666016 3.34765625 1.72589111 
-7.13818359 3.39453125 1.72177124 
-7.05957031 3.38378906 1.72583008 
-7.08300781 3.41601563 1.72390747 
-6.94580078 3.37792969 1.73152161 
-6.93212891 3.39355469 1.73178101 
-6.90185547 3.40136719 1.73304749 
-6.81884766 3.38671875 1.73747253 
-6.80957031 3.40332031 1.73748779 
-6.94189453 3.50781250 1.72857666 
-6.72216797 3.45019531 1.74055481 
-6.79248047 3.50488281 1.73580933 
-6.73242188 3.52050781 1.73831177 
-6.67822266 3.53808594 1.74047852 
-6.69628906 3.59179688 1.73825073 
-6.67138672 3.60156250 1.73916626 
-7.16894531 3.96191406 1.70619202 
-6.51220703 3.65332031 1.74540710 
-6.43994141 3.63867188 1.74920654 
-6.38183594 3.69628906 1.75042725 
-6.48193359 3.76953125 1.74375916 
-6.37451172 3.75683594 1.74908447 
-2.60742188 -2.72265625 1.90335083 
-3.00830078 -2.78906250 1.88288879 
-2.45947266 -1.17382813 1.93638611 
-8.26660156 0.19726563 1.66491699 
-8.54248047 0.29003906 1.64839172 
-8.72216797 0.31835938 1.63778687 
-8.76171875 0.34179688 1.63531494 
-8.76025391 0.36425781 1.63529968 
-9.13134766 0.49414063 1.61289978 
-9.53466797 0.58789063 1.58889771 
-9.27783203 0.64355469 1.60348511 
-9.53955078 0.73339844 1.58766174 
-9.79785156 0.90039063 1.57139587 
-10.38378906 1.02929688 1.53637695 
-7.77978516 0.80664063 1.68928528 
-10.15283203 1.08593750 1.54928589 
-10.22167969 1.19726563 1.54437256 
-7.59863281 0.96777344 1.69827271 
-8.44824219 1.24316406 1.64634705 
-8.80224609 1.36035156 1.62466431 
-8.02490234 1.29101563 1.67018127 
-8.30468750 1.57324219 1.65071106 
-8.54931641 1.66210938 1.63557434 
-8.37255859 1.65136719 1.64584351 
-8.58203125 1.75781250 1.63240051 
-7.99951172 1.68945313 1.66664124 
-8.43603516 1.79785156 1.64016724 
-8.66601563 1.86523438 1.62608337 
-8.05957031 1.76562500 1.66207886 
-8.89794922 2.00683594 1.61090088 
-8.31445313 1.90722656 1.64550781 
-9.08642578 2.09570313 1.59883118 
-8.01855469 1.88769531 1.66262817 
-9.06982422 2.14062500 1.59912109 
-7.80859375 1.88476563 1.67457581 
-8.27099609 2.00976563 1.64640808 
-7.80957031 1.92773438 1.67381287 
-7.87841797 1.96484375 1.66934204 
-7.95898438 2.00488281 1.66416931 
-8.06152344 2.04980469 1.65762329 
-7.80566406 2.01171875 1.67271423 
-7.86865234 2.04882813 1.66857910 
-8.05078125 2.11328125 1.65721130 
-7.87500000 2.09277344 1.66751099 
-7.90332031 2.12109375 1.66540527 
-7.83544922 2.12597656 1.66917419 
-7.73291016 2.12207031 1.67497253 
-8.01660156 2.21484375 1.65745544 
-8.14648438 2.27148438 1.64916992 
-8.16894531 2.29882813 1.64747620 
-8.09521484 2.30175781 1.65153503 
-7.94726563 2.28613281 1.66007996 
-7.96386719 2.31250000 1.65872192 
-7.77197266 2.28320313 1.66999817 
-7.60839844 2.25878906 1.67961121 
-7.65869141 2.29394531 1.67617798 
-7.97900391 2.40527344 1.65618896 
-7.71923828 2.35449219 1.67166138 
-7.75244141 2.38476563 1.66923523 
-7.85888672 2.43750000 1.66236877 
-7.52099609 2.36132813 1.68255615 
-8.02539063 2.53027344 1.65127563 
-7.82763672 2.49414063 1.66294861 
-7.60839844 2.45312500 1.67596436 
-7.43359375 2.42187500 1.68624878 
-7.37695313 2.42578125 1.68933105 
-7.68945313 2.54296875 1.66970825 
-7.43115234 2.48437500 1.68516541 
-7.88281250 2.64550781 1.65698242 
-7.98242188 2.69921875 1.65040588 
-7.69140625 2.63085938 1.66790771 
-7.62890625 2.63281250 1.67134094 
-7.82226563 2.71582031 1.65893555 
-7.73144531 2.70898438 1.66407776 
-7.76367188 2.74218750 1.66165161 
-7.78955078 2.77343750 1.65954590 
-7.73291016 2.77636719 1.66264343 
-7.58691406 2.75000000 1.67120361 
-7.49023438 2.74023438 1.67666626 
-7.46142578 2.75195313 1.67805481 
-7.80322266 2.89062500 1.65635681 
-7.77929688 2.90527344 1.65736389 
-7.69970703 2.90039063 1.66181946 
-7.54345703 2.86816406 1.67105103 
-7.81201172 2.98437500 1.65386963 
-7.60009766 2.93164063 1.66659546 
-7.54882813 2.93652344 1.66931152 
-7.54003906 2.95605469 1.66928101 
-7.64306641 3.01464844 1.66238403 
-7.86621094 3.11914063 1.64791870 
-7.67138672 3.07031250 1.65960693 
-7.55419922 3.04980469 1.66645813 
-7.70507813 3.12890625 1.65644836 
-7.64794922 3.12988281 1.65956116 
-7.55175781 3.11621094 1.66503906 
-7.40185547 3.08203125 1.67395020 
-7.43212891 3.11523438 1.67150879 
-7.35888672 3.11035156 1.67561340 
-7.40478516 3.15039063 1.67214966 
-7.39697266 3.16992188 1.67218018 
-7.45410156 3.21484375 1.66801453 
-7.44628906 3.23242188 1.66802979 
-7.35644531 3.22070313 1.67312622 
-7.21240234 3.18457031 1.68170166 
-7.33935547 3.25878906 1.67311096 
-7.16357422 3.20996094 1.68371582 
-7.28564453 3.28125000 1.67546082 
-7.16894531 3.25585938 1.68237305 
-7.38134766 3.36718750 1.66821289 
-7.19531250 3.31054688 1.67956543 
-7.34326172 3.39550781 1.66958618 
-7.35595703 3.42285156 1.66815186 
-7.16992188 3.36718750 1.67950439 
-7.19287109 3.39843750 1.67744446 
-7.25439453 3.44824219 1.67289734 
-7.07421875 3.39257813 1.68395996 
-7.02832031 3.39355469 1.68630981 
-7.04638672 3.42382813 1.68457031 
-6.93017578 3.39453125 1.69146729 
-6.92187500 3.41308594 1.69143677 
-6.89208984 3.42089844 1.69281006 
-6.78173828 3.39355469 1.69931030 
-6.72070313 3.38769531 1.70275879 
-6.77490234 3.43359375 1.69862366 
-6.75048828 3.44335938 1.69963074 
-6.78955078 3.48339844 1.69654846 
-6.59033203 3.41308594 1.70889282 
-6.68164063 3.47753906 1.70236206 
-6.63623047 3.47753906 1.70477295 
-6.55322266 3.45996094 1.70953369 
-6.63378906 3.52050781 1.70367432 
-6.59863281 3.52441406 1.70538330 
-6.49560547 3.49609375 1.71157837 
-6.59179688 3.56445313 1.70466614 
-6.83398438 3.70507813 1.68814087 
-6.69335938 3.65820313 1.69671631 
-6.68457031 3.67578125 1.69673157 
-6.61230469 3.66308594 1.70082092 
-6.60351563 3.67968750 1.70083618 
-6.43212891 3.61523438 1.71147156 
-6.48535156 3.66406250 1.70735168 
-6.37695313 3.62988281 1.71386719 
-6.32128906 3.62304688 1.71694946 
-6.35888672 3.66406250 1.71383667 
-6.30224609 3.65625000 1.71693420 
-6.42822266 3.74316406 1.70799255 
-6.39257813 3.74707031 1.70965576 
-6.44042969 3.79394531 1.70587158 
-6.37890625 3.78417969 1.70932007 
-6.37939453 3.80664063 1.70860291 
-6.22558594 3.74414063 1.71824646 
-6.24707031 3.77832031 1.71614075 
-6.12988281 3.73535156 1.72340393 
-6.24365234 3.82031250 1.71507263 
-6.10107422 3.76269531 1.72404480 
-6.08056641 3.77343750 1.72471619 
-5.91552734 3.76562500 1.73329163 
-5.89648438 3.79785156 1.73329163 
-5.93212891 3.83886719 1.73017883 
-5.84179688 3.80761719 1.73567200 
-5.89306641 3.85937500 1.73152161 
-5.90283203 3.88671875 1.73013306 
-4.71582031 3.38964844 1.80485535 
-4.53662109 3.33105469 1.81552124 
-4.60449219 3.42773438 1.80894470 
-4.42675781 3.54980469 1.81332397 
-4.42724609 3.58691406 1.81195068 
-4.37011719 3.56542969 1.81539917 
-2.96142578 -3.10937500 1.84922791 
-2.94384766 -2.92480469 1.85496521 
-3.07812500 -2.97167969 1.84689331 
-3.03173828 -2.82128906 1.85307312 
-2.99707031 -2.78515625 1.85571289 
-2.87451172 -2.34277344 1.87219238 
-3.07128906 -1.43652344 1.87603760 
-4.22265625 -0.64355469 1.81524658 
-4.07275391 -0.59863281 1.82395935 
-7.74658203 -0.71777344 1.61106873 
-5.06933594 -0.30078125 1.76635742 
-5.23876953 -0.25488281 1.75643921 
-7.74560547 -0.27148438 1.61117554 
-4.96972656 -0.16210938 1.77192688 
-5.06835938 -0.09570313 1.76611328 
-7.87890625 -0.09277344 1.68853760 
-7.67236328 0.03320313 1.56985474 
-7.37304688 0.07714844 1.58845520 
-5.37060547 0.20507813 1.80657959 
-8.87890625 0.36816406 1.58497620 
-9.00244141 0.44238281 1.57678223 
-8.92480469 0.52929688 1.58106995 
-10.02880859 1.09765625 1.50737000 
-10.16796875 1.79296875 1.49096680 
-8.38964844 1.63085938 1.60314941 
-8.33447266 1.66503906 1.60604858 
-8.00976563 1.92675781 1.62196350 
-7.96582031 1.98144531 1.62376404 
-7.80126953 1.96582031 1.63407898 
-8.17724609 2.07519531 1.60926819 
-8.13232422 2.10839844 1.61140442 
-8.40429688 2.19726563 1.59326172 
-8.23974609 2.17968750 1.60362244 
-7.78027344 2.08886719 1.63319397 
-8.20019531 2.21386719 1.60542297 
-7.93359375 2.17089844 1.62240601 
-7.98388672 2.20410156 1.61868286 
-8.12548828 2.26269531 1.60903931 
-7.98388672 2.24804688 1.61787415 
-8.17041016 2.31933594 1.60530090 
-8.12500000 2.32910156 1.60786438 
-7.95410156 2.30761719 1.61856079 
-8.23632813 2.40527344 1.59970093 
-7.86914063 2.32812500 1.62335205 
-7.91406250 2.36328125 1.61999512 
-7.69970703 2.32519531 1.63365173 
-7.85009766 2.38867188 1.62327576 
-7.79736328 2.46093750 1.62506104 
-7.64404297 2.45996094 1.63426208 
-7.44726563 2.42187500 1.64683533 
-7.75976563 2.53808594 1.62571716 
-7.77490234 2.58691406 1.62377930 
-7.85498047 2.67773438 1.61709595 
-7.71289063 2.67773438 1.62556458 
-7.63916016 2.67578125 1.62997437 
-7.93212891 2.79296875 1.60997009 
-7.62500000 2.71484375 1.62992859 
-7.63476563 2.74023438 1.62881470 
-7.73339844 2.79492188 1.62176514 
-7.94140625 2.88769531 1.60725403 
-7.82714844 2.89453125 1.61389160 
-7.66894531 2.88574219 1.62345886 
-7.66113281 2.90527344 1.62347412 
-7.50976563 2.87402344 1.63308716 
-7.71777344 2.97070313 1.61857605 
-7.84228516 3.03808594 1.60966492 
-7.49902344 2.93652344 1.63229370 
-7.51904297 2.96582031 1.63038635 
-7.64257813 3.03417969 1.62145996 
-7.70654297 3.08007813 1.61665344 
-7.61621094 3.06933594 1.62217712 
-7.46630859 3.03613281 1.63180542 
-7.95654297 3.24218750 1.59803772 
-7.40625000 3.05761719 1.63473511 
-7.54394531 3.15527344 1.62432861 
-7.59033203 3.19531250 1.62057495 
-7.39160156 3.14062500 1.63356018 
-7.30712891 3.13085938 1.63874817 
-7.37500000 3.18066406 1.63351440 
-7.39453125 3.20898438 1.63165283 
-7.16894531 3.14160156 1.64648438 
-7.27539063 3.20605469 1.63868713 
-7.05517578 3.13867188 1.65312195 
-6.97167969 3.12695313 1.65829468 
-6.92529297 3.12988281 1.66085815 
-7.30126953 3.30664063 1.63450623 
-7.55175781 3.43164063 1.61669922 
-7.22460938 3.31933594 1.63856506 
-7.52343750 3.46679688 1.61740112 
-7.54150391 3.49707031 1.61555481 
-7.26367188 3.40234375 1.63407898 
-7.39990234 3.48242188 1.62402344 
-7.39697266 3.50390625 1.62364197 
-7.15185547 3.42187500 1.63995361 
-7.12207031 3.42968750 1.64141846 
-7.00048828 3.39941406 1.64921570 
-6.94921875 3.39843750 1.65216064 
-7.09570313 3.48632813 1.64137268 
-6.98535156 3.45800781 1.64842224 
-6.76855469 3.38378906 1.66287231 
-6.71191406 3.38085938 1.66618347 
-6.82031250 3.44921875 1.65802002 
-6.68945313 3.41210938 1.66656494 
-6.56396484 3.37597656 1.67471313 
-6.64013672 3.43164063 1.66876221 
-6.58349609 3.42675781 1.67207336 
-6.58593750 3.44921875 1.67129517 
-6.43994141 3.40039063 1.68095398 
-6.76318359 3.57714844 1.65753174 
-6.59570313 3.51855469 1.66865540 
-6.60791016 3.54589844 1.66716003 
-6.59912109 3.56347656 1.66714478 
-6.38037109 3.47753906 1.68202209 
-6.54931641 3.58300781 1.66935730 
-6.52441406 3.59179688 1.67045593 
-6.48925781 3.59570313 1.67230225 
-6.56396484 3.65527344 1.66635132 
-6.61718750 3.70410156 1.66188049 
-6.42529297 3.62890625 1.67483521 
-6.46289063 3.66992188 1.67150879 
-6.45410156 3.68554688 1.67150879 
-6.58447266 3.77636719 1.66145325 
-6.39892578 3.70214844 1.67405701 
-6.45703125 3.75390625 1.66925049 
-6.29687500 3.69140625 1.67997742 
-6.28808594 3.70800781 1.67996216 
-6.37646484 3.77636719 1.67294312 
-6.36718750 3.79296875 1.67291260 
-6.30615234 3.78320313 1.67660522 
-6.33203125 3.81933594 1.67398071 
-6.21972656 3.77929688 1.68138123 
-6.24121094 3.81347656 1.67915344 
-6.21093750 3.81738281 1.68064880 
-6.22705078 3.84960938 1.67877197 
-6.38037109 3.95703125 1.66687012 
-6.25439453 3.95214844 1.67388916 
-5.97998047 3.83984375 1.69247437 
-6.01074219 3.87890625 1.68948364 
-5.84423828 3.80371094 1.70100403 
-5.80566406 3.82421875 1.70243835 
-5.80078125 3.86328125 1.70133972 
-4.63427734 3.38671875 1.78001404 
-4.29296875 3.52343750 1.79252625 
-2.13232422 -2.94238281 1.87211609 
-2.71435547 -2.79882813 1.84501648 
-8.27636719 -1.70117188 1.52830505 
-7.26757813 -0.14648438 1.59568787 
-2.12451172 -0.04687500 1.91740417 
-4.99511719 0.05957031 1.80262756 
-4.50048828 0.11425781 1.83589172 
-8.17626953 0.25781250 1.58567810 
-8.40917969 0.28710938 1.56976318 
-8.72314453 0.31835938 1.54829407 
-9.36230469 0.38671875 1.50454712 
-8.69482422 0.38281250 1.54980469 
-9.03808594 0.42089844 1.52633667 
-8.76220703 0.43066406 1.54493713 
-9.54296875 0.49121094 1.49168396 
-9.05664063 0.49023438 1.52464294 
-9.66552734 0.64355469 1.48234558 
-5.20019531 0.50488281 1.78532410 
-8.21191406 0.89257813 1.57841492 
-8.40380859 0.99707031 1.56439209 
-8.69580078 1.09765625 1.54362488 
-7.55029297 1.02148438 1.62153625 
-7.97802734 1.15820313 1.59120178 
-8.54199219 1.32421875 1.55125427 
-8.59228516 1.44238281 1.54634094 
-8.06787109 1.50976563 1.58039856 
-8.28369141 1.59179688 1.56480408 
-8.40576172 1.63574219 1.55603027 
-8.02197266 1.58789063 1.58229065 
-8.62109375 1.72070313 1.54042053 
-8.16357422 1.67968750 1.57144165 
-8.01562500 1.67285156 1.58135986 
-8.84814453 1.85742188 1.52319336 
-8.13427734 1.76074219 1.57212830 
-8.82177734 1.92187500 1.52391052 
-8.56445313 1.89257813 1.54139709 
-7.97656250 1.79296875 1.58203125 
-8.78320313 1.98437500 1.52543640 
-9.20654297 2.09863281 1.49549866 
-9.65185547 2.21777344 1.46400452 
-9.26953125 2.16015625 1.49024963 
-8.12353516 1.95507813 1.56951904 
-7.84472656 1.91601563 1.58862305 
-8.08447266 1.99121094 1.57147217 
-7.84570313 1.95898438 1.58779907 
-8.10156250 2.03906250 1.56942749 
-7.85742188 2.00390625 1.58613586 
-7.92041016 2.04003906 1.58135986 
-7.82421875 2.03808594 1.58769226 
-7.96630859 2.09375000 1.57731628 
-7.97753906 2.11816406 1.57608032 
-8.05126953 2.15820313 1.57049561 
-7.82470703 2.12500000 1.58598328 
-7.96679688 2.18164063 1.57560730 
-8.00585938 2.21386719 1.57240295 
-7.97705078 2.22753906 1.57398987 
-8.01123047 2.25976563 1.57116699 
-8.06201172 2.29394531 1.56715393 
-7.95410156 2.28808594 1.57427979 
-7.93066406 2.30468750 1.57546997 
-7.94775391 2.33105469 1.57385254 
-8.03759766 2.37792969 1.56704712 
-7.92968750 2.37109375 1.57418823 
-7.64746094 2.31542969 1.59368896 
-7.77636719 2.37304688 1.58410645 
-7.66357422 2.36230469 1.59169006 
-7.78613281 2.41992188 1.58248901 
-7.70117188 2.41699219 1.58801270 
-8.39111328 2.63964844 1.53854370 
-7.79589844 2.48828125 1.58039856 
-7.46337891 2.41210938 1.60353088 
-7.57519531 2.46582031 1.59510803 
-7.63037109 2.50390625 1.59075928 
-8.02099609 2.64355469 1.56236267 
-7.66210938 2.55664063 1.58749390 
-8.10156250 2.71484375 1.55551147 
-8.17773438 2.76171875 1.54951477 
-7.71435547 2.63964844 1.58222961 
-8.42968750 2.91210938 1.52987671 
-7.72119141 2.70800781 1.58018494 
-7.64746094 2.70605469 1.58493042 
-7.84619141 2.79394531 1.57014465 
-7.68896484 2.76464844 1.58091736 
-7.86474609 2.84472656 1.56771851 
-7.58544922 2.77343750 1.58726501 
-7.91064453 2.90625000 1.56329346 
-7.65966797 2.84277344 1.58082581 
-7.81835938 2.91992188 1.56881714 
-7.73339844 2.91308594 1.57441711 
-7.65917969 2.91015625 1.57919312 
-7.61914063 2.91894531 1.58152771 
-7.50732422 2.90039063 1.58912659 
-7.69189453 2.98925781 1.57511902 
-7.89355469 3.08398438 1.55992126 
-7.67675781 3.02929688 1.57510376 
-7.61914063 3.03125000 1.57865906 
-7.70507813 3.08496094 1.57185364 
-7.53808594 3.04589844 1.58341980 
-7.59619141 3.08984375 1.57859802 
-7.76318359 3.17578125 1.56581116 
-7.41064453 3.06445313 1.59095764 
-7.36474609 3.06933594 1.59371948 
-7.49853516 3.14257813 1.58334351 
-7.47412109 3.15625000 1.58453369 
-7.37890625 3.14160156 1.59089661 
-7.57763672 3.24218750 1.57566833 
-7.37890625 3.18652344 1.58966064 
-7.32763672 3.18847656 1.59280396 
-7.20019531 3.16015625 1.60159302 
-7.28955078 3.21777344 1.59437561 
-7.05908203 3.14648438 1.61074829 
-7.22998047 3.23925781 1.59751892 
-7.26464844 3.27539063 1.59432983 
-7.29638672 3.33398438 1.59069824 
-7.26611328 3.34277344 1.59230042 
-7.23095703 3.35058594 1.59425354 
-7.31347656 3.40625000 1.58749390 
-7.47167969 3.49707031 1.57505798 
-7.36132813 3.47167969 1.58261108 
-7.38916016 3.50781250 1.57981873 
-7.32714844 3.50390625 1.58378601 
-7.42480469 3.56933594 1.57579041 
-7.00439453 3.40820313 1.60653687 
-7.04931641 3.44921875 1.60253906 
-6.80029297 3.36132813 1.62049866 
-6.98876953 3.46679688 1.60569763 
-6.84179688 3.42285156 1.61608887 
-6.68408203 3.37402344 1.62724304 
-6.80859375 3.45117188 1.61726379 
-6.75732422 3.44824219 1.62042236 
-6.70556641 3.44726563 1.62359619 
-6.66552734 3.45019531 1.62602234 
-6.57714844 3.43066406 1.63197327 
-6.60546875 3.46484375 1.62916565 
-6.63427734 3.50097656 1.62637329 
-6.57714844 3.49511719 1.62992859 
-6.57861328 3.51757813 1.62910461 
-6.52246094 3.51171875 1.63269043 
-6.56103516 3.55175781 1.62911987 
-6.49951172 3.54296875 1.63307190 
-6.49560547 3.56347656 1.63264465 
-6.52832031 3.60058594 1.62945557 
-6.47216797 3.59472656 1.63302612 
-6.39062500 3.57519531 1.63864136 
-6.32910156 3.56542969 1.64262390 
-6.36669922 3.60546875 1.63900757 
-6.47216797 3.68164063 1.63020325 
-6.33789063 3.63378906 1.63980103 
-6.33398438 3.65332031 1.63937378 
-6.42871094 3.72460938 1.63134766 
-6.33642578 3.69824219 1.63772583 
-6.30078125 3.70019531 1.63975525 
-6.36376953 3.75585938 1.63412476 
-6.40625000 3.80078125 1.63009644 
-6.33447266 3.78417969 1.63488770 
-6.23779297 3.75390625 1.64166260 
-6.27929688 3.79785156 1.63766479 
-6.19775391 3.77539063 1.64324951 
-6.21386719 3.80566406 1.64125061 
-6.16357422 3.79980469 1.64443970 
-6.19531250 3.83886719 1.64118958 
-6.06201172 3.78613281 1.65080261 
-6.02685547 3.78906250 1.65280151 
-6.08349609 3.84179688 1.64759827 
-5.95214844 3.79003906 1.65718079 
-6.09472656 3.89160156 1.64515686 
-6.09960938 3.91699219 1.64396667 
-6.01367188 3.88867188 1.64996338 
-5.79687500 3.78515625 1.66638184 
-6.03515625 3.94433594 1.64674377 
-5.91943359 3.89843750 1.65515137 
-5.93896484 3.93359375 1.65270996 
-5.82373047 3.88574219 1.66110229 
-5.82910156 3.91015625 1.65989685 
-5.65966797 3.91503906 1.66944885 
-5.03271484 3.55078125 1.71907043 
-4.34814453 3.14746094 1.77351379 
-4.54687500 3.32324219 1.75546265 
-4.87402344 3.54687500 1.72825623 
-4.50146484 3.34863281 1.75704956 
-4.47802734 3.42187500 1.75541687 
-4.41552734 3.40039063 1.75981140 
-4.29931641 3.34179688 1.76858521 
-4.52636719 3.54589844 1.74777222 
-4.50732422 3.55273438 1.74855042 
-4.30029297 3.42968750 1.76496887 
-4.27246094 3.42968750 1.76655579 
-4.28271484 3.45507813 1.76492310 
-4.38964844 3.54589844 1.75535583 
-4.47167969 3.62207031 1.74771118 
-4.20361328 3.45410156 1.76931763 
-4.27587891 3.52246094 1.76251221 
-3.12890625 -3.35156250 1.77551270 
-2.84423828 -3.13281250 1.79917908 
-3.26904297 -3.38964844 1.76608276 
-2.76074219 -3.03222656 1.80726624 
-2.80175781 -3.04296875 1.80450439 
-2.60253906 -2.81347656 1.82347107 
-3.12109375 -2.93652344 1.78887939 
-2.96484375 -2.83203125 1.80131531 
-7.41552734 -3.53710938 1.50637817 
-7.76074219 -0.88378906 1.51495361 
-4.44921875 -0.46386719 1.73910522 
-7.22265625 -0.50195313 1.55187988 
-4.68652344 -0.30175781 1.72308350 
-5.49267578 -0.19628906 1.76972961 
-7.91064453 -0.23437500 1.60548401 
-7.69433594 -0.20898438 1.62011719 
-7.60693359 -0.18750000 1.62603760 
-7.77587891 -0.17187500 1.61453247 
-7.79882813 -0.15136719 1.61288452 
-7.84570313 -0.13281250 1.60969543 
-7.69335938 -0.09082031 1.61994934 
-7.73876953 -0.05175781 1.61671448 
-5.33105469 -0.00878906 1.78012085 
-7.74414063 0.10351563 1.46275330 
-8.52001953 0.39062500 1.40487671 
-10.06787109 0.71972656 1.39712524 
-10.07470703 0.77050781 1.39622498 
-10.92285156 0.91406250 1.33297729 
-8.58300781 0.92773438 1.50363159 
-8.03417969 1.69335938 1.53263855 
-7.63476563 1.90527344 1.55726624 
-8.29003906 2.10058594 1.50685120 
-7.78417969 2.00292969 1.54469299 
-8.12500000 2.10546875 1.51841736 
-8.01171875 2.10058594 1.52658081 
-8.29003906 2.19042969 1.50505066 
-8.13671875 2.17480469 1.51618958 
-8.27832031 2.23339844 1.50495911 
-7.84765625 2.14648438 1.53726196 
-7.98339844 2.20214844 1.52647400 
-8.14697266 2.26757813 1.51351929 
-8.10742188 2.27929688 1.51608276 
-7.88574219 2.26464844 1.53198242 
-7.85205078 2.27832031 1.53408813 
-7.93652344 2.32226563 1.52719116 
-8.16699219 2.40820313 1.50907898 
-8.21728516 2.44433594 1.50476074 
-8.05273438 2.42089844 1.51678467 
-7.68408203 2.95605469 1.52911377 
-7.69824219 2.98339844 1.52737427 
-7.59716797 2.96972656 1.53466797 
-7.60595703 2.99609375 1.53335571 
-7.71972656 3.10546875 1.52247620 
-7.45947266 3.03222656 1.54229736 
-7.39746094 3.03027344 1.54661560 
-7.59765625 3.12792969 1.53019714 
-7.34912109 3.05566406 1.54916382 
-7.55419922 3.15722656 1.53231812 
-7.61621094 3.25000000 1.52534485 
-7.46679688 3.21386719 1.53652954 
-7.48632813 3.24316406 1.53437805 
-7.55908203 3.29589844 1.52787781 
-7.49609375 3.29296875 1.53221130 
-7.33593750 3.25097656 1.54423523 
-7.27148438 3.26855469 1.54812622 
-7.28613281 3.31933594 1.54548645 
-7.25097656 3.32812500 1.54759216 
-7.09179688 3.28417969 1.55969238 
-7.04052734 3.28320313 1.56314087 
-7.29589844 3.41308594 1.54197693 
-7.33496094 3.45312500 1.53804016 
-7.28857422 3.45507813 1.54109192 
-7.29589844 3.48144531 1.53977966 
-7.22265625 3.47265625 1.54490662 
-7.28906250 3.52343750 1.53886414 
-6.90625000 3.37792969 1.56904602 
-7.15869141 3.51269531 1.54788208 
-6.90527344 3.41992188 1.56770325 
-6.98681641 3.47851563 1.56040955 
-6.78173828 3.40820313 1.57630920 
-6.82617188 3.44921875 1.57199097 
-6.97070313 3.53906250 1.55946350 
-6.67578125 3.42285156 1.58277893 
-6.66699219 3.44042969 1.58276367 
-6.70068359 3.47851563 1.57926941 
-6.79199219 3.54394531 1.57106018 
-6.74023438 3.54101563 1.57452393 
-6.56835938 3.48144531 1.58787537 
-6.67529297 3.55371094 1.57833862 
-6.52441406 3.50292969 1.59001160 
-6.45800781 3.49218750 1.59474182 
-6.39648438 3.48339844 1.59904480 
-6.57617188 3.59277344 1.58348083 
-6.54101563 3.59765625 1.58564758 
-6.50585938 3.60156250 1.58778381 
-6.52294922 3.63183594 1.58558655 
-6.53906250 3.66210938 1.58345032 
-6.41552734 3.62109375 1.59292603 
-6.41699219 3.64257813 1.59205627 
-6.36083984 3.63574219 1.59591675 
-6.32617188 3.63964844 1.59808350 
-6.42529297 3.71191406 1.58898926 
-6.34326172 3.69140625 1.59501648 
-6.38574219 3.73535156 1.59071350 
-6.43310547 3.78222656 1.58593750 
-6.15039063 3.65234375 1.60884094 
-6.30566406 3.75878906 1.59497070 
-6.20410156 3.72460938 1.60273743 
-6.18408203 3.73535156 1.60359192 
-6.26660156 3.80175781 1.59580994 
-6.20654297 3.79003906 1.60012817 
-6.09472656 3.75097656 1.60870361 
-6.18652344 3.82324219 1.60011292 
-6.14648438 3.82226563 1.60267639 
-5.87695313 3.69433594 1.62469482 
-6.16308594 3.87597656 1.59960938 
-5.85839844 3.72558594 1.62467957 
-5.96728516 3.91503906 1.61032104 
-6.06787109 3.99511719 1.60084534 
-5.96777344 3.95800781 1.60861206 
-5.87744141 3.92773438 1.61550903 
-5.93750000 4.00585938 1.60856628 
-1.81347656 -1.09179688 1.89141846 
-7.06445313 -1.01757813 1.51191711 
-5.63037109 0.00585938 1.69111633 
-5.12207031 0.01855469 1.73114014 
-5.32568359 0.03417969 1.71501160 
-5.27880859 0.04785156 1.71865845 
-5.89062500 0.06738281 1.67030334 
-8.18945313 0.11230469 1.48889160 
-5.45556641 0.12109375 1.70428467 
-7.69335938 0.22363281 1.52737427 
-8.08300781 0.25488281 1.49647522 
-4.97802734 0.17773438 1.74147034 
-8.33105469 0.30566406 1.47662354 
-4.99951172 0.20507813 1.73960876 
-4.68701172 0.23242188 1.76397705 
-8.44628906 0.41601563 1.46681213 
-5.05615234 0.28808594 1.73442078 
-4.72900391 0.28515625 1.76022339 
-4.79150391 0.30175781 1.75512695 
-8.34716797 0.62695313 1.47291565 
-8.85498047 0.70800781 1.43228149 
-8.76904297 0.74609375 1.43870544 
-11.06494141 0.95507813 1.25654602 
-10.31201172 0.97265625 1.31544495 
-9.01513672 0.95019531 1.41723633 
-7.74658203 0.84570313 1.51773071 
-7.79052734 0.87011719 1.51402283 
-4.79833984 0.61425781 1.75097656 
-7.80810547 1.07519531 1.51005554 
-8.43945313 1.26464844 1.45825195 
-8.55126953 1.30273438 1.44895935 
-8.30761719 1.37792969 1.46685791 
-8.15380859 1.52636719 1.47631836 
-8.43310547 1.61914063 1.45318604 
-8.29687500 1.61621094 1.46379089 
-8.06787109 1.59765625 1.48170471 
-8.21289063 1.64453125 1.46974182 
-8.36865234 1.69628906 1.45674133 
-8.18457031 1.77148438 1.46955872 
-8.68896484 1.89550781 1.42842102 
-8.65576172 1.91113281 1.43070984 
-9.52539063 2.14160156 1.35948181 
-8.68066406 2.08007813 1.42544556 
-7.73583984 1.89062500 1.50164795 
-8.06689453 1.98730469 1.47438049 
-7.77734375 1.94335938 1.49743652 
-8.25488281 2.07519531 1.45812988 
-7.93701172 2.02343750 1.48356628 
-7.88574219 2.03222656 1.48721313 
-8.25000000 2.14160156 1.45712280 
-8.32373047 2.18164063 1.45065308 
-8.21582031 2.17773438 1.45895386 
-8.20361328 2.19726563 1.45939636 
-8.19824219 2.21875000 1.45935059 
-7.64941406 2.10351563 1.50367737 
-7.79052734 2.16113281 1.49163818 
-7.61572266 2.13867188 1.50549316 
-7.60937500 2.15722656 1.50547791 
-7.47363281 2.14355469 1.51605225 
-7.73925781 2.23339844 1.49388123 
-8.03808594 2.33496094 1.46890259 
-7.75585938 2.28027344 1.49151611 
-7.79492188 2.31347656 1.48777771 
-8.04736328 2.40527344 1.46649170 
-7.75390625 2.34570313 1.49003601 
-7.96728516 2.42773438 1.47198486 
-8.36572266 2.56250000 1.43869019 
-7.78613281 2.41992188 1.48583984 
-7.66210938 2.40625000 1.49551392 
-7.67822266 2.43164063 1.49363708 
-7.78906250 2.48730469 1.48391724 
-7.64306641 2.46484375 1.49545288 
-7.50683594 2.46875000 1.50556946 
-8.59521484 2.82128906 1.41487122 
-7.92382813 2.63867188 1.46992493 
-8.68652344 2.89648438 1.40606689 
-8.81835938 2.96289063 1.39447021 
-8.69921875 2.94921875 1.40371704 
-8.57470703 2.93554688 1.41337585 
-8.29492188 2.87011719 1.43605042 
-8.25244141 2.90332031 1.43832397 
-8.46093750 2.99609375 1.42024231 
-8.39208984 2.99707031 1.42533875 
-7.69824219 2.79003906 1.48265076 
-8.11669922 2.95312500 1.44703674 
-7.80517578 2.87109375 1.47245789 
-7.85302734 2.91015625 1.46783447 
-7.72949219 2.89062500 1.47749329 
-7.65039063 2.88574219 1.48352051 
-7.73681641 2.93847656 1.47560120 
-7.62451172 2.92187500 1.48439026 
-7.51220703 2.90429688 1.49314880 
-7.64208984 2.97265625 1.48156738 
-7.41992188 2.91601563 1.49958801 
-7.57177734 2.99316406 1.48617554 
-7.38330078 2.94628906 1.50143433 
-7.45263672 2.99414063 1.49491882 
-7.43896484 3.01074219 1.49536133 
-7.61181641 3.09765625 1.48004150 
-7.26513672 2.99023438 1.50872803 
-7.25781250 3.00878906 1.50874329 
-7.34814453 3.06542969 1.50039673 
-7.50878906 3.14941406 1.48600769 
-7.40820313 3.13281250 1.49386597 
-7.53662109 3.20605469 1.48225403 
-7.40283203 3.17578125 1.49288940 
-7.24316406 3.13476563 1.50584412 
-7.50048828 3.25976563 1.48310852 
-7.42187500 3.25000000 1.48916626 
-7.45117188 3.28613281 1.48588562 
-7.34033203 3.26269531 1.49465942 
-7.16992188 3.21582031 1.50854492 
-7.11279297 3.21386719 1.51266479 
-7.05078125 3.21093750 1.51730347 
-7.09619141 3.25097656 1.51266479 
-7.07226563 3.26367188 1.51403809 
-7.26269531 3.36523438 1.49687195 
-7.12011719 3.32714844 1.50843811 
-7.17041016 3.37109375 1.50332642 
-6.98974609 3.31640625 1.51812744 
-6.94970703 3.32031250 1.52091980 
-6.96289063 3.34863281 1.51901245 
-6.94335938 3.36230469 1.51992798 
-6.94531250 3.38476563 1.51898193 
-6.81445313 3.34765625 1.52963257 
-6.78417969 3.35644531 1.53147888 
-6.98339844 3.46679688 1.51338196 
-6.87890625 3.44140625 1.52171326 
-6.90673828 3.47656250 1.51843262 
-6.92431641 3.50683594 1.51614380 
-6.67236328 3.41210938 1.53741455 
-6.87011719 3.52636719 1.51933289 
-6.63916016 3.43945313 1.53878784 
-6.71435547 3.49707031 1.53134155 
-6.72656250 3.52441406 1.52949524 
-6.50683594 3.44238281 1.54801941 
-6.56152344 3.48925781 1.54243469 
-6.72070313 3.58789063 1.52757263 
-6.52246094 3.51269531 1.54425049 
-6.59228516 3.56835938 1.53730774 
-6.48876953 3.54101563 1.54560852 
-6.57421875 3.60351563 1.53726196 
-6.43457031 3.55664063 1.54885864 
-6.58740234 3.65332031 1.53445435 
-6.54638672 3.65527344 1.53723145 
-6.34423828 3.57617188 1.55435181 
-6.40820313 3.62988281 1.54786682 
-6.26904297 3.58007813 1.55943298 
-6.50976563 3.72363281 1.53720093 
-6.42187500 3.70214844 1.54408264 
-6.29882813 3.65917969 1.55427551 
-6.25830078 3.66015625 1.55705261 
-6.04785156 3.56933594 1.57511902 
-6.13183594 3.63476563 1.56680298 
-6.11230469 3.64648438 1.56767273 
-6.14404297 3.68359375 1.56396484 
-6.13476563 3.70019531 1.56398010 
-5.98681641 3.64160156 1.57643127 
-5.96191406 3.64941406 1.57783508 
-5.94238281 3.65917969 1.57876587 
-5.91796875 3.66699219 1.58012390 
-5.94433594 3.70214844 1.57687378 
-5.89941406 3.69921875 1.58012390 
-5.96142578 3.75390625 1.57362366 
-5.99218750 3.79296875 1.56987000 
-5.82519531 3.71972656 1.58427429 
-5.73974609 3.69238281 1.59118652 
-5.71044922 3.69628906 1.59304810 
-5.84765625 3.79687500 1.57958984 
-5.77734375 3.77734375 1.58512878 
-5.84814453 3.83984375 1.57772827 
-5.75781250 3.80664063 1.58511353 
-5.77880859 3.84082031 1.58233643 
-5.93457031 3.95410156 1.56700134 
-5.82958984 3.91308594 1.57582092 
-5.81933594 3.92871094 1.57582092 
-5.90478516 4.00097656 1.56700134 
-5.79980469 3.95996094 1.57579041 
-5.72021484 3.93359375 1.58226013 
-5.71484375 3.97265625 1.58085632 
-4.61865234 3.33593750 1.68148804 
-4.66210938 3.41699219 1.67495728 
-4.32812500 3.22363281 1.70556641 
-4.38427734 3.27636719 1.69952393 
-4.42041016 3.31738281 1.69537354 
-4.68164063 3.50292969 1.66983032 
-4.68701172 3.52539063 1.66841125 
-4.64404297 3.51660156 1.67169189 
-4.61083984 3.51367188 1.67393494 
-4.66992188 3.57128906 1.66746521 
-4.57324219 3.52636719 1.67581177 
-4.42285156 3.44531250 1.68923950 
-4.80273438 3.71679688 1.65213013 
-4.60937500 3.60644531 1.66972351 
-4.30029297 3.41601563 1.69851685 
-4.21435547 3.37597656 1.70594788 
-4.32617188 3.46875000 1.69432068 
-4.41357422 3.54785156 1.68505859 
-4.36621094 3.53320313 1.68876648 
-4.23730469 3.46289063 1.70034790 
-4.34814453 3.55761719 1.68873596 
-4.15283203 3.43945313 1.70680237 
-4.12451172 3.43847656 1.70864868 
-4.32080078 3.59375000 1.68872070 
-4.22167969 3.54296875 1.69752502 
-4.27392578 3.59765625 1.69148254 
-4.12744141 3.51171875 1.70494080 
-4.15625000 3.55078125 1.70118713 
-4.12841797 3.54882813 1.70306396 
-1.89306641 -3.00781250 1.80358887 
-2.46044922 -3.19042969 1.75900269 
-2.60302734 -3.22851563 1.74801636 
-2.60888672 -3.07617188 1.75370789 
-2.97070313 -3.26757813 1.72195435 
-2.89111328 -3.15136719 1.73181152 
-3.00292969 -2.90234375 1.73310852 
-2.93603516 -2.81640625 1.74075317 
-3.22167969 -2.96289063 1.71578979 
-3.13134766 -2.89550781 1.72439575 
-2.73437500 -2.66015625 1.76017761 
-3.04687500 -2.81835938 1.73292542 
-2.77099609 -2.65039063 1.75784302 
-2.95800781 -2.70800781 1.74281311 
-2.92333984 -2.65917969 1.74684143 
-2.64599609 -2.49707031 1.77178955 
-3.27001953 -2.81445313 1.71733093 
-2.97607422 -2.64257813 1.74363708 
-2.86425781 -2.42675781 1.75834656 
-2.77539063 -2.35449219 1.76693726 
-3.09814453 -2.29394531 1.74526978 
-2.83056641 -2.16015625 1.76840210 
-2.60205078 -2.02148438 1.78877258 
-7.22363281 -3.82128906 1.40238953 
-2.74755859 -1.91308594 1.78079224 
-2.80371094 -1.81933594 1.77880859 
-2.64648438 -1.52636719 1.79663086 
-2.82666016 -1.33398438 1.78623962 
-2.34765625 -1.17089844 1.82536316 
-7.64697266 -2.41894531 1.40007019 
-2.39257813 -1.09375000 1.82293701 
-3.08496094 -1.05859375 1.76980591 
-7.35839844 -1.37207031 1.43466187 
-6.65917969 -1.16503906 1.49063110 
-3.99658203 -0.75390625 1.70112610 
-4.52978516 -0.73925781 1.65945435 
-4.47314453 -0.71679688 1.66400146 
-3.61523438 -0.61035156 1.73159790 
-4.42871094 -0.68164063 1.66761780 
-4.30419922 -0.62304688 1.67759705 
-4.29980469 -0.60742188 1.67803955 
-4.25830078 -0.49609375 1.68153381 
-4.54345703 -0.50195313 1.65913391 
-4.63134766 -0.49218750 1.65225220 
-7.17089844 -0.63281250 1.45286560 
-4.41113281 -0.42968750 1.66957092 
-4.37109375 -0.41210938 1.67274475 
-4.66943359 -0.39843750 1.64941406 
-4.58837891 -0.37792969 1.65579224 
-5.44238281 -0.31054688 1.70678711 
-9.78662109 -0.50878906 1.36413574 
-5.42578125 -0.28125000 1.70816040 
-5.64746094 -0.27636719 1.69065857 
-5.62402344 -0.25976563 1.69244385 
-5.45458984 -0.23828125 1.70576477 
-5.42529297 -0.22363281 1.70803833 
-5.32080078 -0.20507813 1.71633911 
-5.40771484 -0.19433594 1.70938110 
-5.40185547 -0.17968750 1.70982361 
-5.44189453 -0.15332031 1.70657349 
-5.23144531 -0.11816406 1.72305298 
-5.31933594 -0.10644531 1.71615601 
-5.26611328 -0.09179688 1.72027588 
-5.31787109 -0.07812500 1.71612549 
-5.06689453 -0.06152344 1.73588562 
-5.28271484 -0.05078125 1.71881104 
-7.52490234 0.03222656 1.37619019 
-7.36083984 0.05468750 1.38978577 
-5.39257813 0.10546875 1.67974854 
-8.28906250 0.21777344 1.43603516 
-8.54492188 0.24609375 1.41441345 
-7.97705078 0.27246094 1.46186829 
-7.91650391 0.29003906 1.46678162 
-8.44287109 0.37304688 1.42204285 
-4.80224609 0.26171875 1.72801208 
-7.28759766 0.41992188 1.51853943 
-4.80761719 0.32714844 1.72695923 
-5.09179688 0.35839844 1.70288086 
-10.21142578 0.72949219 1.27108765 
-7.84228516 1.22070313 1.46253967 
-8.10107422 1.30078125 1.43989563 
-7.83740234 1.28222656 1.46195984 
-7.96923828 1.34472656 1.45010376 
-7.78369141 1.43945313 1.46371460 
-8.39453125 1.65527344 1.40950012 
-8.53515625 1.72558594 1.39669800 
-8.36865234 1.82714844 1.40835571 
-9.36425781 2.10449219 1.32124329 
-7.94482422 1.89257813 1.44160461 
-7.62646484 1.84277344 1.46862793 
-7.62792969 1.88476563 1.46757507 
-8.19238281 2.03515625 1.41839600 
-8.07861328 2.05273438 1.42718506 
-7.85205078 2.04296875 1.44583130 
-8.19287109 2.14648438 1.41581726 
-8.41894531 2.24804688 1.39509583 
-7.81298828 2.11914063 1.44721985 
-7.70019531 2.13378906 1.45600891 
-7.59228516 2.14746094 1.46434021 
-7.55859375 2.16113281 1.46679688 
-7.72753906 2.24707031 1.45100403 
-7.60351563 2.23437500 1.46128845 
-7.85546875 2.34765625 1.43812561 
-7.88867188 2.40039063 1.43414307 
-8.25830078 2.52734375 1.40113831 
-7.91992188 2.47656250 1.42964172 
-8.35595703 2.62402344 1.39076233 
-8.90820313 2.83496094 1.34098816 
-7.70800781 2.52343750 1.44531250 
-8.84619141 2.89160156 1.34434509 
-9.12451172 3.05273438 1.31768799 
-8.86035156 2.99511719 1.34036255 
-8.68164063 3.01367188 1.35404968 
-8.52929688 2.98925781 1.36677551 
-8.35888672 2.98144531 1.38055420 
-7.91406250 2.85839844 1.41943359 
-8.35253906 3.05078125 1.37902832 
-7.47558594 2.79980469 1.45579529 
-7.60595703 2.86621094 1.44345093 
-7.74218750 2.93457031 1.43063354 
-7.62988281 2.91894531 1.43995667 
-7.46826172 2.88476563 1.45373535 
-7.50488281 2.91894531 1.44976807 
-7.59619141 2.97265625 1.44088745 
-7.67968750 3.04882813 1.43200684 
-7.71533203 3.08496094 1.42802429 
-7.39892578 3.01269531 1.45510864 
-7.51708984 3.07910156 1.44372559 
-7.24414063 3.02050781 1.46685791 
-7.23974609 3.06250000 1.46580505 
-7.37890625 3.13867188 1.45251465 
-7.28417969 3.12304688 1.46035767 
-7.78027344 3.34082031 1.41455078 
-7.15380859 3.11621094 1.47067261 
-7.35449219 3.24023438 1.45092773 
-7.28955078 3.25781250 1.45533752 
-7.00000000 3.16308594 1.48095703 
-6.96240234 3.18945313 1.48289490 
-7.10546875 3.27050781 1.46908569 
-6.97363281 3.23730469 1.48039246 
-6.87841797 3.21875000 1.48826599 
-6.87841797 3.26171875 1.48674011 
-6.77343750 3.23828125 1.49562073 
-6.93847656 3.35351563 1.47883606 
-6.83935547 3.33203125 1.48718262 
-6.79882813 3.33496094 1.49012756 
-7.06738281 3.47558594 1.46447754 
-7.11816406 3.54296875 1.45806885 
-6.87597656 3.45605469 1.47970581 
-6.77929688 3.45507813 1.48707581 
-6.97705078 3.56835938 1.46784973 
-6.85107422 3.53320313 1.47865295 
-6.79443359 3.52832031 1.48307800 
-6.97167969 3.65527344 1.46482849 
-6.73095703 3.56347656 1.48651123 
-6.73730469 3.58886719 1.48503113 
-6.59179688 3.54003906 1.49780273 
-6.49902344 3.51660156 1.50567627 
-6.49023438 3.53320313 1.50569153 
-6.53857422 3.57910156 1.50025940 
-7.12060547 3.91308594 1.44351196 
-6.55810547 3.65429688 1.49577332 
-6.55517578 3.69628906 1.49427795 
-6.40087891 3.64062500 1.50802612 
-6.04345703 3.47753906 1.54107666 
-6.45947266 3.71386719 1.50064087 
-6.42529297 3.74023438 1.50205994 
-6.16796875 3.62597656 1.52574158 
-5.89013672 3.50097656 1.55137634 
-6.02050781 3.58984375 1.53804016 
-6.13525391 3.67187500 1.52619934 
-6.09521484 3.67187500 1.52912903 
-5.98828125 3.63476563 1.53849792 
-5.95947266 3.66113281 1.53948975 
-5.87890625 3.63769531 1.54640198 
-6.01220703 3.73242188 1.53254700 
-6.00830078 3.75097656 1.53205872 
-5.86083984 3.69042969 1.54536438 
-5.71435547 3.62890625 1.55867004 
-5.81201172 3.70410156 1.54829407 
-5.87939453 3.78515625 1.53988647 
-5.71826172 3.71289063 1.55467224 
-5.75390625 3.75390625 1.55024719 
-5.80468750 3.80566406 1.54428101 
-5.87597656 3.86816406 1.53639221 
-5.76074219 3.82128906 1.54675293 
-5.68554688 3.79785156 1.55313110 
-5.82128906 3.92089844 1.53785706 
-5.74169922 3.89453125 1.54472351 
-5.81689453 3.98339844 1.53530884 
-5.72656250 3.95019531 1.54322815 
-4.71923828 3.37011719 1.64143372 
-5.51318359 3.92285156 1.55946350 
-4.60009766 3.42187500 1.64727783 
-4.67431641 3.48828125 1.63888550 
-4.70556641 3.54589844 1.63391113 
-4.69628906 3.55859375 1.63394165 
-4.62939453 3.53320313 1.63983154 
-4.79052734 3.65917969 1.62257385 
-4.62060547 3.56542969 1.63885498 
-4.51953125 3.51660156 1.64820862 
-4.65136719 3.62402344 1.63388062 
-4.32324219 3.43945313 1.66545105 
-4.33349609 3.46386719 1.66348267 
-4.35400391 3.49707031 1.66049194 
-4.34521484 3.50878906 1.66053772 
