# .PCD v0.7 - Point Cloud Data file format
VERSION 0.7
FIELDS x y z
SIZE 4 4 4
TYPE F F F
COUNT 1 1 1
WIDTH 1386
HEIGHT 1
VIEWPOINT 0 0 0 1 0 0 0
POINTS 1386
DATA ASCII
-0.74176544 -0.93753064 0.65701735
-1.04495597 -0.90342391 0.62918836
-1.69359326 -0.88021702 0.63218522
-2.56753469 0.81431037 0.67149836
-2.32480884 0.81136757 0.64596355
-2.17734027 0.91787666 0.64122522
-2.07318926 0.89631784 0.63013488
-0.78916013 -0.93368542 0.63756526
-0.84537995 -0.89970374 0.62780595
-0.89350033 -0.87806046 0.62085247
-1.26176524 -0.81647640 0.59608173
-1.52897108 -0.83028919 0.60257554
-2.39914179 0.86312288 0.63609010
-2.30711603 0.87269443 0.62875861
-2.16255951 0.90488631 0.61949801
-2.08667374 0.90978819 0.61414903
-1.89707708 0.93279356 0.60347182
-1.62733781 1.18382978 0.61997426
-0.81748468 -0.97977144 0.62754309
-0.90709233 -0.97987890 0.62156814
-0.95830500 -0.94207412 0.61306250
-0.98829156 -1.00817919 0.62122393
-1.62874806 -0.77557737 0.58618963
-2.63266706 0.69490820 0.62504458
-2.51371670 0.78355968 0.61924773
-2.26899958 0.84403765 0.60358512
-2.20268106 1.02341461 0.61218464
-1.57695222 0.94201005 0.57481319
-1.55944264 1.01453722 0.58220422
-0.84681922 -0.89371675 0.59969842
-0.94743764 -0.99244934 0.60658211
-1.00314105 -0.91640866 0.59367520
-1.03468180 -0.97909588 0.60067672
-1.87432349 -0.70012176 0.57811493
-1.97260571 -0.67240447 0.58219117
-2.38363457 0.77880061 0.58786482
-2.24012041 0.89611715 0.58528006
-2.13591647 0.95851821 0.58344615
-1.95667613 0.85167879 0.56647873
-1.98315978 0.95694053 0.57559794
-1.82480025 0.91901737 0.56571048
-1.57047141 1.18490911 0.58331740
-0.72850668 -0.96458411 0.60227990
-1.01892030 -1.10414946 0.60234302
-1.15708005 -0.66012466 0.54394406
-1.49806571 -0.76405525 0.55577910
-2.43958092 0.60424101 0.56407827
-2.40086031 0.65092760 0.56331158
-2.28514314 0.65197051 0.55644292
-2.35579538 0.91026294 0.57209963
-2.31944370 0.96189356 0.57294053
-2.14170790 0.88697821 0.56027466
-2.21546459 1.12701905 0.57783997
-2.25016832 1.26597106 0.58808726
-1.55013108 1.29978514 0.57524377
-0.77242208 -0.86459249 0.57455957
-1.07992375 -0.92425674 0.56520706
-1.55275285 -0.79579866 0.54791462
-1.82173836 -0.83685803 0.55889267
-2.91897941 0.26130542 0.56520599
-3.20759368 0.57357091 0.58408767
-2.73286247 0.58689827 0.55880690
-2.54920530 0.65587986 0.55102080
-2.37833428 0.84946316 0.54945469
-2.16589642 0.83528888 0.54019922
-1.99222255 0.89009011 0.53675622
-1.87142873 0.98391694 0.53867853
-1.68279028 0.95718855 0.53344190
-1.68447232 1.18475664 0.54855716
-2.69772482 0.09785934 0.53088254
-3.01935625 0.35626912 0.54480833
-2.45249152 0.61045086 0.52491534
-2.52456498 0.71576643 0.52988482
-2.58952379 0.90985757 0.53718883
-2.43001723 0.96701664 0.53396517
-2.10651588 0.78644294 0.51845068
-2.19741201 0.93762594 0.52645040
-1.70963955 1.00650084 0.52091426
-1.62925911 0.95285755 0.51756030
-1.49530685 1.31813979 0.53859055
-0.72564089 -0.96882004 0.55801797
-0.90975958 -0.96272314 0.54850149
-1.47935498 -0.72462720 0.51749021
-1.64760685 -0.73842490 0.51976407
-2.60558510 0.09186805 0.50656629
-3.25554562 0.58687437 0.52587360
-2.96951914 0.58982259 0.51805305
-2.43468904 0.66889155 0.50537568
-2.48669577 0.76864463 0.50836790
-2.38451385 0.85414195 0.50801224
-1.86205232 0.97194749 0.50410897
-1.77007747 0.92446852 0.50181508
-1.74667692 0.97544718 0.50367814
-1.54332423 0.97829074 0.50402671
-0.74174929 -0.93175799 0.54010838
-1.08649635 -0.83235359 0.51990312
-4.47704268 0.63445878 0.51345837
-3.03779936 0.52599472 0.49215102
-2.73169279 0.58652246 0.48817334
-2.34753513 0.50137180 0.48266298
-2.36790180 0.84279269 0.48678836
-1.78837168 0.95244986 0.48697317
-0.99850154 -1.25185788 0.53209931
-2.51448894 0.50574064 0.46458894
-1.78814125 0.95258826 0.47100163
-1.68791461 0.96886098 0.47240806
-3.39971328 0.33172485 0.43423036
-2.61235833 0.47370017 0.44321093
-2.34903193 0.83005697 0.44582659
-2.18280935 0.85044783 0.44830114
-1.79705358 0.96648920 0.45490366
-2.36137676 0.76592082 0.42575985
-2.06225848 -0.81698573 0.44758347
-3.28568363 0.89606470 0.36819452
-2.54929614 0.96971446 0.39531347
-1.40952563 -0.84382993 0.45252839
-1.18571329 -0.74213636 0.44902310
-1.38313806 -0.75845557 0.43156481
-1.41876340 -0.76093370 0.41882113
-2.17165661 -0.84340394 0.37101707
-4.22946739 0.58581471 0.15921000
-3.07973719 0.62555152 0.26637226
-3.33257413 0.22780430 0.22079955
-2.97999525 0.34763622 0.25685623
-2.80376911 0.38645044 0.27494848
-2.96091795 0.50414366 0.25451794
-2.59626818 0.40231389 0.27562904
-2.52477503 0.44516978 0.28262913
-2.47698927 0.49194005 0.28638747
-2.87401390 1.09293139 0.20909032
-2.03301740 1.32711506 0.27289274
-1.62486076 1.06184399 0.32821691
-3.04882193 0.19778971 0.19848421
-2.97861671 0.34716928 0.20435563
-2.81299853 0.38848126 0.22558394
-2.93479443 0.49676836 0.20512855
-2.55286932 0.45429218 0.25802323
-2.71391654 0.65595722 0.22710209
-2.33053303 0.67992550 0.27442479
-2.41441917 0.87731123 0.25058866
-2.12385178 0.73723704 0.29514778
-1.77656388 0.78738528 0.32793027
-1.51697028 0.81865478 0.34664005
-3.01508808 0.19410349 0.17654246
-2.78075528 0.38086119 0.20640311
-2.60962057 0.40597329 0.23088257
-2.96764708 0.58907992 0.16971609
-2.45782399 0.48484147 0.24937665
-2.36290336 0.50829810 0.26174635
-2.82311559 0.78606141 0.17960107
-2.28700399 0.59281105 0.26712662
-2.28834295 0.65563858 0.26254541
-2.31829214 0.73991120 0.25222811
-2.18541813 0.71795517 0.27147049
-2.04428148 0.67686319 0.29306507
-2.07419825 0.76271611 0.28178477
-1.98656607 0.81721294 0.28722483
-1.89808035 0.79433024 0.29966110
-1.59939289 0.81344903 0.32773882
-1.53781617 0.86647493 0.32632396
-1.48723245 0.84641600 0.33264813
-3.11132908 0.28757182 0.13127559
-3.01231003 0.35337377 0.14551005
-2.84637165 0.47200897 0.16778409
-2.58151913 0.46358660 0.21091411
-2.84184074 0.70989507 0.15532854
-2.24461627 0.57069731 0.25687158
-2.18595910 0.65587538 0.25880578
-2.14651632 0.69101036 0.26141626
-2.09200573 0.71337235 0.26701021
-2.03486204 0.73028481 0.27318996
-1.95260155 0.72073746 0.28509143
-1.95038629 0.78192449 0.27892244
-1.74488330 0.74790829 0.30759960
-1.65214396 0.82608020 0.30773419
-1.53232324 0.85470968 0.31486481
-1.49011493 0.85451227 0.31829959
-1.37401581 0.86567968 0.32479545
-2.94516230 0.26301566 0.13349822
-2.53025818 0.57881278 0.19086328
-2.29889727 0.59921634 0.22795968
-2.19196558 0.65983278 0.23991042
-2.18377662 0.71714509 0.23574239
-2.08423209 0.70763791 0.25182152
-1.94897890 0.65919083 0.27694988
-1.98614800 0.75128698 0.26142618
-1.86142409 0.69470596 0.28534752
-1.73938537 0.80901676 0.28645867
-1.61204362 0.83766550 0.29638535
-1.48512590 0.84253663 0.30737859
-2.60276365 0.47047362 0.16320693
-2.49082661 0.56226104 0.17772201
-2.21815181 0.50115919 0.23196922
-2.46377087 0.68568534 0.17255479
-2.25249434 0.63523960 0.21413265
-2.22712588 0.68234688 0.21391666
-2.13056898 0.68021423 0.23033099
-2.06390095 0.69233602 0.23992211
-2.02048922 0.71876824 0.24381319
-1.85811877 0.75245380 0.26398045
-1.74668026 0.81951159 0.26959020
-1.64333224 0.81237566 0.28308320
-1.61054456 0.83545035 0.28312445
-1.52553105 0.84064680 0.29092893
-0.76138222 -1.28746891 0.25846231
-1.51453805 -0.66109675 0.33304864
-2.13750768 0.62544036 0.21786819
-2.17609072 0.71212214 0.20130566
-2.08571577 0.70913911 0.21750905
-1.95934474 0.66818279 0.24414326
-1.79665971 0.81463850 0.24879327
-1.77914572 0.86489844 0.24337368
-1.70262289 0.83033442 0.25896543
-1.63890934 0.80548620 0.27101213
-1.60640132 0.82838273 0.27099824
-1.52149856 0.74554622 0.29473150
-1.46910512 0.80308205 0.28982514
-0.75894260 -0.88148153 0.30528405
-0.80704737 -0.86981398 0.30930847
-0.86722338 -0.81669480 0.32022530
-2.21545506 0.50000477 0.19833463
-2.30675697 0.73333406 0.15547562
-2.18106604 0.71576166 0.18170488
-2.10365582 0.72299892 0.19528857
-2.03261280 0.72926039 0.20740211
-1.98537016 0.75129884 0.21269405
-1.94688749 0.77956104 0.21518131
-1.79295135 0.68323028 0.25520504
-1.86099374 0.82296318 0.22244932
-1.80086815 0.82034934 0.23207237
-1.74554539 0.81873751 0.24044393
-1.64804816 0.82117885 0.25330624
-1.60213935 0.82109106 0.25908726
-1.57424784 0.85346138 0.25639194
-1.42036986 0.77349055 0.28768170
-0.84236550 -0.78084254 0.31302464
-0.91749758 -0.77505499 0.31697845
-0.82033324 -1.28072643 0.22262064
-1.00921535 -1.11254084 0.25591740
-1.08214819 -0.82090729 0.31027514
-1.25743437 -0.84586877 0.30023357
-2.08279896 0.64736706 0.19206682
-2.10408139 0.72351563 0.17757705
-1.92436576 0.75765526 0.20633379
-1.90828347 0.80705595 0.20117381
-1.77673101 0.72504038 0.23718745
-1.65156043 0.82751620 0.23754425
-1.59533334 0.80911821 0.24858542
-1.55150604 0.80774724 0.25433826
-1.52127123 0.83297676 0.25277740
-1.48019612 0.83294421 0.25725481
-0.75201857 -0.89549637 0.27442503
-0.83932281 -0.78775030 0.29941058
-1.08404076 -0.79627633 0.30330503
-2.03765798 0.73388416 0.17196849
-1.86542821 0.64319271 0.22063868
-1.81362104 0.76838124 0.20869532
-1.73840904 0.74168861 0.22655530
-1.71174419 0.77263761 0.22502713
-1.59347260 0.80622602 0.23582987
-1.52634585 0.75704026 0.25507605
-0.81988043 -0.74411154 0.29460242
-0.86355257 -0.82463515 0.28085631
-0.90585756 -0.81115991 0.28549859
-1.04230165 -0.85527331 0.27897298
-1.08056855 -0.83178103 0.28397208
-1.96035910 0.56220609 0.19870099
-2.05865765 0.68925762 0.15743199
-2.03364849 0.73076749 0.15620944
-1.81552100 0.84010559 0.17917374
-1.69390464 0.81888014 0.20413235
-1.64990377 0.82573819 0.20954859
-1.60151792 0.82155985 0.21761566
-1.52933168 0.76368487 0.24062598
-1.48507106 0.84698343 0.22690471
-0.73765790 -0.83157164 0.25808913
-0.77147901 -0.85091263 0.25663233
-0.90884447 -0.80050081 0.27558190
-0.98782527 -0.76602423 0.28601965
-1.02731431 -0.73014361 0.29496267
-1.04465270 -0.83509350 0.27099371
-1.18197298 -0.75478286 0.28753752
-1.27230954 -0.72162932 0.29058522
-1.63510370 0.61091739 0.24525101
-1.69119430 0.81520951 0.19070593
-1.61188841 0.76276952 0.21566001
-1.57439506 0.77216816 0.21929531
-1.51848400 0.74209994 0.23459294
-1.47710013 0.94279176 0.19019628
-0.75531405 -0.79582471 0.25383025
-0.80965441 -0.76560634 0.26505411
-0.96481532 -0.87000453 0.24873148
-1.02435720 -0.74548465 0.28025031
-1.08363223 -0.79093224 0.26945576
-1.11679435 -0.79160362 0.26895911
-1.21412373 -0.76506394 0.27247727
-1.24486995 -0.75207317 0.27404997
-1.80609441 0.82888317 0.15131223
-1.65604079 0.83698922 0.17680046
-1.55578470 0.81886154 0.19713780
-1.50836158 0.80625612 0.20712319
-0.78083187 -0.74448264 0.25504002
-0.78322363 -0.82354438 0.23660351
-0.83812416 -0.78793293 0.24949557
-0.93133265 -0.85008258 0.23940082
-0.99071777 -0.75025171 0.26696208
-1.00086641 -0.87767506 0.23443682
-1.11806870 -0.75918490 0.26565212
-1.20959485 -0.71013594 0.27563545
-1.25094831 -0.80568600 0.24843889
-0.71882367 -0.78409004 0.22638291
-0.74654567 -0.81211674 0.22248693
-0.80158287 -0.78224742 0.23518972
-0.84049380 -0.78133470 0.23871258
-0.88008773 -0.77468836 0.24334162
-0.92600548 -0.74206293 0.25477058
-0.95654458 -0.75320756 0.25335336
-0.99430895 -0.91307425 0.21131235
-1.04687750 -0.81136870 0.24000323
-1.08117568 -0.81133789 0.24014315
-1.11562741 -0.80301028 0.24216776
-1.14938247 -0.77685016 0.24874260
-1.20645094 -0.67276782 0.27543873
-1.27449906 -0.58421886 0.29516822
-1.46063316 -0.56628263 0.27620816
-1.65342486 0.83364433 0.14831966
-1.56081498 0.83038688 0.16520664
-0.76628268 -0.77231383 0.22131933
-0.79673892 -0.79232824 0.21915869
-0.89075828 -0.74384958 0.24024272
-0.90510792 -0.80881572 0.22320241
-0.94361341 -0.80115885 0.22746305
-0.99809343 -0.71414375 0.25449756
-1.08931935 -0.71880800 0.25478840
-1.11496329 -0.81014210 0.22796206
-1.17981517 -0.72651654 0.25074363
-0.74250335 -0.81896067 0.19275919
-0.78805345 -0.81087661 0.19992897
-0.86117566 -0.72862369 0.23017137
-0.93587470 -0.82931387 0.20612606
-0.98927313 -0.75299889 0.23138823
-1.09914243 -0.60872859 0.27753401
-1.18169069 -0.79074931 0.21984892
-1.21268249 -0.76238084 0.22713947
-1.25509548 -0.62377292 0.26672086
-1.32520413 -0.83564842 0.19662428
-1.33821881 -0.54111713 0.28271824
-1.41200328 -0.59090775 0.25789249
-1.56026757 -0.75237751 0.18850049
-0.76446778 -0.77478212 0.19412556
-0.87153500 -0.79629678 0.19870609
-0.98122984 -0.78818566 0.20815492
-1.03125513 -0.69862342 0.23831813
-1.08713186 -0.73648757 0.22705796
-1.21459746 -0.79201293 0.20573783
-1.25276935 -0.61091042 0.26128274
-1.27393842 -0.58521003 0.26757628
-1.35900593 -0.60335380 0.25206870
-1.34450555 -0.49160236 0.28801170
-0.91578466 -0.77144951 0.19723150
-1.02034950 -0.75854045 0.20705143
-1.06563032 -0.66299504 0.24011394
-1.08662307 -0.73885280 0.21481663
-1.20980978 -0.73244399 0.21378192
-1.23813689 -0.71055245 0.21938981
-1.29656374 -0.88695908 0.15575534
-1.34891224 -0.50367701 0.27530593
-1.55470932 -0.74356008 0.16559610
-0.72383636 -0.85411626 0.13684011
-1.00071561 -0.69736844 0.21545336
-1.06026101 -0.70078337 0.21631283
-1.14800441 -0.75770098 0.19588619
-1.23767459 -0.70919812 0.20868373
-1.35970652 -0.83116347 0.15460193
-1.34197485 -0.55455881 0.25094542
-1.17411685 -0.59542704 0.24306239
-1.29647040 -0.89127964 0.12585914
-1.25480771 -0.40600780 0.30624956
-1.44923353 -0.60841322 0.20455450
-0.90587962 -0.80040479 0.14762527
-0.99851251 -0.70482671 0.18992975
-1.30198717 -0.59906608 0.22137661
-1.29054773 -0.46707121 0.27205780
-1.32345390 -0.43926883 0.27707070
-1.46735859 -0.52837062 0.21686450
-1.69242704 -0.38065904 0.19078642
-1.17336893 -0.58766699 0.22707787
-1.21331549 -0.79749912 0.14074984
-1.27402020 -0.59218800 0.21743251
-1.35222852 -0.58754450 0.20851240
-1.34599972 -0.49872708 0.24312593
-1.35442293 -0.46180618 0.25527900
-1.14826810 -0.61729652 0.20596141
-1.20061231 -0.62754071 0.19937184
-1.32355416 -0.58275974 0.20478410
-1.35016036 -0.51028210 0.22906621
-1.54127169 -0.45758802 0.20008889
-1.37251949 -0.56952471 0.19169337
-1.41003823 -0.52978104 0.19975299
-1.50228524 -0.65014607 0.13172665
-1.54857635 -0.55583882 0.14266649
-1.55289876 -0.51510942 0.14483818
-1.34227157 -0.49240735 0.20171395
-1.65552211 -0.21586454 0.17933336
-1.12576640 -0.52441287 0.18213618
-1.32397032 -0.44763184 0.18255422
-1.52498388 -0.14199689 0.22002655
-7.09455109 -0.70654297 1.41933441
-7.23050690 -0.67089844 1.40806580
-7.10919952 -0.64062500 1.41788483
-7.15390778 -0.66503906 1.36388397
-7.25379181 -0.64941406 1.35509491
-7.13468933 -0.73144531 1.30937958
-7.38107300 -0.70507813 1.28627777
-7.27743530 -0.67480469 1.29587555
-7.16208649 -0.64453125 1.30654907
-7.19207001 -0.62402344 1.30366516
-7.53039551 -0.62255859 1.27204132
-7.61496735 -0.53417969 1.26375580
-7.98303986 -0.50585938 1.22920990
-14.54747772 0.00781250 0.51084900
-7.29086304 -0.83447266 1.23802948
-6.90779114 -0.69189453 1.27582550
-7.08413696 -0.66064453 1.25819397
-7.20806885 -0.62500000 1.24575806
-7.00539398 -0.58886719 1.26578522
-7.18064880 -0.57763672 1.24830627
-7.24538422 -0.55957031 1.24179840
-7.63073730 -0.53515625 1.20332336
-7.74193573 -0.51757813 1.19217682
-7.76580811 -0.49462891 1.18968964
-8.04624939 -0.45947266 1.16159058
-7.95939636 -0.43164063 1.17008209
-7.89574432 -0.40478516 1.17626953
-8.03580475 -0.38574219 1.16220856
-9.94358826 0.23388672 1.03853607
-6.80743408 -0.64257813 1.22595215
-7.34519958 -0.61230469 1.16896057
-7.00891113 -0.56933594 1.20442963
-6.96314240 -0.54394531 1.20918274
-7.20215607 -0.53613281 1.18383026
-7.34817505 -0.52099609 1.16830444
-7.62150574 -0.51220703 1.13923645
-7.91453552 -0.45507813 1.10795593
-3.60402679 -0.24902344 1.56356812
-7.63609314 -0.39550781 1.13713074
-7.71205139 -0.37500000 1.12895203
-8.15457916 -0.36669922 1.08201599
-8.47611237 -0.23632813 1.20034027
-8.79050446 -0.22021484 1.16600800
-7.65453339 -0.39599609 1.07172394
-9.84015656 0.10546875 0.90888977
-10.03595734 0.15820313 0.88475800
-13.68181610 -0.36914063 0.45003510
-6.85964966 0.00146484 1.03237915
-6.95776367 0.02392578 1.01974487
-7.43923950 0.04785156 0.95872498
-10.03709412 0.13037109 0.81320953
-10.10004425 0.15673828 0.80491638
-8.96274567 0.34912109 0.94638062
-7.77088165 0.54980469 1.09445953
-8.59698486 0.69238281 0.98710632
-7.72479248 0.81005859 1.09505463
-6.22973633 -0.58251953 1.11589050
-6.34642792 -0.56933594 1.10113525
-6.49210358 -0.55859375 1.08272552
-8.02531433 -0.58349609 0.88935852
-7.83778381 -0.40527344 0.91222382
-3.40240479 -0.17382813 1.47065735
-7.72273254 -0.25830078 0.92579651
-7.50201416 -0.22900391 0.95343781
-7.42627716 -0.18164063 0.96261597
-10.22309113 0.18554688 0.70875549
-9.23460388 0.21679688 0.84120178
-9.52230835 0.27148438 0.80184937
-8.83076477 0.27636719 0.89466858
-8.99768829 0.30419922 0.87186432
-9.08334351 0.33007813 0.85999298
-8.56977844 0.44580078 0.92716217
-8.66635895 0.67480469 0.91013336
-8.66870117 0.76513672 0.90799713
-7.78426361 0.83691406 1.02459717
-7.68663788 0.86767578 1.03688812
-11.32064056 -1.48291016 0.37504578
-8.45710754 -0.86328125 0.75755310
-7.28024292 -0.70068359 0.91428375
-6.62368774 -0.56787109 1.00154877
-7.50358582 -0.43847656 0.88369751
-7.84651184 -0.40576172 0.83776855
-7.97443390 -0.38671875 0.82060242
-3.39231110 -0.20068359 1.43084717
-7.84760284 -0.23828125 0.83652496
-7.90810394 0.00097656 0.75375366
-7.42041016 0.02392578 0.82209015
-7.30278778 0.09130859 0.83791351
-7.14540100 0.11230469 0.85977173
-7.24828339 0.13623047 0.84490967
-6.96904755 0.15380859 0.88392639
-7.14196777 0.17919922 0.85927582
-7.01917267 0.19873047 0.87625122
-7.18557739 0.24755859 0.85224152
-8.95928955 0.27734375 0.80907440
-8.38171387 0.32617188 0.89006805
-11.53752899 0.79150391 0.43546295
-8.46189880 0.74658203 0.87037659
-8.32499695 0.82275391 0.88798523
-8.25315857 0.83789063 0.89775085
-5.55970764 -0.90869141 1.08753204
-5.79745483 -0.91748047 1.05416870
-5.58203888 -0.85546875 1.08468628
-5.78525543 -0.85888672 1.05616760
-5.48675537 -0.80810547 1.09819794
-11.55693817 -1.40917969 0.24472046
-5.55218506 -0.77783203 1.08901215
-5.25328064 -0.72998047 1.13106537
-8.76615143 -1.01904297 0.63736725
-6.73685455 -0.78857422 0.92271423
-6.18450165 -0.70019531 1.00035858
-6.93303680 -0.54394531 0.89481354
-7.60390472 -0.18554688 0.79837036
-7.50514984 -0.16113281 0.81204987
-7.05293274 -0.10986328 0.87528229
-8.03097534 -0.04785156 0.73699951
-7.75212860 -0.02294922 0.77594757
-7.95456696 0.00244141 0.88535309
-7.84970093 0.02294922 0.90079498
-7.60579681 0.04199219 0.93701172
-7.48347473 0.06054688 0.95506287
-8.55399323 0.09082031 0.79482269
-7.82353210 0.10400391 0.90375519
-8.17009735 0.12939453 0.85168457
-7.97229004 0.14697266 0.88098145
-8.94402313 0.18701172 0.73538971
-8.21925354 0.19384766 0.84348297
-8.32237244 0.21777344 0.82776642
-8.11862183 0.23388672 0.85794067
-8.56894684 0.26806641 0.79024506
-8.78763580 0.29687500 0.75719452
-8.21331787 0.30029297 0.84282684
-8.58235931 0.33496094 0.78723145
-8.22795868 0.34326172 0.83995819
-8.49845886 0.37548828 0.79909515
-8.16504669 0.55322266 0.84555054
-8.09376526 0.56982422 0.85584259
-8.02245331 0.58642578 0.86611176
-8.41326904 0.63427734 0.80699158
-8.13389587 0.63623047 0.84849548
-11.91723633 0.96728516 0.27892303
-8.12734222 0.69921875 0.84811401
-8.21740723 0.72802734 0.83409119
-11.76393890 1.04541016 0.30004883
-8.31979370 0.80175781 0.81718445
-8.38647461 0.82910156 0.80664825
-8.03794098 0.81884766 0.85861206
-8.19100952 0.85449219 0.83502197
-5.72334290 -0.96826172 1.00076294
-5.52944183 -0.92626953 1.02965546
-5.75540924 -0.93408203 0.99621582
-5.71396637 -0.87158203 1.00262451
-5.88819885 -0.87158203 0.97686005
-5.73099518 -0.79736328 1.00035858
-6.55169678 -0.75341797 0.87890625
-5.88899231 -0.67675781 0.97712708
-5.64747620 -0.63818359 1.01292419
-5.68878937 -0.62304688 1.00679016
-8.94283295 -0.82373047 0.52465820
-9.52905273 -0.81103516 0.43779755
-9.15579224 -0.73095703 0.49303436
-3.39353943 -0.28222656 1.34616089
-7.01014709 -0.41748047 0.81027222
-3.14477539 -0.23144531 1.38271332
-3.21415710 -0.22119141 1.37233734
-3.53241730 -0.22070313 1.32508850
-7.48013306 -0.34667969 0.74015808
-8.28804779 -0.29833984 0.83850861
-8.49073792 -0.28271484 0.80814362
-8.20132446 -0.25341797 0.85119629
-8.50814056 -0.23974609 0.80529022
-8.14344025 -0.20751953 0.85900116
-8.50228119 -0.19384766 0.80528259
-8.43841553 -0.17138672 0.81465149
-7.92835236 -0.12109375 0.89046478
-7.84116364 -0.09960938 0.90329742
-7.76550293 -0.07812500 0.91442108
-7.85192871 -0.05859375 0.90131378
-7.95568085 -0.03906250 0.88562012
-8.12309265 -0.01855469 0.86041260
-7.90305328 0.28906250 0.59979248
-7.44489288 0.29882813 0.67082977
-7.64002228 0.49902344 0.86690521
-9.65980530 -0.76220703 0.33489227
-9.46070862 0.00195313 0.50421906
-8.82386017 0.04687500 0.60855103
-8.22226715 0.06542969 0.70735168
-8.09439087 0.08544922 0.72814178
-8.11088562 0.10595703 0.72517395
-8.27753448 0.12988281 0.69743347
-8.65784454 0.15820313 0.63448334
-8.33914948 0.17382813 0.68669128
-8.06085205 0.18994141 0.73224640
-8.29658508 0.21630859 0.69309235
-8.02977753 0.23095703 0.73674774
-8.23650360 0.25732422 0.70233917
-8.03314972 0.27246094 0.73553467
-8.20509338 0.29931641 0.70684052
-7.85735321 0.30810547 0.76385498
-8.00609589 0.33349609 0.73896027
-7.91808319 0.35107422 0.75311279
-7.99166107 0.37548828 0.74059296
-7.97859955 0.39550781 0.74237061
-7.85008240 0.41015625 0.76320648
-7.76769257 0.42675781 0.77641296
-7.56413269 0.43554688 0.80964661
-7.99512482 0.47949219 0.73803711
-8.13178253 0.50830078 0.71502686
-8.25682831 0.53662109 0.69393158
-8.29528809 0.56103516 0.68712616
-8.33367920 0.58496094 0.68031311
-8.47578430 0.61572266 0.65634155
-8.55438232 0.64306641 0.64286041
-8.73662567 0.67822266 0.61220551
-8.50969696 0.68457031 0.64925385
-8.73210144 0.72363281 0.61190796
-8.62607574 0.73779297 0.62895203
-8.68785095 0.81054688 0.61708069
-8.39179993 0.80761719 0.66560364
-8.63706207 0.89648438 0.62319946
-10.90510559 1.44970703 0.23741150
-8.15930176 -1.91943359 0.46993256
-8.18028259 -1.89794922 0.46693420
-8.18793488 -1.84863281 0.46657562
-6.37517548 -1.00781250 0.77125549
-5.70212555 -0.79589844 0.88214111
-5.76554871 -0.70703125 0.87203979
-5.83567810 -0.69335938 0.86059570
-5.57753754 -0.65283203 0.90282440
-5.27973938 -0.59179688 0.95151520
-7.00350189 -0.70507813 0.66978455
-6.19187927 -0.62304688 0.80242920
-6.00249481 -0.58984375 0.83337402
-7.97718811 -0.45410156 0.75205994
-8.56625366 -0.46337891 0.65516663
-8.10500336 -0.41943359 0.73093414
-8.31969452 -0.36328125 0.69485474
-8.62036133 -0.33056641 0.64519501
-8.40107727 -0.30126953 0.68114471
-9.18092346 -0.25634766 0.55245972
-8.47622681 -0.21630859 0.66824341
-9.44654846 -0.21533203 0.50844574
-8.04269409 -0.16455078 0.73925018
-7.73599243 -0.11914063 0.78936768
-7.91473389 -0.10107422 0.75975800
-7.43915558 -0.01806641 0.83723450
-7.11103821 -0.00195313 0.57427216
-7.78630066 0.06054688 0.71280670
-8.09133148 0.08300781 0.65986633
-8.00883484 0.12402344 0.67356110
-8.07140350 0.14697266 0.66188049
-8.44901276 0.21923828 0.59562683
-8.16983795 0.25439453 0.64325714
-8.09363556 0.27343750 0.65608978
-7.59645081 0.27832031 0.74178314
-7.59516907 0.29785156 0.74166870
-8.10695648 0.33691406 0.65270233
-6.85455322 0.30712891 0.86920166
-7.89077759 0.36962891 0.68938446
-8.03912354 0.39746094 0.66329193
-7.55345917 0.39453125 0.74703979
-8.11661530 0.44287109 0.64905548
-8.20135498 0.46777344 0.63394165
-8.25147247 0.49218750 0.62482452
-8.31879425 0.51757813 0.61270142
-8.40332794 0.54394531 0.59758759
-8.88307953 0.61865234 0.51338959
-8.58163452 0.62158203 0.56520081
-8.94789886 0.66894531 0.50111389
-9.07573700 0.72460938 0.47782898
-8.63043213 0.71386719 0.55466461
-8.76612854 0.74755859 0.53052521
-8.58057404 0.80029297 0.56109619
-7.91635895 0.95117188 0.67080688
-7.97360992 0.99951172 0.65953827
-8.19330597 -2.00048828 0.37906647
-7.88564301 -1.84228516 0.43436432
-7.96891785 -1.83203125 0.42041016
-6.63347626 -1.18554688 0.65735626
-6.77874756 -1.18359375 0.63256836
-6.23329926 -1.07128906 0.72684479
-6.25425720 -1.03271484 0.72359467
-6.41080475 -1.03125000 0.69683838
-5.88520813 -0.94921875 0.78737640
-6.74698639 -1.02880859 0.63935089
-6.19974518 -0.92529297 0.73369598
-5.76217651 -0.82031250 0.80921173
-5.65561676 -0.77148438 0.82766724
-5.88663483 -0.77490234 0.78806305
-7.56410980 -0.35058594 0.49958801
-2.99010468 -0.16406250 1.28385162
-3.00141907 -0.15185547 1.28177643
-3.08710480 -0.11572266 1.26664734
-7.16616821 -0.17968750 0.56668091
-3.27021027 -0.06738281 1.23458862
-6.91064453 -0.06689453 0.60942841
-6.90964508 -0.02343750 0.60910797
-7.81169891 0.00048828 0.63877869
-7.81682587 0.02099609 0.63759613
-7.89682007 0.04150391 0.62288666
-8.10927582 0.06347656 0.58419037
-8.10273743 0.08398438 0.58512115
-8.64258575 0.13378906 0.48686218
-8.35359955 0.15136719 0.53884888
-8.61759186 0.17822266 0.49074554
-8.48980713 0.19824219 0.51354218
-8.73063660 0.22509766 0.46961212
-8.43572235 0.24023438 0.52265930
-7.28840637 0.22900391 0.73006439
-7.33907318 0.25000000 0.72055817
-7.89642334 0.28759766 0.61925507
-7.67055511 0.30029297 0.65981293
-7.68648529 0.32080078 0.65655518
-8.19747162 0.36083984 0.56357574
-7.54550934 0.35498047 0.68134308
-7.85485840 0.38867188 0.62487793
-7.43318939 0.38916016 0.70092773
-8.01858521 0.43701172 0.59435272
-8.27583313 0.47167969 0.54725647
-7.98644257 0.47753906 0.59931183
-8.05945587 0.50244141 0.58561707
-7.88509369 0.51367188 0.61679840
-8.29152679 0.55908203 0.54253387
-8.37008667 0.58544922 0.52778625
-8.46578217 0.61328125 0.50990295
-8.33724976 0.62646484 0.53273773
-8.08801270 0.63085938 0.57751465
-8.05141449 0.64941406 0.58365631
-6.57284546 0.55712891 0.85199738
-8.40312958 0.71923828 0.51862335
-8.79704285 0.77246094 0.44639587
-8.71419525 0.78857422 0.46089172
-8.30987549 0.77636719 0.53389740
-8.40496063 0.80712891 0.51599121
-8.74668884 0.85986328 0.45314026
-8.61207581 0.86962891 0.47705078
-8.40864563 0.87255859 0.51349640
-7.67198944 0.82324219 0.64717865
-8.19681549 0.89599609 0.55084991
-8.24563599 0.92236328 0.54132080
-8.28293610 0.94775391 0.53386688
-8.23996735 0.96484375 0.54106903
-8.02223206 0.98339844 0.57949829
-8.05362701 1.00878906 0.57308960
-8.13070679 1.03906250 0.55831146
-8.18166351 1.08837891 0.54758453
-7.99421692 -1.98828125 0.32822418
-8.03791809 -1.97216797 0.32083893
-8.13822937 -1.96582031 0.30319214
-8.04591370 -1.92333984 0.32048798
-7.95346832 -1.88085938 0.33777618
-7.92893219 -1.85156250 0.34273529
-7.93268585 -1.82763672 0.34256744
-7.93637085 -1.80371094 0.34239197
-7.94000244 -1.77929688 0.34220123
-4.12075806 -1.05029297 1.03495789
-4.00669098 -0.98681641 1.05623627
-4.19413757 -0.96923828 1.02294922
-4.12168884 -0.94287109 1.03622437
-4.20315552 -0.93994141 1.02170563
-4.01647186 -0.89746094 1.05558014
-4.20632935 -0.90917969 1.02147675
-4.22649384 -0.88085938 1.01815796
-3.99370575 -0.83398438 1.06027985
-4.01222229 -0.82177734 1.05708313
-3.90492249 -0.79296875 1.07655334
-6.43375397 -1.09716797 0.62097168
-4.35929108 -0.81982422 0.99491882
-3.93148804 -0.75195313 1.07211304
-6.38799286 -1.02978516 0.62978363
-6.90504456 -1.06933594 0.53685760
-6.78096771 -1.03369141 0.55937195
-6.56510162 -0.98730469 0.59839630
-6.66994476 -0.97802734 0.57968903
-5.69875336 -0.83398438 0.75471497
-5.36179352 -0.77978516 0.81542969
-5.65551758 -0.79101563 0.76267242
-5.42156982 -0.75000000 0.80484772
-5.43418884 -0.73291016 0.80264282
-5.67633820 -0.73681641 0.75917816
-3.83482361 -0.55078125 1.09029388
-4.08239746 -0.55908203 1.04581451
-5.34074402 -0.65136719 0.81964874
-5.37037659 -0.63525391 0.81435394
-6.60065460 -0.71728516 0.59329224
-5.19969940 -0.58593750 0.84505463
-4.86140442 -0.54248047 0.90585327
-4.52868652 -0.50146484 0.96562958
-4.88568115 -0.51074219 0.90147400
-5.03633118 -0.48681641 0.87437439
-4.76654053 -0.45166016 0.92279053
-4.85902405 -0.44091797 0.90613556
-4.73862457 -0.41699219 0.92771912
-4.66418457 -0.39599609 0.94102478
-4.62995911 -0.37792969 0.94709778
-4.12950897 -0.33496094 1.03689575
-4.37143707 -0.33154297 0.99337006
-4.34857178 -0.31542969 0.99739075
-7.07774353 -0.42285156 0.50719452
-6.98022461 -0.39648438 0.52462006
-3.39291382 -0.22949219 1.16870117
-3.41011810 -0.21679688 1.16550446
-6.47411346 -0.31298828 0.61515808
-7.05599213 -0.31103516 0.51052094
-6.93515015 -0.26367188 0.53191376
-3.20188141 -0.14453125 1.20224762
-3.15551758 -0.13037109 1.21042633
-4.69937897 -0.15087891 0.93298340
-3.39111328 -0.10937500 1.16780853
-3.26399231 -0.09375000 1.19048309
-7.50327301 -0.11767578 0.69629669
-7.69882965 -0.10058594 0.66077423
-9.16192627 -0.09472656 0.39621735
-8.67751312 -0.06787109 0.48354340
-8.04328156 -0.04052734 0.59735870
-7.86989594 -0.02001953 0.62849426
-7.15141296 0.01953125 0.40943909
-8.61580658 0.24218750 0.41051483
-7.08497620 0.22119141 0.70066071
-7.35408020 0.24804688 0.64925385
-7.30686188 0.26562500 0.65786743
-7.39184570 0.28759766 0.64138031
-7.98835754 0.33154297 0.52710724
-6.99693298 0.33056641 0.71472931
-6.87485504 0.34326172 0.73756409
-7.20093536 0.37695313 0.67517090
-7.41201019 0.40673828 0.63462830
-8.49615479 0.48291016 0.42798615
-8.37950897 0.49804688 0.44971466
-7.99290466 0.49755859 0.52280426
-8.08872223 0.52441406 0.50408936
-7.88014984 0.53271484 0.54330444
-7.74047852 0.54345703 0.56941223
-8.39347839 0.71728516 0.44180298
-8.20767975 0.72412109 0.47666168
-8.71552277 0.78710938 0.37918854
-8.63278198 0.80273438 0.39436340
-8.29217529 0.79541016 0.45877075
-8.54172516 0.83935547 0.41049957
-8.49900818 0.85839844 0.41802216
-7.58650970 0.83349609 0.59052277
-7.87002563 0.88232422 0.53567505
-7.63274384 0.87792969 0.58042145
-7.69295502 0.90478516 0.56826782
-8.22193909 0.98291016 0.46633911
-8.02462769 0.98242188 0.50342560
-8.19577026 1.04492188 0.46922302
-7.09028625 0.97265625 0.67910004
-3.33581543 -1.17626953 1.12446594
-7.82723999 -1.83203125 0.27346039
-3.82598877 -1.00097656 1.03638458
-3.93842316 -0.92968750 1.01633453
-4.00262451 -0.92431641 1.00435638
-4.08962250 -0.92187500 0.98805237
-3.91457367 -0.88183594 1.02140045
-3.92745209 -0.86816406 1.01912689
-4.00718689 -0.82031250 1.00466156
-4.08270264 -0.81494141 0.99052429
-3.93799591 -0.75146484 1.01826477
-4.13916016 -0.76074219 0.98036194
-6.16383362 -0.98193359 0.59800720
-6.84590149 -1.04003906 0.46935272
-5.62940979 -0.80712891 0.69976044
-5.88394928 -0.79443359 0.65193939
-7.00231934 -0.88183594 0.44107056
-5.53736877 -0.70458984 0.71745300
-5.53997803 -0.66748047 0.71716309
-5.62122345 -0.65576172 0.70189667
-6.35737610 -0.53369141 0.56324005
-6.57881927 -0.12841797 0.51901245
-5.49652100 -0.05761719 0.72240448
-3.06155396 -0.01513672 1.18092346
-7.84809113 0.01953125 0.48115540
-7.46260071 0.03857422 0.55732727
-7.45040131 0.05761719 0.55950165
-7.69084930 0.08007813 0.51152039
-8.35047913 0.10742188 0.38038635
-7.82125092 0.12109375 0.48506927
-7.39538574 0.13476563 0.56925964
-8.74388123 0.17968750 0.30133820
-8.48442841 0.19677734 0.35248566
-8.22495270 0.21240234 0.40363312
-8.02861023 0.22802734 0.44226074
-8.41782379 0.26074219 0.36460876
-8.19843292 0.27490234 0.40779114
-8.43823242 0.30468750 0.35977173
-8.45408630 0.32714844 0.35621643
-8.54450226 0.35253906 0.33783722
-6.85589600 0.30664063 0.67295074
-7.57753754 0.35498047 0.52915192
-8.60142517 0.44335938 0.32474518
-8.37029266 0.45410156 0.37023926
-7.23136902 0.43603516 0.59584045
-7.69415283 0.48095703 0.50331116
-7.75934601 0.52539063 0.48937225
-8.18730927 0.57324219 0.40364838
-8.05352783 0.58544922 0.42977142
-8.44110107 0.63330078 0.35202026
-7.97496033 0.62207031 0.44435120
-8.07022095 0.64990234 0.42481232
-8.05087280 0.66943359 0.42810822
-7.99713135 0.68652344 0.43824768
-8.02921295 0.70996094 0.43127441
-8.33021545 0.75585938 0.37062836
-8.21336365 0.76757813 0.39333344
-5.53929138 0.55419922 0.92652893
-8.12832642 0.80322266 0.40904999
-7.84559631 0.79785156 0.46488953
-7.62010956 0.79736328 0.50932312
-7.32037354 0.78857422 0.56858826
-7.51216125 0.82714844 0.52962494
-7.62955475 0.85888672 0.50551605
-7.71827698 0.88818359 0.48711395
-8.04671478 0.94384766 0.42070007
-7.78696442 0.93652344 0.47200775
-7.90396881 0.97021484 0.44787598
-7.82685852 0.98193359 0.46260834
-7.92086029 1.01367188 0.44305420
-7.76387024 1.01660156 0.47378540
-7.69812775 1.02929688 0.48622894
-8.07119751 1.09570313 0.41065979
-7.22126007 1.06787109 0.57825470
-7.06130981 1.08398438 0.60890961
-7.24008179 1.12841797 0.57218933
-7.12876892 1.13183594 0.59381104
-3.43856049 -1.14648438 1.05306244
-2.88246155 -0.98388672 1.16513062
-4.55448914 -1.17333984 0.83461761
-4.49076080 -1.12939453 0.84787750
-4.58918762 -1.12939453 0.82862091
-7.16351318 -1.46386719 0.31905365
-4.23554230 -0.99267578 0.90010834
-4.25431824 -0.97998047 0.89662170
-3.86383057 -0.90673828 0.97424316
-4.13259888 -0.93115234 0.92118835
-4.49819946 -0.96826172 0.84895325
-4.14709473 -0.90234375 0.91869354
-7.01143646 -1.28417969 0.35170746
-4.39490509 -0.90527344 0.87001038
-4.89190674 -0.95605469 0.77182770
-4.26688385 -0.85693359 0.89571381
-6.05767059 -1.07177734 0.54158020
-6.01396942 -1.04638672 0.55046082
-6.17546844 -1.04638672 0.51874542
-6.51953888 -1.06787109 0.45092773
-6.61784363 -1.05908203 0.43161774
-6.25678253 -0.97509766 0.50349426
-4.00875092 -0.70312500 0.94781494
-6.09957886 -0.91699219 0.53478241
-6.33119202 -0.90185547 0.48934174
-6.76348877 -0.90380859 0.40439606
-5.50697327 -0.75976563 0.65255737
-5.42176819 -0.73339844 0.66936493
-5.47029114 -0.70068359 0.66005707
-5.62629700 -0.67724609 0.62929535
-5.40485382 -0.62207031 0.67305756
-5.10859680 -0.56250000 0.73152924
-4.71456146 -0.49951172 0.80923462
-4.79588318 -0.47216797 0.79316711
-4.64772797 -0.42871094 0.82228851
-4.64848328 -0.39599609 0.82205963
-4.64905548 -0.36328125 0.82181549
-4.38551331 -0.31787109 0.87358856
-5.21227264 -0.32226563 0.71049500
-4.54139709 -0.26123047 0.84257507
-4.78825378 -0.25390625 0.79380798
-7.66870117 -0.26074219 0.51989746
-7.74906158 -0.24316406 0.50385284
-7.76624298 -0.22265625 0.50029755
-7.59394836 -0.19677734 0.53377533
-7.42726135 -0.17431641 0.56666565
-7.42705536 -0.15527344 0.56653595
-7.36936188 -0.13476563 0.57779694
-7.28291321 -0.11425781 0.59474182
-7.32850647 -0.09570313 0.58552551
-7.58081818 -0.07958984 0.53530884
-7.29895020 -0.05761719 0.59097290
-7.46501923 -0.03955078 0.55783081
-7.98140717 -0.02099609 0.45522308
-5.32299805 0.26660156 0.62115479
-6.06246948 0.37158203 0.46710205
-4.48550415 0.27148438 1.10290527
-7.34696198 0.43896484 0.50956726
-7.37957001 0.46142578 0.50176239
-7.60679626 0.49414063 0.45415497
-8.01512146 0.56005859 0.36841583
-8.08182526 0.58544922 0.35402679
-8.02260590 0.60253906 0.36576843
-7.92903137 0.61669922 0.38465118
-7.88120270 0.63378906 0.39402008
-8.01628113 0.66455078 0.36538696
-8.22557068 0.70263672 0.32130432
-7.44359589 0.77832031 0.47962952
-7.30226135 0.84228516 0.50649261
-7.69869995 0.90380859 0.42315674
-7.63323975 0.91699219 0.43611145
-7.93218231 1.01269531 0.37152100
-7.62173462 0.99658203 0.43560791
-7.74964142 1.03222656 0.40814972
-7.99123383 1.08251953 0.35687256
-2.08260345 -0.82617188 1.29187775
-2.27558899 -0.85302734 1.25199127
-1.92175293 -0.77587891 1.32570648
-2.38556671 -0.85156250 1.22958374
-6.57861328 -1.22167969 0.36690521
-6.13957977 -1.12060547 0.45812225
-6.02215576 -1.08496094 0.48262024
-6.52111816 -1.10839844 0.38021851
-6.43771362 -1.07714844 0.39767456
-5.98407745 -1.00097656 0.49143219
-6.68072510 -1.06445313 0.34806061
-6.51169586 -1.02343750 0.38312531
-6.38239288 -0.98779297 0.40998077
-6.83444977 -1.01806641 0.31705475
-6.85504150 -0.97656250 0.31320190
-6.18923950 -0.88525391 0.45048523
-6.59585571 -0.90673828 0.36692047
-6.56311035 -0.88232422 0.37382507
-6.47892761 -0.85302734 0.39129639
-5.19081879 -0.69140625 0.65656281
-6.38009644 -0.78173828 0.41197968
-5.56709290 -0.63330078 0.57949066
-5.40678406 -0.47509766 0.61251068
-5.24738312 -0.43017578 0.64519501
-4.62376404 -0.36181641 0.77319336
-4.86483002 -0.34033203 0.72352600
-7.07496643 -0.00146484 0.49490356
-7.04000854 0.01708984 0.50219727
-7.19958496 0.03662109 0.46746063
-6.84900665 0.07080078 0.54267120
-7.32892609 0.09472656 0.43864441
-6.89316559 0.10742188 0.53254700
-6.74349213 0.12304688 0.56459045
-6.79406738 0.14257813 0.55333710
-6.78739166 0.16015625 0.55446625
-6.56324768 0.17236328 0.60261536
-6.72240448 0.19384766 0.56785583
-7.53939056 0.23486328 0.39076996
-5.28437805 0.18554688 0.87825012
-6.98786163 0.25585938 0.50935364
-6.91226959 0.27148438 0.52532959
-7.16262817 0.29931641 0.47074890
-6.98973846 0.31103516 0.50776672
-7.30285645 0.34277344 0.43956757
-7.05557251 0.35156250 0.49268341
-7.69277954 0.41992188 0.35376740
-7.21107483 0.41503906 0.45765686
-7.43232727 0.44580078 0.40924835
-7.07068634 0.44482422 0.48715210
-7.05757141 0.46337891 0.48950195
-7.78697205 0.52636719 0.33084106
-7.67658997 0.53955078 0.35425568
-7.64041138 0.55761719 0.36156464
-6.24184418 0.51513672 0.66352844
-6.58235168 0.55712891 0.58907318
-7.30497742 0.63134766 0.43157959
-7.42263794 0.66015625 0.40544128
-6.14867401 0.57373047 0.68170929
-6.38046265 0.61035156 0.63078308
-5.98504639 0.59326172 0.71620941
-7.69285583 0.76318359 0.34420013
-5.91828156 0.61914063 0.72965240
-7.42587280 0.77832031 0.40099335
-7.08164978 0.76464844 0.47525787
-6.74325562 0.74951172 0.54830933
-6.91163635 0.78466797 0.51100159
-7.24496460 0.83837891 0.43770599
-7.15129852 0.84765625 0.45743561
-7.63219452 0.91943359 0.35189056
-7.61799622 0.93798828 0.35424042
-7.61513519 0.95800781 0.35411835
-7.58925629 1.01562500 0.35747528
-7.56040955 1.05224609 0.36219788
-7.01244354 1.00195313 0.48121643
-7.08319092 1.02978516 0.46497345
-7.00638580 1.03857422 0.48099518
-7.34352112 1.10351563 0.40640259
-7.04550934 1.08203125 0.47082520
-7.11272430 1.12939453 0.45446777
-7.07210541 1.16210938 0.46167755
-3.24774933 -1.32519531 0.98448944
-3.07681274 -1.24462891 1.02326202
-3.33820343 -1.27832031 0.96692657
-3.71369934 -1.29150391 0.88703156
-4.36837769 -1.40087891 0.74510193
-3.09880066 -1.11865234 1.02233124
-3.45409393 -1.17919922 0.94525909
-4.51924896 -1.36669922 0.71408844
-4.37023926 -1.32031250 0.74697113
-4.37273407 -1.30419922 0.74685669
-3.97496033 -1.18066406 0.83452606
-4.87205505 -1.33349609 0.64001465
-4.41848755 -1.23242188 0.73894501
-2.06171417 -0.77539063 1.25111389
-5.14128113 -1.31250000 0.58325958
-5.15503693 -1.29687500 0.58068085
-3.71861267 -1.03076172 0.89248657
-4.69699097 -1.18261719 0.68074036
-4.74435425 -1.17382813 0.67082977
-2.52065277 -0.78906250 1.15277863
-4.83338928 -1.15429688 0.65222168
-4.81852722 -1.13525391 0.65577698
-4.96197510 -1.14062500 0.62505341
-4.94142914 -1.12011719 0.62982178
-5.15286255 -1.13525391 0.58440399
-4.95111084 -1.08691406 0.62834930
-6.14247131 -1.24609375 0.37112427
-4.97760010 -1.05566406 0.62319946
-5.99967957 -1.18505859 0.40267944
-5.90547180 -1.15185547 0.42334747
-6.08905792 -1.15771484 0.38401794
-5.94367218 -1.11816406 0.41570282
-6.07621002 -1.11572266 0.38739014
-6.02338409 -1.06884766 0.39935303
-6.11048126 -1.06005859 0.38082886
-6.53852844 -1.09326172 0.28878784
-6.14260864 -1.02441406 0.37441254
-6.17851257 -1.00830078 0.36691284
-6.32812500 -1.00585938 0.33489990
-5.96741486 -0.92382813 0.41304016
-6.31614685 -0.94238281 0.33811951
-6.24942017 -0.91552734 0.35269165
-6.23387146 -0.89306641 0.35620880
-5.77970123 -0.82617188 0.45414734
-5.57023621 -0.78613281 0.49937439
-5.71961212 -0.78173828 0.46735382
-5.63533783 -0.75439453 0.48560333
-6.13816833 -0.78271484 0.37754059
-6.07667542 -0.75683594 0.39088440
-6.41430664 -0.76708984 0.31835938
-6.23865509 -0.73144531 0.35623932
-6.11992645 -0.70117188 0.38185120
-6.15519714 -0.68408203 0.37434387
-5.55686188 -0.61669922 0.50305176
-5.08387756 -0.56250000 0.60476685
-4.57070923 -0.50683594 0.71510315
-4.85681152 -0.51123047 0.65361023
-4.88023376 -0.49560547 0.64856720
-4.80652618 -0.47363281 0.66439819
-5.00126648 -0.46972656 0.62253571
-6.20744324 -0.52734375 0.36333466
-4.81932068 -0.42431641 0.66158295
-4.93972778 -0.41406250 0.63565063
-5.22537231 -0.32666016 0.89788818
-5.24267578 -0.31347656 0.89410400
-5.14561462 -0.29443359 0.91498566
-5.04850006 -0.27587891 0.93589020
-5.15729523 -0.26611328 0.91202545
-5.29455566 -0.25781250 0.88230896
-5.65483856 -0.25830078 0.80441284
-6.21534729 -0.26464844 0.68327332
-5.76918793 -0.23193359 0.77950287
-6.39836884 -0.23779297 0.64353943
-3.79536438 -0.14062500 1.20550537
-7.11336517 -0.22412109 0.48889160
-7.12471008 -0.20605469 0.48631287
-4.04051208 -0.11425781 1.15217590
-7.12438202 -0.16894531 0.48606873
-7.58195496 -0.15966797 0.38709259
-7.34707642 -0.13525391 0.43762970
-5.54324341 -0.06054688 0.82664490
-7.46473694 -0.02050781 0.41094208
-3.14895630 -0.00390625 0.96646881
-3.22832489 0.00878906 0.94840240
-3.16484833 0.02148438 0.96243286
-6.66622162 0.04931641 0.51280975
-6.77533722 0.15820313 0.48583984
-4.03285980 0.12353516 1.10551453
-7.37494659 0.26757813 0.34836578
-3.96588898 0.17773438 1.11937714
-6.54520416 0.34423828 0.53372192
-7.04000854 0.38623047 0.42117310
-5.46850586 0.39746094 0.77471161
-5.30170441 0.40087891 0.81212616
-5.75592804 0.44628906 0.70859528
-5.15042114 0.41894531 0.84555817
-6.17842102 0.52490234 0.61131287
-5.91977692 0.52148438 0.66940308
-6.60465240 0.61035156 0.51269531
-5.95961761 0.57275391 0.65876770
-6.50375366 0.63623047 0.53447723
-6.62001038 0.71777344 0.50557709
-6.89368439 0.78125000 0.44194794
-7.27741241 0.83935547 0.35382843
-8.27713776 1.03076172 0.12291718
-3.34328461 -1.16699219 0.91600800
-4.46313477 -1.28662109 0.66384888
-2.38270569 -0.87597656 1.13736725
-2.15950775 -0.82275391 1.18834686
-2.18894196 -0.81738281 1.18189240
-2.62311554 -0.88574219 1.08348846
-2.25342560 -0.80761719 1.16768646
-2.27723694 -0.80126953 1.16251373
-4.79679108 -1.21484375 0.59138489
-4.14945221 -1.05664063 0.73921204
-2.14357758 -0.71386719 1.19397736
-2.72577667 -0.79687500 1.06227112
-4.62344360 -1.08544922 0.63279724
-3.84785461 -0.93310547 0.80895233
-5.22446442 -1.10839844 0.49810028
-5.04553223 -1.06445313 0.53887939
-5.28495789 -1.08105469 0.48505402
-5.21900177 -1.05371094 0.50026703
-4.16815186 -0.89013672 0.73797607
-4.82637024 -0.96386719 0.58952332
-5.12818146 -0.98730469 0.52161407
-5.34517670 -0.99853516 0.47287750
-5.55091095 -1.00683594 0.42670441
-5.91336823 -0.99511719 0.34569550
-5.90940094 -0.97509766 0.34683228
-5.86193848 -0.85302734 0.35876465
-5.69280243 -0.81640625 0.39703369
-5.60314178 -0.78857422 0.41738129
-5.76927948 -0.78613281 0.38011169
-5.74323273 -0.74511719 0.38623047
-5.86386108 -0.73730469 0.35919189
-5.95034027 -0.72558594 0.33983612
-5.87274933 -0.68017578 0.35748291
-4.83728027 -0.57617188 0.59050751
-4.36587524 -0.50732422 0.69660187
-5.12042999 -0.49462891 0.52695465
-4.89987946 -0.41210938 0.57644653
-4.39276886 -0.35107422 0.69030762
-4.45590210 -0.32226563 0.67596436
-4.59872437 -0.31298828 0.64377594
-4.50180817 -0.29248047 0.66546631
-4.66171265 -0.28320313 0.62943268
-4.49048615 -0.26025391 0.66780090
-4.49046326 -0.24414063 0.66768646
-4.93006897 -0.24267578 0.56876373
-2.97064972 -0.12744141 1.00849152
-3.14953613 -0.01708984 0.96657562
-6.92366791 0.08886719 0.38100433
-6.81543732 0.19531250 0.40446472
-5.57823944 0.43408203 0.68861389
-5.67321777 0.45605469 0.66567230
-5.81362152 0.48242188 0.63198090
-5.91983795 0.50537109 0.60636902
-6.85499573 0.74023438 0.37960815
-6.91820526 0.78369141 0.36325073
-6.66633606 0.77587891 0.42229462
-6.79165649 0.82519531 0.39115906
-6.90799713 0.85644531 0.36280060
-5.27746582 -1.29931641 0.41021729
-5.30240631 -1.28515625 0.40476227
-5.07985687 -1.22949219 0.45775604
-5.12151337 -1.21826172 0.44832611
-5.01683044 -1.18359375 0.47344208
-5.43003845 -1.23242188 0.37634277
-4.85215759 -1.12255859 0.51303864
-4.92743683 -1.11718750 0.49563599
-4.43342590 -1.02441406 0.61242676
-5.09495544 -1.10791016 0.45686340
-5.04054260 -1.08203125 0.47001648
-5.21739197 -1.09033203 0.42868805
-5.33982086 -1.07226563 0.40052032
-5.36997986 -1.05761719 0.39373779
-4.88593292 -0.97363281 0.50792694
-4.75196075 -0.93798828 0.53969574
-4.69136810 -0.91357422 0.55421448
-5.32782745 -0.50927734 0.40836334
-5.44218445 -0.49853516 0.38157654
-4.83462524 -0.40820313 0.52376556
-4.89855957 -0.32763672 0.50848389
-4.78477478 -0.30566406 0.53501129
-4.65954590 -0.28369141 0.56422424
-4.65958405 -0.26708984 0.56409454
-5.18947601 -0.27001953 0.43996429
-4.99574280 -0.24511719 0.48516846
-13.02139950 2.01723599 0.10501075
0.79699659 1.07044590 0.81714118
1.39166760 1.21520257 0.85013694
1.19161296 1.06207478 0.81442386
1.50410044 1.12941027 0.83657157
1.41231489 1.21213603 0.82572460
1.74455774 1.24119806 0.82921034
1.70840704 1.31251097 0.82212663
1.77974713 1.11137104 0.81779110
1.65832686 1.25278986 0.79799634
1.74604058 1.30467248 0.80446124
0.88062692 1.26274097 0.68071944
1.71849811 1.24334753 0.78304684
1.69984329 1.04973185 0.76787579
1.75729680 1.23622251 0.74528295
1.86885762 1.16120577 0.74627453
1.84526420 1.10386586 0.72510612
1.85240233 1.16209698 0.72337759
1.78429651 1.16802454 0.68967259
0.94125223 1.24933839 0.48906478
0.69246984 1.05784786 0.40950567
0.76706815 1.05556691 0.38973933
0.77985644 1.05275404 0.31959736
0.74133039 1.05182457 0.27171880
1.52516878 1.18778694 0.48532432
-1.67946196 -0.54579473 0.80321598
-1.87114716 -0.75123709 0.76439869
-1.84747958 -0.47455603 0.70248318
-1.92259598 -0.87630177 0.78494346
-2.11053801 -0.71563059 0.78640282
-1.28249645 -0.72233987 0.65568876
-1.59443545 0.97496963 0.70160037
-1.52910590 0.93190432 0.68801254
-1.33594322 -0.82380033 0.67086434
-1.64105093 0.96916181 0.68811744
-0.94080919 -0.72351986 0.64813733
-2.52066970 0.78673488 0.75476217
-2.17585015 0.84136778 0.70978570
-2.08216000 0.83138132 0.69592828
-1.68278599 0.95182723 0.67228270
-0.76692283 -0.99400592 0.71072233
-0.86519849 -1.15356088 0.73552620
-2.39843249 0.71644425 0.70808136
-2.19150782 0.85451812 0.69423032
-0.74468565 -0.93238968 0.68552279
-1.38801408 -0.88697326 0.64750975
-1.45780957 -0.75261754 0.62342012
-1.67336059 -0.93093890 0.66959167
-2.15361524 -0.81847221 0.70026553
-2.49738574 0.70074600 0.69953948
-2.36443830 0.76585317 0.68732351
-1.38525677 -0.74863237 0.60845882
-3.13720322 0.73714566 0.76209593
-2.74775791 0.66917592 0.70761681
-2.54265261 0.72448266 0.68515152
-2.45902801 0.75162494 0.67694563
-2.37213182 0.77088279 0.66819561
-2.07687545 0.82742041 0.64140296
-0.98937285 -1.00598681 0.65013319
-3.35471869 0.23334658 0.74585843
-2.86803532 0.47888321 0.68949270
-2.44779396 0.74528110 0.65390873
-2.34917831 0.75649935 0.64426082
-2.17827797 0.70973527 0.62317073
-2.10999036 0.85740858 0.62954998
-2.08287930 0.90577698 0.63188815
-1.88238215 0.91392487 0.61723214
-1.89241445 1.01035893 0.62891167
-1.53688300 0.95629346 0.60462606
-0.77978146 -1.09032190 0.66251111
-1.31462848 -0.73511916 0.58290797
-1.38954794 -0.89714181 0.60948622
-3.72162461 0.05675100 0.75631475
-3.49012113 0.34657586 0.73080862
-3.02701306 0.69621557 0.68885267
-2.78898835 0.68660396 0.66363549
-2.42739964 0.66450417 0.62606084
-2.31159043 0.80238396 0.62397993
-2.08878899 0.83863312 0.60811293
-1.91815269 0.81015980 0.59291810
-1.83655834 0.93427008 0.60007077
-1.80776453 0.97810400 0.60317558
-1.56806386 0.92146039 0.58669120
-1.51884806 1.03564680 0.59932292
-0.78156579 -1.08404005 0.64494759
-1.41708088 -0.85570395 0.59058726
-3.25534177 -1.09078658 0.75081825
-3.15299034 0.46948576 0.66632640
-2.53523898 0.64909035 0.61442631
-2.26776028 0.77215385 0.59880292
-2.14651155 0.89074862 0.59821689
-1.89303827 0.78378540 0.57349110
-1.91347253 0.87606895 0.58250910
-0.79592466 -1.04130971 0.62210840
-1.00371456 -0.91294795 0.59318548
-1.12251186 -0.84554130 0.57941377
-1.46453309 -0.87870663 0.58144808
-1.55266261 -0.88473165 0.58401632
-1.98292065 -1.13161671 0.62946153
-2.99139881 0.77177525 0.63220036
-2.68419600 0.71922195 0.60687041
-2.16203594 0.76318961 0.57240003
-2.10642338 0.85499746 0.57479179
-2.05698252 0.88138670 0.57383436
-1.91431856 0.87739438 0.56632131
-1.92151845 1.05172205 0.58039737
-1.81841898 0.99509102 0.57179004
-1.81380069 1.08367968 0.57922471
-1.68027687 0.95145541 0.56357491
-1.56422365 0.91429192 0.55741453
