# .PCD v0.7 - Point Cloud Data file format
VERSION 0.7
FIELDS x y z
SIZE 4 4 4
TYPE F F F
COUNT 1 1 1
WIDTH 1381
HEIGHT 1
VIEWPOINT 0 0 0 1 0 0 0
POINTS 1381
DATA ASCII
-6.87341309 0.85888672 0.45469379
-7.19982910 0.91479492 0.37974262
-6.95886230 0.90551758 0.43382740
-6.80859375 0.90600586 0.46726608
-6.81701660 0.92529297 0.46457672
-7.02954102 0.97045898 0.41542053
-6.92443848 1.01269531 0.43702793
-3.81970215 0.61230469 1.14438915
-3.88562012 0.63232422 1.12882710
-4.19750977 0.91772461 1.04475307
-3.94482422 0.89404297 1.10149956
-3.82995605 0.88330078 1.12729454
-4.33715820 1.01928711 1.00811100
-6.73059082 1.53686523 0.45307827
-1.35705566 3.67333984 1.18210983
-5.65527344 -1.24047852 0.39328957
-5.11560059 -0.76660156 0.52106380
-5.03845215 -0.72387695 0.53877735
-2.50915527 -0.46044922 1.10993290
-5.58081055 -0.74047852 0.41654491
-2.65954590 -0.42822266 1.07619667
-2.85974121 -0.39721680 1.03088570
-2.85998535 -0.38500977 1.03079414
-2.70092773 -0.36132813 1.06667328
-2.63293457 -0.32128906 1.08183098
-2.39392090 -0.28369141 1.13563728
-2.40527344 -0.27319336 1.13298607
-2.40563965 -0.26220703 1.13289833
-2.42822266 -0.25244141 1.12767315
-2.51440430 -0.23437500 1.10822105
-2.37658691 -0.21655273 1.13899708
-2.44494629 -0.19726563 1.12339020
-2.42773438 -0.18554688 1.12716961
-2.47302246 -0.17626953 1.11679173
-2.38146973 -0.16186523 1.13728905
-4.97363281 -0.21899414 0.55297756
-2.86596680 -0.14257813 1.02766705
-4.91564941 -0.16625977 0.56545448
-3.89331055 -0.12768555 0.79571342
-4.80664063 -0.13012695 0.58965492
-2.82763672 -0.02050781 1.03447151
-5.72595215 0.02124023 0.67425728
-5.90209961 0.03735352 0.63271809
-5.99255371 0.06982422 0.61112976
-5.92846680 0.08496094 0.62574196
-5.77880859 0.11376953 0.66031742
-5.71533203 0.12768555 0.67492962
-5.79943848 0.14501953 0.65477562
-5.86694336 0.16186523 0.63862610
-5.93945313 0.19531250 0.62103939
-6.02319336 0.21411133 0.60087776
-6.02124023 0.24609375 0.60067558
-6.17382813 0.26806641 0.56444931
-6.15502930 0.28369141 0.56836224
-6.38146973 0.30981445 0.51472473
-6.61279297 0.35498047 0.45964050
-6.44616699 0.36376953 0.49834633
-6.58129883 0.38818359 0.46611691
-6.45446777 0.39843750 0.49546337
-6.32189941 0.40771484 0.52614784
-6.37731934 0.42797852 0.51265335
-6.29040527 0.43945313 0.53263187
-6.54443359 0.47290039 0.47227383
-6.72485352 0.50244141 0.42931080
-6.73999023 0.52124023 0.42519188
-6.66979980 0.53393555 0.44115353
-6.76464844 0.55859375 0.41826916
-6.76599121 0.59497070 0.41671276
-6.57666016 0.59716797 0.46081257
-6.47827148 0.60644531 0.48347569
-6.28881836 0.60717773 0.52758598
-6.23547363 0.61914063 0.53954315
-6.60229492 0.66943359 0.45234489
-6.78735352 0.70434570 0.40800953
-6.45043945 0.68994141 0.48696995
-6.56628418 1.01879883 0.44617462
-4.18029785 0.70947266 1.01222229
-4.05957031 0.70336914 1.04032898
-6.53369141 1.33447266 0.43753242
-6.66418457 1.37695313 0.40518856
-5.40051270 -0.88916016 0.38291264
-3.29223633 -0.57714844 0.87980747
-3.12866211 -0.54736328 0.91839123
-3.24255371 -0.54589844 0.89161587
-3.43627930 -0.55151367 0.84614754
-5.35522461 -0.72021484 0.39501476
-3.02868652 -0.48681641 0.94203091
-3.41772461 -0.45532227 0.85076714
-5.29943848 -0.58911133 0.40873909
-3.15124512 -0.40795898 0.91332626
-5.36401367 -0.53979492 0.39364243
-3.43090820 -0.38867188 0.84759331
-5.38244629 -0.50463867 0.38935947
-5.37145996 -0.48583984 0.39189148
-5.09887695 -0.45092773 0.45587826
-4.88867188 -0.42089844 0.50517559
-5.02575684 -0.41186523 0.47298431
-4.93481445 -0.38964844 0.49422932
-5.03796387 -0.37792969 0.47003555
-4.88989258 -0.35302734 0.50465679
-5.02685547 -0.34277344 0.47245407
-5.04992676 -0.32641602 0.46697712
-5.15234375 -0.31323242 0.44278431
-5.22668457 -0.29882813 0.42527390
-5.07849121 -0.27539063 0.45989799
-5.02746582 -0.25610352 0.47179794
-4.82226563 -0.23217773 0.51980305
-4.86767578 -0.21679688 0.50897884
-4.97009277 -0.20263672 0.48478222
-4.89001465 -0.18334961 0.50337601
-4.78149414 -0.16381836 0.52865601
-4.65063477 -0.14428711 0.55929089
-5.99194336 -0.08886719 0.61345673
-3.25583220 1.15558040 0.82193708
1.16749978 1.23389554 0.71691024
1.35771549 1.05128098 0.61288810
0.96351743 1.15234292 0.53216654
1.36839807 1.12874877 0.58417058
0.95817041 1.14650047 0.36273938
0.28442383 4.27416992 2.10049057
-7.45507813 -0.14331055 1.92620659
-7.96411133 -0.19384766 1.78655243
-7.33154297 0.02856445 1.74569893
-7.29589844 0.04736328 1.74745369
-7.55224609 0.06860352 1.73339844
-7.41699219 0.08666992 1.74053192
-7.48632813 0.10693359 1.73658562
-7.63574219 0.16796875 1.72791481
-7.60546875 0.18725586 1.72935677
-7.78051758 -0.21069336 1.72345734
-8.72167969 -0.21142578 1.67256927
-7.51708984 -0.14575195 1.73720169
-7.25097656 -0.00927734 1.75040436
-7.65844727 -0.33056641 1.54369164
-7.07934570 -0.40063477 1.53460693
-7.40063477 -0.39184570 1.51200676
-7.38916016 -0.36865234 1.51266670
-8.34716797 -0.24707031 1.52101135
-8.20117188 -0.22192383 1.53150177
-7.17700195 -0.40356445 1.48044777
-7.79077148 -0.35913086 1.43397522
-7.60400391 -0.32910156 1.44784546
-7.48657227 0.31860352 1.48971367
-7.44018555 0.39428711 1.49258995
-8.93383789 -0.44677734 1.37549400
-8.79467773 -0.39526367 1.38685036
-7.12670898 -0.53588867 1.38047791
-7.09252930 -0.51196289 1.38334274
-7.48925781 -0.51074219 1.34906006
-7.23950195 -0.47509766 1.37049484
-8.14965820 -0.44750977 1.29168701
-7.36328125 -0.39062500 1.35935020
-7.48071289 -0.30346680 1.34870148
-7.15405273 -0.15991211 1.37597466
-2.54956055 -0.54443359 1.74696541
-2.55151367 -0.51074219 1.74675179
-8.43212891 -0.61230469 1.20419693
-7.90307617 -0.55786133 1.25283623
-7.23706055 -0.36376953 1.31346512
-7.53417969 -0.35205078 1.28593826
-7.33032227 -0.32226563 1.30457687
-7.02197266 -0.28955078 1.33289909
-7.26684570 -0.27514648 1.31018257
-7.37744141 -0.25537109 1.29982758
-7.45898438 -0.23486328 1.29215431
-7.42968750 -0.21118164 1.29469109
-3.35644531 2.91113281 1.64465904
-9.17504883 -0.78979492 1.06779099
-9.36230469 -0.77539063 1.04934311
-8.86328125 -0.71557617 1.09826851
-7.01025391 -0.52978516 1.27997208
-8.47973633 -0.51293945 1.13534546
-8.35205078 -0.48168945 1.14775848
-7.31616211 -0.41162109 1.24937248
-7.07788086 -0.37939453 1.27266312
-7.00830078 -0.35449219 1.27938652
-7.60253906 -0.35424805 1.22089958
-7.01440430 -0.31103516 1.27852058
-7.13110352 -0.29296875 1.26693726
-7.17797852 -0.27197266 1.26220894
-7.05541992 -0.24633789 1.27408409
-7.05566406 -0.22436523 1.27393532
-7.39892578 -0.16455078 1.23970032
-2.43847656 -0.56616211 1.69843674
-2.72827148 -0.58959961 1.66808701
-2.60473633 -0.51757813 1.68103790
-9.35156250 -1.08007813 0.97506142
-7.67041016 -0.56982422 1.15050316
-7.98071289 -0.51513672 1.11779785
-6.98120117 -0.42065430 1.22213364
-8.01147461 -0.44360352 1.11427498
-7.15649414 -0.38403320 1.20358276
-6.83056641 -0.34936523 1.23753166
-9.17456055 -0.27221680 1.11874580
-1.78076172 0.05639648 1.73877716
-6.81518555 -0.32617188 1.18102074
-7.18530273 0.04272461 1.22431946
-6.91113281 -0.72265625 1.10738182
-8.21948242 -0.31054688 1.10231018
-10.37597656 0.74438477 0.75279999
-8.83374023 0.70874023 0.95015526
-6.61938477 -0.65600586 1.08223724
-8.55175781 -0.59545898 0.84061432
-7.64135742 -0.52148438 0.95420456
-7.40478516 -0.46362305 0.98361397
-7.70141602 -0.45410156 0.94648743
-7.17919922 -0.40795898 1.01157761
-6.73291016 -0.34619141 1.06711388
-6.99829102 -0.05053711 1.03173065
-7.81811523 0.08593750 1.02842140
-7.91015625 0.10742188 1.01570702
-8.66381836 0.13891602 0.91345596
-8.41333008 0.15673828 0.94706535
-10.66552734 0.65502930 0.63501930
-10.75610352 0.68725586 0.62222672
-11.13793945 1.21997070 0.55952644
-10.29907227 -1.34985352 0.53074074
-8.76171875 -0.63452148 0.73482323
-8.42626953 -0.58984375 0.77904510
-8.05737305 -0.49609375 0.82755470
-7.98266602 -0.46826172 0.83734322
-6.76049805 -0.28417969 0.99809456
-6.87670898 -0.26611328 0.98261261
-7.88525391 -0.01489258 1.02054596
-7.77465820 0.00512695 1.03530312
-8.10156250 0.08911133 0.74368477
-7.90917969 0.11157227 0.77024078
-7.87182617 0.18310547 0.77461815
-4.18286133 -0.27709961 1.29382515
-4.20605469 -0.24755859 1.29040146
-4.15991211 -0.23095703 1.29675102
-6.79687500 -0.30639648 0.92915344
-4.25708008 -0.12719727 1.28231812
-4.30273438 -0.09716797 1.27564621
-8.60229492 0.02661133 0.78360939
-8.71728516 0.07153320 0.76588821
-8.63964844 0.11547852 0.77688217
-9.40747070 0.17285156 0.66080475
-4.20703125 0.10620117 1.44212723
-8.33300781 0.24023438 0.82116318
-8.31250000 0.28247070 0.82347107
-8.25219727 0.32299805 0.83186531
-8.55566406 0.37792969 0.78538132
-8.48950195 0.41894531 0.79463768
-8.66723633 0.44921875 0.76745605
-8.22558594 0.44946289 0.83355522
-8.56298828 0.51049805 0.78180695
-8.75585938 0.56591797 0.75183105
-9.11450195 0.65795898 0.69638634
-6.28881836 -0.63403320 0.93374252
-7.20458984 -0.45605469 0.79875374
-7.58105469 -0.45117188 0.74331665
-4.10302734 -0.27539063 1.25443077
-7.24609375 -0.39086914 0.79235649
-6.98608398 -0.35815430 0.83050156
-5.31347656 -0.16845703 1.27981567
-5.02368164 -0.14672852 1.32313538
-7.86474609 -0.09716797 0.89583588
-7.99780273 -0.07788086 0.87569427
-8.92871094 -0.06347656 0.73559570
-8.58056641 -0.01733398 0.78742218
-7.89013672 -0.00927734 0.62403870
-7.64526367 0.06103516 0.66108894
-8.24047852 0.23828125 0.56698036
-8.06567383 0.25854492 0.59365654
-8.43457031 0.29321289 0.53623009
-8.18457031 0.31127930 0.57454109
-8.84790039 0.48022461 0.67336464
-9.48730469 0.53662109 0.57187462
-9.23144531 0.54663086 0.61186028
-6.64038086 -0.49023438 0.82023430
-7.52026367 -0.47021484 0.68428040
-7.08154297 -0.42675781 0.75190544
-7.63134766 -0.42895508 0.66702843
-7.77050781 -0.41137695 0.64546204
-7.09423828 -0.36132813 0.74968719
-3.26586914 -0.18530273 1.34005928
-8.59277344 -0.31738281 0.51795769
-2.92968750 -0.13745117 1.39156914
-8.37915039 -0.21069336 0.55031395
-8.47705078 -0.18725586 0.53496742
-8.64453125 -0.13891602 0.50873184
-8.14672852 -0.10791016 0.58537102
-9.39575195 0.02783203 0.50983429
-8.96215820 0.04931641 0.58134270
-4.50170898 0.03808594 1.31907272
-9.39941406 0.09936523 0.50835228
-9.62402344 0.12646484 0.47088814
-9.81347656 0.15380859 0.43915367
-8.77661133 0.20581055 0.60980988
-8.58496094 0.22363281 0.64121246
-5.95654297 0.25488281 1.07478142
-8.59716797 0.40063477 0.63608551
-8.30688477 0.40966797 0.68380356
-8.49023438 0.43969727 0.65300179
-8.95019531 0.48461914 0.57622910
-8.80957031 0.50024414 0.59904861
-8.94628906 0.53051758 0.57589722
-9.84667969 0.70605469 0.42365837
-6.06640625 0.50122070 1.05103111
-7.32177734 -1.09960938 0.63364029
-7.24414063 -0.81958008 0.64775658
-2.62646484 -0.40698242 1.39759827
-6.97021484 -0.75219727 0.69235802
-6.93701172 -0.72753906 0.69782257
-6.67285156 -0.68530273 0.74071503
-7.37695313 -0.71679688 0.62643814
-6.97558594 -0.64306641 0.69163322
-6.86083984 -0.61328125 0.71021652
-6.83886719 -0.59057617 0.71381187
-6.80517578 -0.56665039 0.71928024
-6.96728516 -0.55517578 0.69293976
-9.00073242 -0.40966797 0.57905388
-8.71826172 -0.37573242 0.62560272
-8.91503906 -0.33789063 0.59283447
-5.24853516 -0.19580078 1.19850159
-5.24853516 -0.18164063 1.19839478
-5.68115234 -0.17968750 1.12672424
-5.21899414 -0.15283203 1.20296097
-5.10888672 -0.13623047 1.22098923
-9.23828125 -0.20800781 0.53835297
-8.19262695 -0.16528320 0.71097565
-5.01000977 -0.09350586 1.23691368
-4.91113281 -0.07836914 1.25304413
-8.96606445 -0.11108398 0.58252907
-4.85815430 -0.05126953 1.26145363
-4.71337891 -0.03735352 1.28523636
-8.76245117 -0.04125977 0.61545372
-9.07958984 -0.01953125 0.56274033
-9.06738281 0.00390625 0.56448364
-7.42211914 -0.03295898 0.53960991
-7.34057617 -0.01000977 0.55324173
-4.81201172 0.01000977 0.98418427
-8.35131836 0.08959961 0.60864258
-9.04248047 0.11889648 0.49033165
-9.24267578 0.16870117 0.45492554
-8.31787109 0.19555664 0.61491585
-8.52441406 0.22167969 0.57867813
-8.73046875 0.24926758 0.54243279
-9.16186523 0.28417969 0.46709061
-8.56689453 0.37646484 0.56852531
-8.66333008 0.40258789 0.55131531
-8.51757813 0.41845703 0.57622910
-9.29956055 0.47778320 0.43962669
-8.64672852 0.46899414 0.55283165
-8.91552734 0.50537109 0.50551605
-8.59692383 0.51074219 0.56054497
-8.83081055 0.61425781 0.51773834
-8.97412109 0.69287109 0.49113464
-6.07250977 0.50073242 0.99715805
-6.04003906 0.53076172 1.00195122
-6.38134766 0.59130859 0.94143867
-5.26635742 0.54101563 1.13505363
-5.31201172 0.63183594 1.12439156
-5.45874023 0.66210938 1.09814644
-5.42236328 0.67309570 1.10407639
-6.86791992 -1.19799805 0.63388443
-6.90893555 -1.13769531 0.62758446
-6.88793945 -1.11328125 0.63135719
-7.21313477 -1.10791016 0.57622147
-7.18066406 -1.08178711 0.58194923
-7.06811523 -1.04663086 0.60140038
-6.89746094 -1.00561523 0.63065720
-6.85937500 -0.97949219 0.63737869
-6.80908203 -0.95263672 0.64605522
-6.99462891 -0.95043945 0.61454582
-7.20288086 -0.94946289 0.57911682
-2.39062500 -0.45166016 1.40057373
-7.07934570 -0.89257813 0.60039902
-2.51757813 -0.44140625 1.37886047
-7.34716797 -0.87280273 0.55499840
-2.79443359 -0.44360352 1.33164406
-2.58789063 -0.41381836 1.36687851
-2.70922852 -0.41284180 1.34619904
-2.51977539 -0.38549805 1.37849808
-2.95703125 -0.40917969 1.30386162
-2.62988281 -0.37158203 1.35971451
-2.60131836 -0.35815430 1.36453438
-2.38256836 -0.33056641 1.40176392
-2.61303711 -0.33593750 1.36242676
-4.92285156 -0.48120117 0.96873093
-2.87280273 -0.32983398 1.31809616
-4.47436523 -0.41870117 1.04508781
-6.79101563 -0.54321289 0.65026855
-3.38037109 -0.32348633 1.23145103
-2.95971680 -0.28637695 1.30305862
-3.47265625 -0.30175781 1.21556282
-3.29418945 -0.27905273 1.24592400
-3.23632813 -0.26318359 1.25567055
-3.27709961 -0.25219727 1.24869919
-3.43261719 -0.24584961 1.22208786
-3.85937500 -0.25048828 1.14928818
-3.85937500 -0.23583984 1.14919662
-4.07861328 -0.22973633 1.11174965
-4.62060547 -0.23364258 1.01926422
-4.10742188 -0.20068359 1.10664177
-4.28613281 -0.19091797 1.07606316
-4.07812500 -0.17016602 1.11136246
-4.04321289 -0.15405273 1.11715508
-3.73730469 -0.13232422 1.16917610
-3.98510742 -0.12329102 1.12679482
-4.27319336 -0.11376953 1.07752419
-4.07690430 -0.09521484 1.11086273
-3.88012695 -0.07763672 1.14421082
-4.15673828 -0.06640625 1.09689522
-4.07543945 -0.05053711 1.11056328
-5.00585938 0.01440430 1.14536285
-5.13208008 0.02856445 1.12224007
-7.95996094 0.06372070 0.60825729
-8.14916992 0.08618164 0.57356644
-8.08520508 0.10644531 0.58491898
-6.06811523 0.09741211 0.95117950
-5.30004883 0.11450195 1.09021187
-7.87158203 0.22558594 0.62170792
-8.21020508 0.25585938 0.55975342
-8.20019531 0.31884766 0.56033325
-8.39453125 0.34741211 0.52455521
-8.68676758 0.38085938 0.47094345
-8.68530273 0.40332031 0.47077942
-8.55126953 0.41943359 0.49473190
-8.58422852 0.44311523 0.48827934
-8.67456055 0.46997070 0.47134972
-8.48291016 0.48193359 0.50578308
-8.60180664 0.51025391 0.48360825
-8.49072266 0.52612305 0.50337410
-8.20117188 0.53076172 0.55566025
-8.38916016 0.56347656 0.52087975
-5.81762695 0.41943359 0.98965263
-6.01733398 0.44824219 0.95280838
-6.22241211 0.47827148 0.91493225
-6.10571289 0.48681641 0.93579865
-6.33959961 0.52026367 0.89265060
-6.03320313 0.51367188 0.94815636
-6.05419922 0.53149414 0.94384384
-5.97778320 0.54150391 0.95737457
-6.41210938 0.59375000 0.87747574
-6.32983398 0.60375977 0.89205742
-6.10375977 0.60058594 0.93288612
-5.89550781 0.59790039 0.97057152
-5.99096680 0.62255859 0.95261192
-5.81665039 0.62207031 0.98401070
-5.61376953 0.61791992 1.02066422
-5.98461914 0.67041016 0.95226860
-5.98217773 0.68627930 0.95216179
-5.78515625 0.68164063 0.98777390
-5.78295898 0.69702148 0.98766899
-5.33959961 0.66406250 1.06847191
-5.80102539 0.73022461 0.98324966
-5.56958008 0.71972656 1.02518654
-5.64746094 0.74389648 1.01035690
-5.96533203 0.79711914 0.95137787
-5.32812500 0.73583984 1.06797218
-4.93750000 0.70166016 1.13936806
-5.35205078 0.76806641 1.06251526
-6.21801758 0.89453125 0.90256119
-5.11303711 0.76586914 1.10543060
-5.43896484 0.83886719 1.04422379
-6.70288086 1.02929688 0.81057167
-6.55590820 -1.24194336 0.61420441
-6.60937500 -1.22851563 0.60485268
-6.56030273 -1.20043945 0.61392593
-6.47680664 -1.16845703 0.62915611
-2.85546875 -0.66796875 1.27840042
-6.45239258 -1.12329102 0.63401031
-3.15502930 -0.68164063 1.22498131
-3.15576172 -0.66894531 1.22489738
-6.68164063 -1.08935547 0.59365082
-2.82568359 -0.60351563 1.28416443
-3.04980469 -0.61791992 1.24411964
-3.26245117 -0.62988281 1.20612144
-2.54174805 -0.53515625 1.33518219
-2.81713867 -0.55444336 1.28591156
-6.38867188 -0.92968750 0.64716148
-2.92187500 -0.54150391 1.26729774
-2.73315430 -0.50976563 1.30105400
-2.91748047 -0.51660156 1.26816368
-3.64086914 -0.57592773 1.13887024
-3.92871094 -0.58984375 1.08750534
-3.53344727 -0.53784180 1.15818596
-2.93676758 -0.46972656 1.26477432
-3.37402344 -0.49633789 1.18672752
-3.29418945 -0.47631836 1.20100212
-5.91992188 -0.68505859 0.73201180
-5.83471680 -0.65869141 0.74727821
-3.64624023 -0.46484375 1.13814735
-2.69824219 -0.37744141 1.30739975
-5.61865234 -0.58520508 0.78590965
-5.42993164 -0.55273438 0.81966209
-4.70605469 -0.48339844 0.94889450
-5.13793945 -0.49658203 0.87178612
-4.35034180 -0.42749023 1.01233292
-4.35644531 -0.41235352 1.01120377
-4.18994141 -0.38647461 1.04088211
-5.44506836 -0.44458008 0.81688690
-5.03100586 -0.40332031 0.89072418
-5.24438477 -0.39721680 0.85260201
-5.54980469 -0.39526367 0.79804230
-5.33129883 -0.36645508 0.83696556
-4.68627930 -0.31835938 0.95191956
-3.21240234 -0.23706055 1.21487617
-3.25854492 -0.22583008 1.20657539
-6.52441406 -0.34179688 0.62373924
-6.79541016 -0.33081055 0.57529449
-2.88354492 -0.17407227 1.27312088
-5.13037109 -0.23437500 0.87211227
-4.80200195 -0.20727539 0.93060112
-4.55395508 -0.18359375 0.97470665
-4.82470703 -0.17431641 0.92627335
-4.50732422 -0.15039063 0.98272133
-4.00585938 -0.12426758 1.07209778
-5.24536133 -0.06860352 1.10182190
-5.30249023 -0.05541992 1.09252167
-5.27905273 -0.04150391 1.09660149
-5.08837891 -0.02636719 1.13101578
-5.11083984 -0.01269531 1.12673378
-5.24877930 0.00097656 1.10151291
-3.92285156 -0.02050781 1.03342438
-3.92236328 -0.00585938 1.03332520
-5.53344727 0.01000977 0.73130989
-5.16943359 0.04467773 0.79899979
-5.66357422 0.06616211 0.70612526
-5.32910156 0.08129883 0.76857567
-7.88842773 0.26635742 0.54425240
-8.33544922 0.30175781 0.45856476
-8.56274414 0.35351563 0.41438103
-8.30249023 0.36474609 0.46358490
-8.51953125 0.39526367 0.42173767
-8.57543945 0.41967773 0.41060638
-8.53344727 0.43994141 0.41812706
-8.40527344 0.45532227 0.44210434
-8.42089844 0.47778320 0.43865395
-8.46533203 0.50170898 0.42971992
-8.61840820 0.53271484 0.39991951
-8.34667969 0.53833008 0.45135689
-8.41357422 0.56445313 0.43803024
-8.37133789 0.58325195 0.44555664
-8.58178711 0.61889648 0.40477562
-8.26977539 0.61938477 0.46391106
-6.29418945 0.49926758 0.84154129
-6.28100586 0.51489258 0.84362793
-6.17016602 0.52319336 0.86437225
-6.11669922 0.53540039 0.87414551
-8.45947266 0.74218750 0.42469597
-6.12231445 0.58471680 0.87159538
-5.75366211 0.56860352 0.94180870
-5.77465820 0.58593750 0.93730164
-5.98437500 0.62133789 0.89652634
-5.77050781 0.61669922 0.93709183
-5.98608398 0.65332031 0.89520836
-5.53662109 0.66943359 0.97942734
-5.90014648 0.72460938 0.90893936
-5.79516602 0.72827148 0.92861938
-5.90136719 0.75634766 0.90761757
-5.96752930 0.78002930 0.89430428
-6.00512695 0.80029297 0.88648796
-6.37890625 0.86254883 0.81375885
-6.39672852 0.89892578 0.80912590
-6.83911133 1.13818359 0.71652985
-2.09033203 1.33251953 1.56687546
-6.64453125 -1.29711914 0.51986313
-6.56127930 -1.26391602 0.53583717
-6.44970703 -1.22680664 0.55717278
-6.38354492 -1.19677734 0.56992912
-6.50537109 -1.19311523 0.54724312
-6.37133789 -1.15307617 0.57397461
-6.35034180 -1.12939453 0.57813835
-6.16992188 -1.08544922 0.61234856
-6.17163086 -1.06567383 0.61222267
-6.33349609 -1.06567383 0.58203697
-6.03857422 -1.00903320 0.63772964
-2.66845703 -0.58349609 1.27109146
-6.20776367 -0.98974609 0.60632896
-2.13818359 -0.49902344 1.37081337
-6.25097656 -0.95434570 0.59855652
-2.32836914 -0.49951172 1.33523178
-5.99096680 -0.88574219 0.64770699
-2.24365234 -0.46875000 1.35120583
-2.70776367 -0.50634766 1.26411438
-5.97241211 -0.82519531 0.65162086
-6.03125000 -0.81152344 0.64075279
-6.13549805 -0.80200195 0.62128258
-3.08789063 -0.49536133 1.19288635
-3.51293945 -0.52172852 1.11327362
-2.75659180 -0.44042969 1.25506592
-2.91772461 -0.44262695 1.22488785
-2.87207031 -0.42675781 1.23341560
-3.15380859 -0.43774414 1.18064690
-3.35498047 -0.44116211 1.14294052
-2.95947266 -0.39721680 1.21704483
-3.37866211 -0.41625977 1.13846397
-2.58105469 -0.34521484 1.28787231
-2.94873047 -0.35961914 1.21895599
-2.70751953 -0.33081055 1.26405907
-4.87329102 -0.46118164 0.85842133
-2.50122070 -0.29467773 1.30263519
-2.83471680 -0.30371094 1.24015808
-4.82299805 -0.40771484 0.86777496
-2.59350586 -0.26611328 1.28520012
-6.72583008 -0.47656250 0.51132202
-5.22021484 -0.37817383 0.79318047
-6.89916992 -0.44262695 0.47875023
-3.86401367 -0.27978516 1.04700089
-5.30712891 -0.32910156 0.77667809
-2.73120117 -0.20361328 1.25890923
-6.90063477 -0.35620117 0.47818947
-6.77416992 -0.32983398 0.50172997
-6.75146484 -0.30786133 0.50589371
-5.92919922 -0.26000977 0.65977097
-4.10522461 -0.18603516 1.00109291
-3.66210938 -0.15893555 1.08394432
-5.35913086 -0.18774414 0.76603699
-3.82250977 -0.13452148 1.05358696
-3.42553711 -0.11230469 1.12784004
-3.50000000 -0.10034180 1.11373901
-5.58837891 -0.11938477 0.72245407
-3.45898438 -0.07250977 1.12111092
-3.59106445 -0.06079102 1.09623146
-3.49829102 -0.04589844 1.11338043
-3.64746094 -0.03320313 1.08526230
-5.55664063 0.01513672 0.93514442
-5.25170898 0.02832031 0.99563408
-5.17065430 0.04174805 1.01154709
-5.28466797 0.05688477 0.98856926
-7.99975586 0.10400391 0.44746971
-4.91528320 0.08007813 1.06157494
-4.90307617 0.09277344 1.06376648
-8.14624023 0.16870117 0.41725922
-8.08789063 0.18847656 0.42855453
-7.76538086 0.20166016 0.49247932
-8.21704102 0.33935547 0.40000534
-4.99658203 0.22998047 1.04218483
-8.10522461 0.37695313 0.42145157
-8.16064453 0.40039063 0.40984344
-8.15332031 0.42114258 0.41084290
-8.13476563 0.44140625 0.41412354
-8.19018555 0.46508789 0.40251541
-7.99926758 0.47607422 0.44016838
-8.08374023 0.50146484 0.42283249
-5.29589844 0.35644531 0.97953033
-6.05517578 0.43383789 0.82691383
-6.11035156 0.45385742 0.81534004
-5.74243164 0.44458008 0.88857841
-5.90698242 0.47167969 0.85521889
-6.04272461 0.49755859 0.82759666
-6.10937500 0.51879883 0.81372452
-6.05590820 0.53100586 0.82392883
-6.19726563 0.55859375 0.79514694
-6.03515625 0.56152344 0.82713509
-5.99877930 0.57470703 0.83390427
-6.23681641 0.61157227 0.78562164
-6.02905273 0.60937500 0.82679749
-5.82666016 0.60693359 0.86683273
-5.79052734 0.61914063 0.87361336
-5.86279297 0.64184570 0.85858154
-5.77490234 0.64892578 0.87568283
-5.81835938 0.66894531 0.86639404
-5.64477539 0.66625977 0.90071487
-5.67675781 0.68530273 0.89372444
-5.67456055 0.70019531 0.89362144
-5.74658203 0.72387695 0.87858200
-5.55590820 0.71752930 0.91636467
-5.59936523 0.73779297 0.90707588
-6.37792969 0.84619141 0.74965668
-6.01025391 0.81860352 0.82304001
-7.03344727 0.96166992 0.61620522
-6.83691406 0.95581055 0.65513039
-6.21899414 0.89428711 0.77905464
-6.39282227 0.93383789 0.74333572
-6.94775391 1.02539063 0.63064003
-6.84204102 1.02954102 0.65118980
-7.24267578 1.10351563 0.56948280
-7.31909180 1.13354492 0.55326462
-7.66259766 1.20239258 0.48303223
-7.32836914 1.21313477 0.54813385
-7.75610352 1.29858398 0.46064186
-6.99804688 1.20092773 0.61339760
-7.18530273 1.28857422 0.57278252
-3.43945313 -0.90942383 1.07129669
-3.44116211 -0.89599609 1.07121277
-3.49951172 -0.89160156 1.05992126
-6.77783203 -1.38378906 0.41332245
-6.65502930 -1.30102539 0.43868256
-6.61767578 -1.27416992 0.44639206
-3.39990234 -0.79492188 1.08069420
-3.45214844 -0.78881836 1.07051277
-3.44189453 -0.77368164 1.07267380
-3.47729492 -0.76489258 1.06585693
-3.58105469 -0.76513672 1.04559326
-3.42846680 -0.73120117 1.07577896
-3.29272461 -0.70068359 1.10260582
-3.57324219 -0.72265625 1.04756737
-3.51733398 -0.70166016 1.05869484
-3.69506836 -0.70947266 1.02383041
-3.54785156 -0.67797852 1.05291176
-3.46923828 -0.65502930 1.06853104
-3.70410156 -0.66821289 1.02243614
-3.80175781 -0.66479492 1.00326920
-3.62573242 -0.63159180 1.03796768
-3.71801758 -0.62744141 1.01991463
-3.46215820 -0.58642578 1.07033539
-3.55444336 -0.58251953 1.05228996
-3.65795898 -0.57885742 1.03199196
-3.48706055 -0.54833984 1.06558418
-5.97070313 -0.76904297 0.57824898
-3.52270508 -0.52465820 1.05866623
-3.82080078 -0.53759766 1.00019073
-5.45922852 -0.66577148 0.67893219
-4.82446289 -0.59375000 0.80347443
-3.00390625 -0.42724609 1.16051292
-3.13598633 -0.42529297 1.13460541
-3.04492188 -0.40551758 1.15248299
-6.24243164 -0.63354492 0.52555466
-6.27783203 -0.61596680 0.51867676
-5.77441406 -0.56030273 0.61742592
-4.13549805 -0.42968750 0.93866730
-5.39135742 -0.49707031 0.69246292
-5.39794922 -0.47949219 0.69121742
-5.26074219 -0.45312500 0.71807861
-5.11206055 -0.42675781 0.74718475
-5.20410156 -0.41430664 0.72908401
-5.02075195 -0.38696289 0.76494408
-5.04418945 -0.37084961 0.76033401
-4.91821289 -0.34741211 0.78495216
-3.74169922 -0.27539063 1.01536179
-5.20556641 -0.32617188 0.72850800
-5.22290039 -0.30932617 0.72501564
-4.93603516 -0.28027344 0.78113937
-7.52514648 -0.25219727 0.54615784
-5.90649414 -0.18725586 0.86806679
-7.50830078 -0.21289063 0.54928589
-5.80273438 -0.15356445 0.88839340
-5.48657227 -0.13159180 0.95109367
-5.72167969 -0.12109375 0.90415382
-5.38256836 -0.10058594 0.97145081
-5.43969727 -0.08715820 0.95991135
-5.53710938 -0.07373047 0.94037628
-5.63403320 -0.05981445 0.92084122
-5.69702148 -0.04541016 0.90815353
-5.53002930 -0.02929688 0.94118881
-5.36254883 -0.01416016 0.97423363
-5.32763672 0.00000000 0.98098373
-3.77612305 -0.02050781 0.95949745
-3.81567383 -0.00659180 0.95119095
-3.82666016 0.00781250 0.94874763
-4.65771484 0.02465820 0.77860641
-4.34741211 0.03930664 0.84183121
-4.51855469 0.05639648 0.80654335
-4.80468750 0.07519531 0.74778175
-4.63183594 0.08984375 0.78286362
-4.67675781 0.10668945 0.77336502
-4.72753906 0.12377930 0.76270294
-6.13793945 0.55249023 0.75356293
-5.93017578 0.55126953 0.79638481
-6.07104492 0.57934570 0.76644707
-5.97167969 0.58666992 0.78662109
-7.26025391 0.71948242 0.51682472
-5.75659180 0.59887695 0.83054924
-5.84570313 0.62255859 0.81134605
-5.91210938 0.64501953 0.79690933
-5.84130859 0.65356445 0.81112480
-5.86206055 0.67163086 0.80623627
-5.91113281 0.69238281 0.79538345
-5.79492188 0.69604492 0.81914902
-5.88500977 0.75317383 0.79851913
-5.68334961 0.74536133 0.84021759
-7.82690430 1.01684570 0.38978958
-5.29736328 0.72924805 0.92002869
-7.13769531 0.97241211 0.53286552
-6.65747070 0.93041992 0.63309097
-7.24560547 1.02416992 0.50870705
-7.48950195 1.09521484 0.45586205
-7.83276367 1.16210938 0.38281250
-7.47143555 1.13256836 0.45797920
-7.36596680 1.13745117 0.47935295
-7.38549805 1.15991211 0.47443771
-7.42187500 1.18505859 0.46593857
-7.28222656 1.18383789 0.49449921
-7.42626953 1.22509766 0.46327400
-6.97509766 1.17578125 0.55760956
-7.23803711 1.23559570 0.50127602
-6.95117188 1.20947266 0.56094551
-6.25024414 -1.19873047 0.45020294
-6.20141602 -1.17163086 0.46057892
-6.13549805 -1.14233398 0.47446823
-6.07495117 -1.11425781 0.48719215
-6.15063477 -1.10424805 0.47187042
-6.41455078 -1.11865234 0.41798973
-2.64331055 -0.61572266 1.19264221
-2.35375977 -0.56811523 1.25217056
-2.37744141 -0.56005859 1.24742317
-2.54931641 -0.56982422 1.21228790
-2.41308594 -0.54223633 1.24027824
-5.74829102 -0.91674805 0.55730247
-2.39746094 -0.51782227 1.24417877
-2.24389648 -0.48999023 1.27566147
-2.35302734 -0.49121094 1.25338745
-2.74145508 -0.52172852 1.17385864
-2.86206055 -0.52221680 1.14923286
-2.44580078 -0.46826172 1.23448181
-2.37231445 -0.44970703 1.24959755
-2.74389648 -0.47460938 1.17354584
-2.86425781 -0.47436523 1.14892006
-2.31079102 -0.41137695 1.26225471
-2.85424805 -0.44946289 1.15110207
-2.72290039 -0.42602539 1.17792130
-2.70605469 -0.41259766 1.18134880
-5.27954102 -0.61279297 0.65499306
-5.33789063 -0.59985352 0.64317703
-5.28149414 -0.57763672 0.65475273
-5.82006836 -0.60009766 0.54468346
-6.22119141 -0.60986328 0.46266747
-6.23925781 -0.59130859 0.45902634
-6.08544922 -0.56079102 0.49047852
-5.71997070 -0.51733398 0.56524849
-5.70361328 -0.49731445 0.56863594
-5.16552734 -0.44580078 0.67851830
-5.17163086 -0.42871094 0.67722702
-4.98852539 -0.40087891 0.71457481
-5.09765625 -0.38940430 0.69222450
-4.98364258 -0.36645508 0.71552086
-4.78295898 -0.33959961 0.75638771
-5.35644531 -0.34960938 0.63919067
-5.10449219 -0.32055664 0.69060135
-4.82934570 -0.29174805 0.74669075
-4.77783203 -0.27294922 0.75712395
-4.70336914 -0.25366211 0.77223969
-4.60009766 -0.23364258 0.79321671
-5.04760742 -0.23217773 0.70174026
-5.09912109 -0.21655273 0.69108200
-5.13330078 -0.20019531 0.68393707
-6.08496094 -0.20678711 0.48932266
-5.15576172 -0.16577148 0.67901802
-5.11523438 -0.14746094 0.68710899
-3.81298828 -0.10644531 0.95302391
-3.58911133 -0.08862305 0.99864006
-3.53710938 -0.07421875 1.00909996
-3.93823242 -0.06518555 0.92695808
-3.97802734 -0.05078125 0.91865158
-3.88549805 -0.03564453 0.93731880
-5.29516602 0.01342773 0.87979126
-5.43774414 0.02832031 0.84866333
-5.22509766 0.04125977 0.89447594
-5.31616211 0.05615234 0.87451363
-5.02343750 0.06689453 0.93771172
-5.37670898 0.10009766 0.86054611
-5.12377930 0.10961914 0.91506958
-4.86547852 0.11791992 0.97084618
-4.80175781 0.12963867 0.98440933
-4.74926758 0.14135742 0.99549103
-4.66259766 0.15185547 1.01402855
-4.98754883 0.17456055 0.94313240
-4.81054688 0.23461914 0.97991943
-4.83813477 0.24902344 0.97361565
-4.69384766 0.25561523 1.00459099
-4.98876953 0.29663086 0.93976593
-5.21606445 0.32275391 0.88994598
-5.26025391 0.33935547 0.87989426
-5.40161133 0.36181641 0.84871674
-5.39379883 0.43457031 0.84820366
-5.92651367 0.50439453 0.73105621
-6.08251953 0.54858398 0.69598961
-6.00073242 0.55810547 0.71329498
-5.78759766 0.55590820 0.75922966
-5.81420898 0.57397461 0.75289154
-5.57299805 0.56787109 0.80505753
-5.59936523 0.58544922 0.79872322
-5.78564453 0.61816406 0.75754166
-5.64672852 0.62011719 0.78731155
-5.70727539 0.64160156 0.77351189
-5.71069336 0.65747070 0.77215767
-5.85083008 0.68750000 0.74091530
-5.92260742 0.71118164 0.72461700
-6.29589844 0.76806641 0.64231682
-6.32763672 0.78833008 0.63472557
-3.35766602 0.46557617 1.28478813
-6.60058594 0.85449219 0.57345390
-6.94458008 0.91308594 0.49734116
-6.63500977 0.89404297 0.56448936
-6.70629883 0.92065430 0.54816055
-6.57836914 0.92236328 0.57545662
-6.63793945 0.94750977 0.56162643
-6.44824219 0.94067383 0.60262680
-6.71166992 0.99316406 0.54393959
-6.66333008 1.00463867 0.55378723
-4.33105469 0.69946289 1.06598473
-4.14184570 0.68530273 1.10704231
-6.62548828 1.05322266 0.55966759
-4.17724609 0.71435547 1.09815407
-6.34790039 1.04809570 0.61926460
-4.39282227 0.77075195 1.04936028
-6.88427734 1.16455078 0.49931145
-6.90576172 1.20507813 0.49282646
-6.82885742 1.21142578 0.50891876
-6.86499023 1.23559570 0.50005913
-6.62988281 1.21557617 0.55108833
-6.67724609 1.24169922 0.53974533
-6.81469727 1.28320313 0.50843430
-6.55346680 1.27465820 0.56434822
-4.95849609 1.02368164 0.91607094
-4.42480469 1.06884766 1.02624321
-4.58618164 1.12866211 0.98859978
-4.51000977 1.12597656 1.00476456
-4.69726563 1.17944336 0.96218491
-4.36840820 1.14697266 1.03317261
-4.38720703 1.16430664 1.02808571
-3.52685547 -1.02246094 0.94801140
-3.51733398 -1.00683594 0.95036507
-1.82202148 -0.68823242 1.31664085
-3.47192383 -0.95751953 0.96105385
-3.27001953 -0.91015625 1.00480461
-3.45263672 -0.92700195 0.96575356
-3.47094727 -0.91625977 0.96201515
-3.33081055 -0.88012695 0.99237823
-3.55883789 -0.90258789 0.94357109
-3.53222656 -0.88476563 0.94957352
-3.54492188 -0.87255859 0.94705200
-3.70507813 -0.88281250 0.91285133
-3.41748047 -0.82592773 0.97490120
-3.74780273 -0.86035156 0.90413857
-5.52929688 -1.09960938 0.52143669
-5.33276367 -1.05371094 0.56397438
-3.67236328 -0.80712891 0.92093277
-2.94726563 -0.69482422 1.07684326
-2.89160156 -0.67529297 1.08894730
-2.67651367 -0.63500977 1.13519096
-2.72314453 -0.62939453 1.12536049
-2.71264648 -0.61596680 1.12772751
-2.76464844 -0.61059570 1.11668205
-2.68017578 -0.58837891 1.13489342
-3.01098633 -0.61596680 1.06408882
-2.93774414 -0.59497070 1.07986832
-2.71655273 -0.55786133 1.12734413
-2.53515625 -0.52587891 1.16630363
-2.96289063 -0.56079102 1.07474709
-2.76416016 -0.52734375 1.11736107
-5.72656250 -0.82348633 0.48292923
-2.79370117 -0.50683594 1.11110687
-2.68627930 -0.48413086 1.13420868
-5.69628906 -0.76367188 0.48987770
-3.04077148 -0.49414063 1.05840492
-5.38500977 -0.69726563 0.55675125
-3.32104492 -0.49414063 0.99843979
-5.23876953 -0.64819336 0.58824921
-5.30810547 -0.63647461 0.57348442
-5.24072266 -0.61279297 0.58802414
-5.04736328 -0.57983398 0.62940598
-5.13940430 -0.56958008 0.60976028
-5.74536133 -0.59765625 0.48022842
-4.97534180 -0.52246094 0.64494324
-4.93652344 -0.48559570 0.65326691
-5.19970703 -0.48583984 0.59697914
-4.89160156 -0.44873047 0.66282463
-5.04077148 -0.44116211 0.63095284
-5.51831055 -0.32397461 0.83383751
-5.53564453 -0.31079102 0.83134079
-5.53540039 -0.29614258 0.83123398
-5.58154297 -0.26855469 0.82109451
-5.66723633 -0.25708008 0.80239105
-5.54687500 -0.23754883 0.82830620
-5.49560547 -0.20605469 0.83923531
-5.36376953 -0.18725586 0.86763763
-5.32324219 -0.17211914 0.87620544
-5.09985352 -0.13818359 0.92434120
-5.15136719 -0.12548828 0.91308022
-5.35644531 -0.11547852 0.86834335
-5.60815430 -0.09033203 0.81355476
-5.46435547 -0.07397461 0.84445381
-5.57202148 -0.06030273 0.82079124
-5.29711914 -0.02905273 0.88010788
-5.51953125 -0.01562500 0.83162308
-5.56494141 -0.00073242 0.82158279
-3.47363281 -0.00683594 0.90920830
-3.63867188 0.00659180 0.87205124
-5.03149414 0.08056641 0.88214111
-5.41503906 0.36181641 0.78815079
-5.05493164 0.35400391 0.86978912
-5.40209961 0.47778320 0.78731728
-5.86718750 0.53002930 0.68074799
-5.56372070 0.52050781 0.74945641
-5.77783203 0.55395508 0.70000648
-5.47460938 0.54272461 0.76871300
-5.31909180 0.54321289 0.80368042
-6.01098633 0.62182617 0.64512253
-5.69409180 0.62329102 0.71634293
-6.25317383 0.74487305 0.58597183
-5.93310547 0.72656250 0.65863037
-6.42407227 0.79760742 0.54545593
-6.32519531 0.80322266 0.56742859
-6.09033203 0.79296875 0.62060356
-4.16015625 0.57910156 1.06244087
-5.98315430 0.81274414 0.64377785
-6.38281250 0.87841797 0.55135155
-3.96142578 0.58959961 1.10640144
-4.31616211 0.64672852 1.02440834
-4.49536133 0.68237305 0.98271561
-4.00634766 0.62963867 1.09446907
-3.78930664 0.61157227 1.14380646
-3.82104492 0.62695313 1.13593483
-4.11840820 0.67993164 1.06691933
-3.92993164 0.66479492 1.10976982
-4.04077148 0.69213867 1.08367157
-4.11743164 0.71508789 1.06538010
-4.19409180 0.73828125 1.04708672
-7.12084961 1.19824219 0.37169456
-6.90502930 1.20263672 0.41958046
-6.72094727 1.19165039 0.46111107
-6.69726563 1.22412109 0.46476364
-6.58666992 1.22387695 0.48938370
-6.67529297 1.27490234 0.46700668
-6.37548828 1.25805664 0.53447914
-6.37207031 1.27490234 0.53436470
-6.40185547 1.29785156 0.52643013
-6.41528320 1.31811523 0.52240753
-3.50000000 -0.98828125 0.89957619
-1.82958984 -0.67822266 1.27734947
-3.57836914 -0.95996094 0.88276863
-3.28393555 -0.87133789 0.94996262
-3.40551758 -0.86303711 0.92374611
-3.55981445 -0.87280273 0.88930893
-3.53271484 -0.85473633 0.89558220
-3.35302734 -0.81469727 0.93622017
-3.90917969 -0.82299805 0.81231117
-5.80249023 -1.05981445 0.38699722
-3.26538086 -0.70996094 0.95726967
-2.55224609 -0.60571289 1.11760712
-2.54321289 -0.58154297 1.12001038
-2.55468750 -0.57153320 1.11739922
-2.97045898 -0.59716797 1.02427101
-2.85766602 -0.57202148 1.04966736
-2.36450195 -0.50512695 1.16041374
-2.31372070 -0.48876953 1.17181396
-2.55419922 -0.49194336 1.11815453
-2.65673828 -0.49145508 1.09514999
-2.52685547 -0.45556641 1.12431335
-5.53125000 -0.72778320 0.45129585
-2.46508789 -0.42724609 1.13819313
-2.32324219 -0.40356445 1.16998482
-4.92114258 -0.60205078 0.58848953
-2.36962891 -0.37500000 1.15956688
-5.24731445 -0.57666016 0.51548576
-5.00903320 -0.54101563 0.56893349
-2.67309570 -0.35351563 1.09169579
-2.54760742 -0.33300781 1.11968613
-2.91918945 -0.33496094 1.03661346
-4.91503906 -0.44921875 0.59005928
-4.84741211 -0.41162109 0.60514069
-5.01904297 -0.40429688 0.56675339
-5.00195313 -0.38647461 0.57047081
-4.87133789 -0.36254883 0.59971237
-4.65527344 -0.31860352 0.64797211
-4.70043945 -0.30444336 0.63766479
-4.39794922 -0.25952148 0.70511055
-4.51196289 -0.24804688 0.67947006
-4.34082031 -0.22631836 0.71766853
-4.74072266 -0.22387695 0.62818718
-4.82104492 -0.19311523 0.61008072
-4.90039063 -0.17822266 0.59210205
-4.96264648 -0.14599609 0.57782936
-3.73754883 -0.03564453 0.85060120
-5.03930664 0.27099609 0.82078362
-4.72534180 0.26879883 0.89479256
-5.29956055 0.41210938 0.75517845
-5.18847656 0.43237305 0.78060150
-5.24926758 0.45141602 0.76566124
-5.40673828 0.47778320 0.72780037
-5.60351563 0.50854492 0.68048477
-5.46020508 0.51147461 0.71410751
-5.58300781 0.53686523 0.68431854
-6.68823242 0.64916992 0.42115402
-5.70410156 0.57812500 0.65443039
-5.46386719 0.57104492 0.71099281
-5.48437500 0.58789063 0.70548630
-5.81689453 0.63525391 0.62576675
-5.51416016 0.62060547 0.69717979
-5.91235352 0.69238281 0.60114479
-6.28710938 0.76538086 0.51047707
-6.44384766 0.83422852 0.47096825
-6.82910156 0.91577148 0.37755585
-6.52075195 0.89575195 0.45035362
-6.65942383 0.93066406 0.41646576
-6.49804688 0.92773438 0.45416832
-6.50683594 0.94653320 0.45134354
-4.17700195 0.65258789 1.00778389
-6.46142578 0.97534180 0.46056747
-6.39624023 0.98364258 0.47530937
-6.40454102 1.00219727 0.47249222
-6.42407227 1.02221680 0.46696281
-6.64672852 1.07202148 0.41279984
-6.46313477 1.06274414 0.45591927
-6.62329102 1.10449219 0.41660500
-6.60131836 1.19042969 0.41735458
-6.77758789 1.23754883 0.37397003
-6.40283203 1.19335938 0.46309090
-6.34912109 1.20166016 0.47514343
-6.44653320 1.23583984 0.45068550
-6.43750000 1.25170898 0.45192146
-6.26538086 1.23901367 0.49238777
-6.15527344 1.23657227 0.51797104
-6.20776367 1.26318359 0.50433922
-3.53955078 -1.03833008 0.83425522
-3.71557617 -1.05493164 0.79389954
-3.65014648 -1.02905273 0.80967903
-3.66870117 -1.01806641 0.80562592
-3.60864258 -0.99365234 0.82007027
-3.61059570 -0.97973633 0.81999016
-3.60107422 -0.96435547 0.82254982
-3.64208984 -0.95727539 0.81319427
-3.83496094 -0.97412109 0.76814079
-3.94921875 -0.97802734 0.74159622
-3.81567383 -0.94189453 0.77325439
-3.86816406 -0.93579102 0.76125526
-4.16308594 -0.96582031 0.69236755
-4.19287109 -0.95483398 0.68565559
-4.34130859 -0.96142578 0.65116119
-4.25268555 -0.93286133 0.67222977
-4.29370117 -0.92333984 0.66286469
-4.20483398 -0.89501953 0.68394089
-4.42114258 -0.90942383 0.63354874
-4.97656250 -0.96875000 0.50375175
-5.37109375 -0.91308594 0.41305351
-5.51416016 -0.91162109 0.37983704
-5.39941406 -0.84350586 0.40729332
-5.41772461 -0.82739258 0.40319824
-5.01074219 -0.76586914 0.49844933
-5.01293945 -0.73168945 0.49822998
-5.43432617 -0.75634766 0.40008354
-5.30493164 -0.72534180 0.43042946
-5.19262695 -0.69702148 0.45681763
-5.40356445 -0.69873047 0.40767097
-5.45581055 -0.68530273 0.39562607
-4.88281250 -0.61694336 0.52935791
-4.93457031 -0.60449219 0.51731873
-4.76538086 -0.57348633 0.55697823
-4.69799805 -0.55151367 0.57277298
-4.68139648 -0.53393555 0.57664299
-4.63671875 -0.51416016 0.58714104
-3.80102539 -0.43652344 0.78192711
-3.77270508 -0.42041016 0.78845978
-3.50048828 -0.38745117 0.85200500
-3.66577148 -0.38500977 0.81347084
-3.88208008 -0.38476563 0.76297951
-3.88232422 -0.37036133 0.76288414
-3.97363281 -0.36132813 0.74156570
-4.07641602 -0.35229492 0.71759796
-4.46948242 -0.35864258 0.62597275
-4.46997070 -0.34277344 0.62586784
-4.91430664 -0.34863281 0.52228355
-4.52734375 -0.31372070 0.61238289
-4.64697266 -0.30297852 0.58442116
-4.39624023 -0.27587891 0.64270401
-4.66430664 -0.27099609 0.58022308
-4.70458984 -0.25610352 0.57082367
-4.70410156 -0.23974609 0.57071304
-4.86352539 -0.22851563 0.53344536
-4.97192383 -0.21484375 0.50811386
-4.82910156 -0.19384766 0.54118729
-4.90307617 -0.17919922 0.52381706
-4.90869141 -0.16235352 0.52238083
-5.04565430 -0.14843750 0.49040222
-1.78173828 3.87182617 0.90220451
0.89445567 1.16355550 0.72039020
0.89342093 1.16240168 0.68696636
2.03880835 1.29117203 0.52434492
2.65549111 1.53920460 0.55637062
-8.40136719 1.74047852 2.27845645
-9.59619141 -0.21337891 1.88448644
-16.85107422 -0.33129883 1.47524405
-17.15087891 -0.50195313 1.41046786
-17.18041992 -0.46044922 1.40883708
-12.56665039 -1.17333984 1.46914983
-16.24389648 -0.27929688 1.28461075
-15.06005859 1.09155273 1.35291052
-17.50854492 -0.72924805 1.24282694
-16.98681641 -0.49829102 1.26834631
-8.32714844 0.00268555 1.54331684
-8.22705078 0.02368164 1.55020165
-8.66455078 0.04711914 1.51890612
-8.40087891 0.06738281 1.53741598
-8.62792969 0.09106445 1.52103949
-15.59521484 0.35009766 1.02356887
-15.64648438 0.38964844 1.01951432
-15.50292969 0.46337891 1.02888680
-15.12377930 0.56518555 1.05461836
-15.23193359 0.72070313 1.04507685
-6.90039063 -0.83666992 1.52748156
-6.81616211 -0.78564453 1.53347611
-7.24780273 -0.80053711 1.50225544
-6.49218750 -0.71630859 1.55670285
-6.73925781 -0.54418945 1.53816152
-8.07861328 -0.18432617 1.56265116
-8.56958008 -0.15136719 1.52753496
-8.34741211 -0.12622070 1.54310107
-8.41699219 -0.10522461 1.53796458
-8.11303711 -0.08081055 1.55934119
-16.08837891 -0.03857422 0.81136417
-15.35742188 0.26806641 0.86810946
-15.27441406 0.30444336 0.87450099
-15.15649414 0.33984375 0.88376284
-15.51953125 0.46289063 0.85269284
-15.84057617 0.58984375 0.82495451
-15.89916992 0.78979492 0.81763101
-13.14306641 -1.84863281 0.91044044
-7.30688477 -1.10253906 1.39488673
-13.18286133 -1.74243164 0.90727830
-6.48168945 -0.88256836 1.46331310
-6.77368164 -0.89038086 1.43908024
-6.85327148 -0.83300781 1.43237185
-7.02343750 -0.71630859 1.41796041
-6.64819336 -0.62402344 1.44889808
-6.50927734 -0.59350586 1.46034431
-6.91772461 -0.59936523 1.42637920
-6.95336914 -0.57983398 1.42333245
-6.73266602 -0.54467773 1.44154835
-6.67529297 -0.51977539 1.44623995
-6.51904297 -0.46948242 1.45900011
-7.88012695 -0.32299805 1.48535395
-7.61206055 -0.21459961 1.50644135
-6.74609375 -0.05078125 1.57579565
-6.96533203 -0.97460938 1.37408376
-7.21411133 -0.84301758 1.35196829
-7.04321289 -0.76147461 1.36692572
-7.02124023 -0.73779297 1.36882639
-7.11523438 -0.72314453 1.36044741
-7.08154297 -0.69824219 1.36338115
-6.87500000 -0.61791992 1.38145280
-7.13183594 -0.61279297 1.35866165
-6.96948242 -0.58056641 1.37292409
-6.58764648 -0.49389648 1.40646362
-6.52978516 -0.46997070 1.41147137
-16.01269531 0.19702148 0.62578154
-4.38232422 0.07397461 1.71086049
-6.91088867 -1.07885742 1.32367516
-7.07519531 -1.07592773 1.30820751
-6.96289063 -1.01904297 1.31884265
-7.06689453 -0.96362305 1.30908942
-7.04223633 -0.89477539 1.31136155
-7.21777344 -0.88940430 1.29476547
-6.92895508 -0.84008789 1.32201958
-7.02539063 -0.80493164 1.31294608
-6.89868164 -0.77221680 1.32486343
-7.01025391 -0.75952148 1.31428933
-7.19116211 -0.75195313 1.29712152
-7.12255859 -0.72436523 1.30355406
-7.24560547 -0.71093750 1.29188228
-7.32226563 -0.69409180 1.28459001
-6.83056641 -0.61572266 1.33095407
-7.01098633 -0.60595703 1.31377077
-7.00585938 -0.58349609 1.31417751
-6.61157227 -0.51684570 1.35123062
-7.13598633 -0.52465820 1.30162692
-6.97363281 -0.49389648 1.31687188
-6.97534180 -0.45019531 1.31657243
-8.00781250 0.03417969 1.15431190
-8.30834961 0.11035156 1.12327981
-11.64282227 0.61352539 0.95410657
-11.71557617 0.73535156 0.94503403
-11.84399414 0.80273438 0.93121123
-1.71337891 -0.55957031 1.79194188
-6.92724609 -1.08007813 1.26752377
-7.14111328 -1.03808594 1.24612045
-6.92480469 -0.97045898 1.26794863
-7.06518555 -0.96313477 1.25382686
-7.14819336 -0.94946289 1.24554396
-7.09741211 -0.92211914 1.25062299
-6.98901367 -0.88940430 1.26154494
-6.97314453 -0.86621094 1.26313686
-6.87573242 -0.83520508 1.27290010
-6.73803711 -0.80126953 1.28674126
-7.03540039 -0.80566406 1.25685620
-7.15966797 -0.77148438 1.24430346
-6.81787109 -0.72216797 1.27857327
-6.89477539 -0.70629883 1.27083516
-7.01757813 -0.69409180 1.25842452
-6.90844727 -0.66430664 1.26936936
-6.94409180 -0.64477539 1.26572108
-7.01464844 -0.62792969 1.25856614
-6.72558594 -0.56591797 1.28746867
-6.94873047 -0.51440430 1.26481509
-7.11816406 -0.50170898 1.24771261
-6.71704102 -0.45922852 1.28790545
-6.58422852 -0.41064453 1.30106020
-6.70751953 -0.28906250 1.28791261
-6.96362305 -0.27539063 1.26201344
-6.85327148 -0.25073242 1.27298522
-6.56787109 -0.22192383 1.30152750
-7.02807617 -0.21142578 1.25511193
-7.08007813 -0.19067383 1.24969864
-6.52636719 -0.15869141 1.30520654
-6.45629883 -0.13671875 1.31209636
-7.52124023 -0.08349609 1.20438385
-7.80053711 -0.06176758 1.17608309
-8.15991211 0.01000977 1.13922739
-7.90258789 0.02099609 1.27594423
-10.08813477 0.15307617 1.04351258
-11.51464844 0.60815430 0.88665247
-7.28588867 -1.01025391 1.16871810
-6.83007813 -0.94042969 1.21750569
-6.91308594 -0.92724609 1.20867419
-6.75781250 -0.89013672 1.22526264
-6.63793945 -0.85693359 1.23813128
-6.62158203 -0.83447266 1.23983765
-6.57666016 -0.80908203 1.24465370
-6.82739258 -0.81030273 1.21785307
-6.75317383 -0.78222656 1.22576380
-7.02709961 -0.78393555 1.19645929
-6.72094727 -0.73706055 1.22918773
-6.93090820 -0.73242188 1.20670891
-6.81616211 -0.70190430 1.21896410
-7.03735352 -0.69653320 1.19523144
-6.77148438 -0.65527344 1.22364211
-6.76074219 -0.63330078 1.22473478
-6.98217773 -0.62670898 1.20098662
-6.86694336 -0.59741211 1.21326113
-6.86206055 -0.57519531 1.21373248
-6.79882813 -0.55004883 1.22041225
-6.97949219 -0.53881836 1.20101643
-6.68359375 -0.50048828 1.23254871
-6.94580078 -0.49340820 1.20443678
-6.87670898 -0.46777344 1.21174932
-7.02246094 -0.45336914 1.19605780
-6.80200195 -0.42114258 1.21952939
-6.40087891 -0.38232422 1.26230073
-6.57543945 -0.36889648 1.24350715
-6.55273438 -0.34692383 1.24584222
-6.51782227 -0.32495117 1.24944282
-6.68652344 -0.30981445 1.23124743
-9.41943359 -0.38378906 1.11966276
-7.37744141 -0.28613281 1.33438849
-8.17919922 -0.10498047 1.24802089
-8.40014648 -0.08593750 1.22449303
-7.85815430 -0.06030273 1.28150463
-8.13134766 -0.04150391 1.25242758
-6.69238281 -0.94628906 1.17551494
-6.71020508 -0.86279297 1.17362404
-6.60131836 -0.83129883 1.18598151
-6.68896484 -0.81811523 1.17595792
-7.00634766 -0.78149414 1.13999462
-7.17529297 -0.77319336 1.12075233
-6.53222656 -0.57495117 1.19346857
-6.92919922 -0.55761719 1.14837527
-6.83154297 -0.50854492 1.15928006
-6.81982422 -0.48657227 1.16044879
-6.62963867 -0.43432617 1.18192148
-6.84423828 -0.42309570 1.15737033
-6.57739258 -0.39013672 1.18757510
-8.59545898 -0.02270508 1.07856131
-8.50805664 -0.00048828 1.08876991
-8.60595703 0.02148438 1.07683301
-8.57641602 0.04345703 1.08011317
-11.27514648 0.33935547 0.75517273
-11.58593750 0.40625000 0.71726632
-11.83398438 0.44433594 0.68719649
-11.62915039 0.46630859 0.71124625
-6.80883789 -1.04760742 1.09748936
-6.84741211 -1.00854492 1.09301329
-6.76782227 -0.97827148 1.10261512
-6.70605469 -0.95019531 1.11012483
-6.51684570 -0.90917969 1.13295388
-6.94799805 -0.90991211 1.08112550
-6.62548828 -0.85717773 1.11997867
-6.79296875 -0.78686523 1.09988761
-6.94604492 -0.75659180 1.08145285
-7.14453125 -0.75024414 1.05759621
-6.43676758 -0.57031250 1.14252043
-7.14111328 -0.54931641 1.05762029
-6.87451172 -0.51220703 1.08959174
-8.75537109 -0.24707031 1.06166649
-8.06298828 -0.14550781 1.14323473
-9.06787109 -0.09326172 1.02306223
-8.49194336 -0.06591797 1.09136415
-7.78076172 0.03173828 0.90944314
-7.69897461 0.05493164 0.91963959
-8.29296875 0.04101563 1.05414820
-8.30395508 0.06225586 1.05251241
-11.33862305 0.19653320 0.66887450
-6.91601563 -1.10278320 1.02304220
-6.92016602 -1.05957031 1.02273488
-6.73730469 -1.01708984 1.04610777
-6.71582031 -0.99316406 1.04889965
-6.78100586 -0.97900391 1.04066396
-6.70800781 -0.94970703 1.05007482
