# .PCD v0.7 - Point Cloud Data file format
VERSION 0.7
FIELDS x y z
SIZE 4 4 4
TYPE F F F
COUNT 1 1 1
WIDTH 1381
HEIGHT 1
VIEWPOINT 0 0 0 1 0 0 0
POINTS 1381
DATA ASCII
-1.89062500 -0.19531250 1.70996094
-1.87695313 -0.18359375 1.71191406
-2.01367188 -0.17968750 1.69628906
-2.10742188 -0.17187500 1.68457031
-2.37890625 -0.17578125 1.65332031
-2.38085938 -0.16015625 1.65332031
-2.36328125 -0.15234375 1.65527344
-2.29296875 -0.13671875 1.66308594
-2.33398438 -0.12890625 1.65820313
-2.23828125 -0.11328125 1.66894531
-2.36718750 -0.10546875 1.65429688
-2.36328125 -0.09765625 1.65429688
-2.43750000 -0.08593750 1.64648438
-2.54101563 -0.07812500 1.63476563
-2.59375000 -0.06640625 1.62890625
-2.79296875 -0.06250000 1.60546875
-2.58789063 -0.04296875 1.62890625
-2.60156250 -0.03515625 1.62695313
-2.84960938 -0.02343750 1.59863281
-2.74414063 -0.01171875 1.61132813
-3.77343750 0.01171875 1.65625000
-3.26562500 0.05468750 1.71875000
-3.62890625 0.08203125 1.67285156
-3.76367188 0.09375000 1.65625000
-3.40820313 0.10156250 1.70117188
-3.28125000 0.14453125 1.71582031
-3.26367188 0.17187500 1.71679688
-3.75000000 0.20312500 1.65625000
-3.47656250 0.19921875 1.69042969
-3.44531250 0.20703125 1.69433594
-3.45898438 0.21875000 1.69238281
-3.51171875 0.23046875 1.68554688
-3.40234375 0.24218750 1.69921875
-3.38867188 0.25781250 1.70019531
-3.58984375 0.28125000 1.67480469
-3.59570313 0.29296875 1.67382813
-3.44726563 0.29296875 1.69238281
-3.41015625 0.29687500 1.69628906
-3.36132813 0.30468750 1.70214844
-3.77539063 0.35546875 1.65039063
-3.69921875 0.35937500 1.65917969
-3.84375000 0.38281250 1.64160156
-3.67382813 0.37500000 1.66210938
-3.74218750 0.39453125 1.65332031
-3.56640625 0.39062500 1.67578125
-3.84375000 0.42187500 1.64062500
-3.69140625 0.42968750 1.65820313
-3.69140625 0.44140625 1.65820313
-3.76562500 0.45703125 1.64843750
-4.21875000 0.51953125 1.59179688
-3.98437500 0.50390625 1.62109375
-3.64062500 0.47265625 1.66406250
-3.92382813 0.57812500 1.62695313
-0.27929688 -2.68359375 1.75878906
-0.75781250 -2.62500000 1.72070313
-0.67773438 -2.45312500 1.74121094
-0.51367188 -2.26953125 1.77050781
-0.75000000 -1.79296875 1.77636719
-1.00781250 -1.83984375 1.74609375
-0.80468750 -1.68750000 1.77636719
-1.02929688 -1.65234375 1.75292969
-1.04101563 -1.62500000 1.75292969
-1.95898438 -1.64453125 1.64746094
-1.18945313 -1.28515625 1.74902344
-1.47265625 -1.28906250 1.71679688
-9.20312500 -2.18750000 0.77539063
-9.25000000 -1.94531250 0.77441406
-10.20312500 -1.83593750 0.66162109
-8.68750000 -1.58593750 0.84716797
-8.39062500 -1.51953125 0.88281250
-8.40625000 -1.49609375 0.88134766
-8.39062500 -1.46875000 0.88427734
-8.35156250 -1.43750000 0.88916016
-8.16406250 -1.38671875 0.91259766
-8.90625000 -1.45703125 0.82226563
-8.30468750 -1.35156250 0.89550781
-8.12500000 -1.30468750 0.91796875
-8.93750000 -1.37890625 0.81933594
-9.71875000 -1.41796875 0.72460938
-7.86718750 -1.17578125 0.95068359
-8.47656250 -1.21875000 0.87597656
-8.57812500 -1.20312500 0.86328125
-8.30468750 -1.15234375 0.89697266
-8.56250000 -1.15234375 0.86621094
-8.34375000 -1.10546875 0.89257813
-7.85937500 -1.02734375 0.95263672
-7.98828125 -1.01953125 0.93701172
-7.67187500 -0.96093750 0.97509766
-7.66406250 -0.93750000 0.97656250
-7.48437500 -0.89843750 0.99804688
-7.50000000 -0.87500000 0.99707031
-7.32812500 -0.83593750 1.01757813
-7.50781250 -0.82812500 0.99658203
-7.41406250 -0.79687500 1.00781250
-7.12890625 -0.75390625 1.04296875
-1.58593750 -0.27734375 1.71679688
-1.90234375 -0.29296875 1.67773438
-2.06250000 -0.29296875 1.65820313
-2.22265625 -0.29687500 1.63867188
-11.89843750 -0.89843750 0.46337891
-2.00000000 -0.26171875 1.66601563
-1.78906250 -0.23828125 1.69140625
-3.41406250 -0.20312500 1.70312500
-3.59570313 -0.20703125 1.68066406
-3.53125000 -0.19531250 1.68847656
-3.74414063 -0.19531250 1.66210938
-3.66796875 -0.16406250 1.67089844
-3.36718750 -0.14062500 1.70898438
-9.15625000 -0.33203125 0.98535156
-9.45312500 -0.32031250 0.94873047
-9.37500000 -0.29296875 0.95849609
-3.43164063 -0.04296875 1.69921875
-3.40625000 -0.03125000 1.70214844
-3.42968750 0.00000000 1.45507813
-3.31640625 0.01562500 1.46875000
-3.45312500 0.03125000 1.45214844
-4.96093750 0.04296875 1.47363281
-4.97656250 0.05078125 1.47265625
-5.25781250 0.07421875 1.43359375
-5.02734375 0.08593750 1.46484375
-4.96875000 0.09765625 1.47265625
-4.75781250 0.10156250 1.50000000
-5.03125000 0.12500000 1.46386719
-5.04296875 0.13671875 1.46191406
-5.10546875 0.14843750 1.45312500
-5.19921875 0.16796875 1.44042969
-5.14843750 0.17968750 1.44726563
-5.17968750 0.19531250 1.44335938
-5.17578125 0.20703125 1.44335938
-5.19531250 0.21875000 1.44042969
-5.04687500 0.22656250 1.45996094
-5.03906250 0.24218750 1.45996094
-5.07031250 0.25390625 1.45605469
-5.17187500 0.27343750 1.44238281
-5.00781250 0.27734375 1.46484375
-5.14453125 0.29687500 1.44628906
-4.92187500 0.30078125 1.47558594
-4.83593750 0.30468750 1.48632813
-4.91406250 0.32421875 1.47656250
-5.00000000 0.34375000 1.46386719
-4.93750000 0.35156250 1.47265625
-4.82421875 0.35156250 1.48730469
-5.00781250 0.38281250 1.46289063
-3.84570313 0.30859375 1.61621094
-3.97656250 0.33203125 1.59863281
-3.68945313 0.31640625 1.63574219
-4.77343750 0.41406250 1.49218750
-4.86718750 0.43750000 1.47949219
-4.36718750 0.40625000 1.54492188
-4.11718750 0.39453125 1.57910156
-4.25000000 0.41796875 1.56054688
-4.45703125 0.44921875 1.53320313
-4.50781250 0.46484375 1.52636719
-4.56250000 0.48437500 1.51855469
-4.51562500 0.48828125 1.52441406
-4.47656250 0.49609375 1.53027344
-4.54687500 0.51562500 1.51953125
-4.60156250 0.53125000 1.51171875
-4.91406250 0.58203125 1.47070313
-4.82031250 0.58593750 1.48242188
-4.66406250 0.57812500 1.50292969
-4.57031250 0.58203125 1.51562500
-4.66796875 0.60156250 1.50097656
-4.55468750 0.60156250 1.51660156
-4.59375000 0.61718750 1.51171875
-4.51171875 0.61718750 1.52148438
-4.55468750 0.63671875 1.51562500
-4.57031250 0.65234375 1.51367188
-4.46875000 0.65234375 1.52636719
-4.47656250 0.66406250 1.52441406
-4.46093750 0.67187500 1.52734375
-4.46093750 0.68750000 1.52636719
-4.32031250 0.67578125 1.54589844
-4.42968750 0.70312500 1.53027344
-4.50000000 0.72656250 1.52050781
-4.44531250 0.73437500 1.52734375
-4.60156250 0.76953125 1.50585938
-4.64843750 0.78515625 1.49902344
-4.53125000 0.78125000 1.51464844
-4.43750000 0.78125000 1.52734375
-4.31250000 0.76953125 1.54296875
-4.39843750 0.80078125 1.53027344
-4.38281250 0.82031250 1.53222656
-3.09765625 0.64843750 1.70312500
-0.96679688 -3.34765625 1.61621094
-1.20898438 -3.60546875 1.57128906
-0.98632813 -3.34375000 1.61425781
-0.91406250 -3.23046875 1.63085938
-0.92968750 -3.21875000 1.63085938
-1.43554688 -3.74609375 1.53808594
-1.04492188 -3.30468750 1.61328125
-1.36523438 -3.42187500 1.57324219
-1.15234375 -3.14843750 1.61523438
-1.10546875 -3.07421875 1.62695313
-1.51757813 -3.39062500 1.56054688
-1.05664063 -2.87890625 1.64746094
-1.19335938 -2.95312500 1.62792969
-1.95703125 -3.61718750 1.50000000
-2.35351563 -3.95703125 1.43359375
-1.55859375 -3.18359375 1.57324219
-1.73828125 -3.25390625 1.54980469
-1.13671875 -2.71875000 1.65234375
-1.68945313 -3.09375000 1.56738281
-1.83398438 -3.17187500 1.54589844
-1.33984375 -2.10937500 1.67089844
-1.98437500 -2.17968750 1.59277344
-1.59765625 -1.50390625 1.66992188
-2.02929688 -1.66406250 1.61035156
-1.78320313 -1.52343750 1.64648438
-1.84375000 -1.52734375 1.63867188
-1.92968750 -1.55078125 1.62695313
-1.87304688 -1.50390625 1.63574219
-1.88867188 -1.46875000 1.63476563
-1.81640625 -1.41015625 1.64550781
-2.15429688 -1.52343750 1.60058594
-2.16406250 -1.50000000 1.59960938
-2.24609375 -1.51953125 1.58886719
-2.11328125 -1.46093750 1.60742188
-1.84179688 -1.32812500 1.64550781
-2.20312500 -1.43750000 1.59667969
-2.12890625 -1.40234375 1.60742188
-2.39648438 -1.45312500 1.57324219
-3.18554688 -1.63281250 1.46972656
-2.58203125 -1.42578125 1.55078125
-3.27343750 -1.55078125 1.46093750
-3.18750000 -1.51171875 1.47167969
-4.13281250 -1.66796875 1.35058594
-4.19140625 -1.52343750 1.34667969
-4.07031250 -1.38671875 1.36523438
-1.60937500 -0.82031250 1.68652344
-1.89062500 -0.87500000 1.64941406
-8.90625000 -2.34765625 0.73486328
-5.09375000 -1.50390625 1.23242188
-9.09375000 -2.30468750 0.71191406
-5.55859375 -1.50781250 1.17382813
-5.57031250 -1.49218750 1.17187500
-5.50781250 -1.46093750 1.18164063
-5.56250000 -1.45312500 1.17480469
-5.55468750 -1.42968750 1.17480469
-5.15625000 -1.33593750 1.22753906
-5.32421875 -1.34765625 1.20605469
-5.20703125 -1.31250000 1.22167969
-4.00000000 -1.08203125 1.37792969
-9.33593750 -1.98437500 0.68652344
-9.45312500 -1.97656250 0.67285156
-4.94531250 -1.19531250 1.25683594
-3.96289063 -1.01562500 1.38378906
-4.50390625 -1.08984375 1.31445313
-4.85156250 -1.12500000 1.26953125
-9.17187500 -1.78906250 0.71191406
-4.17187500 -0.95703125 1.35839844
-4.30859375 -0.96484375 1.34082031
-4.03906250 -0.91015625 1.37597656
-4.18750000 -0.91796875 1.35742188
-4.30468750 -0.91796875 1.34179688
-4.21875000 -0.88671875 1.35253906
-4.28906250 -0.88281250 1.34472656
-4.51171875 -0.89843750 1.31542969
-4.46875000 -0.87500000 1.32128906
-4.39062500 -0.85156250 1.33105469
-4.33984375 -0.82812500 1.33789063
-4.66015625 -0.85156250 1.29687500
-4.57031250 -0.82421875 1.30859375
-4.76562500 -0.82812500 1.28417969
-3.72070313 -0.69140625 1.41894531
-5.16406250 -0.83984375 1.23242188
-7.72656250 -1.11328125 0.90283203
-4.92968750 -0.77734375 1.26269531
-7.91015625 -1.08203125 0.87988281
-3.85546875 -0.63281250 1.40136719
-3.66015625 -0.59765625 1.42675781
-3.81835938 -0.60156250 1.40625000
-7.80078125 -0.97656250 0.89453125
-3.14453125 -0.50781250 1.49218750
-2.98046875 -0.48437500 1.51367188
-2.59765625 -0.43359375 1.56250000
-2.51171875 -0.41406250 1.57421875
-2.72460938 -0.42187500 1.54687500
-2.83398438 -0.41796875 1.53320313
-1.92968750 -0.33593750 1.64843750
-2.96484375 -0.40625000 1.51562500
-6.92187500 -0.68750000 1.00878906
-2.88476563 -0.37500000 1.52636719
-2.63085938 -0.34375000 1.55859375
-2.57421875 -0.32812500 1.56640625
-2.78515625 -0.32812500 1.53906250
-2.67578125 -0.31250000 1.55273438
-2.61914063 -0.29687500 1.56054688
-2.53125000 -0.28125000 1.57128906
-2.75976563 -0.28515625 1.54296875
-2.81250000 -0.27343750 1.53613281
-3.21679688 -0.28125000 1.48437500
-3.34570313 -0.27734375 1.46679688
-2.74023438 -0.23437500 1.54492188
-2.87304688 -0.21484375 1.52734375
-3.00585938 -0.21093750 1.51074219
-3.08398438 -0.19921875 1.50097656
-3.05664063 -0.18359375 1.50390625
-3.05664063 -0.17578125 1.50390625
-3.09179688 -0.16406250 1.49902344
-3.22656250 -0.15625000 1.48242188
-3.62304688 -0.14843750 1.43164063
-2.99609375 -0.12109375 1.51171875
-3.86718750 -0.12500000 1.39941406
-2.96875000 -0.09765625 1.51464844
-3.08984375 -0.08984375 1.49902344
-3.43359375 -0.08203125 1.45507813
-3.32031250 -0.06250000 1.46972656
-3.47460938 -0.05078125 1.45019531
-3.49609375 -0.03515625 1.44726563
-3.67968750 -0.02343750 1.42285156
-3.74023438 -0.01171875 1.41503906
-6.83984375 0.00781250 1.17382813
-6.88281250 0.02343750 1.16894531
-4.79296875 0.03125000 1.45800781
-4.79687500 0.04296875 1.45800781
-5.00000000 0.05859375 1.42871094
-4.76562500 0.06640625 1.46093750
-4.89062500 0.08203125 1.44433594
-4.99218750 0.09765625 1.42968750
-4.80468750 0.10546875 1.45605469
-5.00781250 0.12109375 1.42675781
-5.03125000 0.13671875 1.42382813
-4.93750000 0.14453125 1.43652344
-5.12500000 0.16406250 1.41015625
-5.13671875 0.17968750 1.40820313
-5.10937500 0.18750000 1.41210938
-5.13281250 0.20312500 1.40820313
-5.06640625 0.21484375 1.41699219
-5.07812500 0.23046875 1.41601563
-5.03125000 0.24218750 1.42187500
-4.99218750 0.25000000 1.42773438
-4.96875000 0.26171875 1.43066406
-5.15234375 0.28515625 1.40527344
-5.01562500 0.28906250 1.42285156
-4.77343750 0.29296875 1.45703125
-5.00781250 0.31640625 1.42382813
-5.09765625 0.33593750 1.41113281
-5.01562500 0.34375000 1.42187500
-4.89843750 0.34765625 1.43847656
-4.84375000 0.35546875 1.44531250
-4.67187500 0.35937500 1.46875000
-4.13671875 0.32812500 1.54394531
-4.07031250 0.33593750 1.55273438
-4.15234375 0.35156250 1.54101563
-3.77539063 0.33593750 1.59375000
-4.14843750 0.37500000 1.54101563
-3.92968750 0.37109375 1.57128906
-4.02343750 0.39062500 1.55761719
-4.10156250 0.40625000 1.54687500
-4.45312500 0.44921875 1.49804688
-4.28906250 0.44140625 1.52050781
-4.10937500 0.43750000 1.54492188
-4.14062500 0.45312500 1.54003906
-4.13281250 0.46484375 1.54101563
-4.41406250 0.50390625 1.50097656
-4.45312500 0.51562500 1.49609375
-4.43750000 0.52734375 1.49804688
-4.51562500 0.54687500 1.48730469
-4.61718750 0.57421875 1.47265625
-4.40625000 0.55859375 1.50097656
-4.38281250 0.57031250 1.50390625
-4.56250000 0.60546875 1.47851563
-4.36328125 0.58984375 1.50585938
-4.50781250 0.62109375 1.48632813
-4.38281250 0.61718750 1.50292969
-4.39843750 0.63281250 1.50000000
-4.43750000 0.64843750 1.49414063
-4.37500000 0.65234375 1.50292969
-4.40234375 0.66796875 1.49902344
-4.43750000 0.67968750 1.49414063
-4.36718750 0.68359375 1.50292969
-4.35156250 0.69531250 1.50390625
-4.35156250 0.70703125 1.50390625
-4.38281250 0.72265625 1.50000000
-4.26562500 0.71484375 1.51562500
-4.36718750 0.74609375 1.50097656
-4.42187500 0.76171875 1.49414063
-4.43750000 0.77734375 1.49121094
-4.40625000 0.78906250 1.49414063
-4.34375000 0.78906250 1.50292969
-3.93750000 0.73437500 1.55957031
-4.48437500 0.83984375 1.48242188
-4.20703125 0.80078125 1.52148438
-3.88671875 0.76953125 1.56542969
-3.79687500 0.77343750 1.57714844
-3.39648438 0.71093750 1.63378906
-3.34375000 0.70703125 1.64160156
-1.18945313 -3.74218750 1.52539063
-1.03125000 -3.46093750 1.56640625
-0.86523438 -3.21484375 1.60546875
-0.90234375 -3.20312500 1.60351563
-0.91992188 -3.20312500 1.60156250
-1.13281250 -3.39062500 1.56347656
-1.36132813 -3.60156250 1.52148438
-1.22070313 -3.43750000 1.55078125
-0.99023438 -3.16406250 1.59863281
-1.22851563 -3.39843750 1.55371094
-1.20312500 -3.35546875 1.56054688
-1.39453125 -3.54296875 1.52343750
-1.08007813 -3.18750000 1.58691406
-1.13671875 -3.21093750 1.58007813
-1.40039063 -3.44921875 1.53222656
-1.06054688 -3.07812500 1.59863281
-1.13085938 -3.13281250 1.58691406
-1.39453125 -3.36718750 1.54003906
-1.36132813 -3.30468750 1.54882813
-1.45507813 -3.35156250 1.53515625
-1.41796875 -3.30078125 1.54394531
-1.49023438 -3.34765625 1.53222656
-1.41601563 -3.26562500 1.54589844
-1.17382813 -3.02343750 1.59179688
-1.19726563 -3.01953125 1.58984375
-1.31054688 -3.10937500 1.57031250
-1.39062500 -3.16796875 1.55761719
-1.38281250 -3.14843750 1.55957031
-1.49609375 -3.23828125 1.54003906
-1.80468750 -3.46875000 1.48925781
-1.59570313 -3.26562500 1.52832031
-0.85351563 -2.58984375 1.66210938
-1.63281250 -3.27343750 1.52343750
-1.12890625 -2.79687500 1.61523438
-1.02929688 -2.69921875 1.63476563
-1.50390625 -3.08593750 1.55273438
-1.36718750 -2.95312500 1.57714844
-1.41796875 -2.98437500 1.56933594
-1.37304688 -2.92968750 1.57910156
-1.34375000 -2.89453125 1.58496094
-1.15429688 -2.71875000 1.61914063
-1.89453125 -3.32421875 1.49121094
-1.34179688 -2.85156250 1.58789063
-1.48437500 -2.96093750 1.56445313
-1.02343750 -2.54687500 1.64746094
-1.41601563 -2.82031250 1.58300781
-1.95898438 -3.19921875 1.49414063
-1.30273438 -2.65234375 1.60839844
-1.33203125 -2.58984375 1.60937500
-1.51757813 -2.71484375 1.57910156
-1.83789063 -2.87500000 1.53222656
-2.31640625 -3.16406250 1.45703125
-1.79687500 -2.77734375 1.54296875
-1.65625000 -2.62500000 1.57031250
-1.30859375 -2.35937500 1.62890625
-1.47265625 -2.46484375 1.60253906
-1.49023438 -2.40234375 1.60449219
-1.45703125 -2.29687500 1.61523438
-1.77148438 -2.46484375 1.56835938
-1.08789063 -1.97656250 1.67968750
-1.26757813 -2.07812500 1.65136719
-1.45117188 -2.17968750 1.62402344
-1.73632813 -2.07421875 1.59570313
-1.75390625 -2.07421875 1.59277344
-1.79687500 -2.00000000 1.59082031
-1.40625000 -1.62109375 1.65917969
-1.69335938 -1.74609375 1.61718750
-1.99023438 -1.75781250 1.57910156
-1.68359375 -1.60156250 1.62500000
-2.21484375 -1.77734375 1.54980469
-1.81640625 -1.60546875 1.60742188
-1.99023438 -1.62890625 1.58496094
-1.94335938 -1.60156250 1.59179688
-2.23046875 -1.70312500 1.54980469
-2.05664063 -1.61328125 1.57617188
-2.06835938 -1.60546875 1.57519531
-1.96875000 -1.55859375 1.58984375
-2.14453125 -1.60937500 1.56542969
-2.13867188 -1.59765625 1.56640625
-2.41992188 -1.62500000 1.52929688
-2.57226563 -1.63281250 1.50878906
-2.17382813 -1.47265625 1.56640625
-2.91601563 -1.71093750 1.46093750
-2.23632813 -1.47265625 1.55859375
-2.12109375 -1.42187500 1.57519531
-2.21093750 -1.44140625 1.56250000
-2.29492188 -1.44921875 1.55175781
-2.14257813 -1.38671875 1.57324219
-2.41796875 -1.45703125 1.53515625
-2.58203125 -1.50000000 1.51171875
-2.33007813 -1.39843750 1.54785156
-2.16015625 -1.31250000 1.57324219
-3.37304688 -1.64843750 1.40332031
-4.13281250 -1.65625000 1.30273438
-2.26757813 -1.01171875 1.56640625
-2.21484375 -0.91406250 1.57421875
-1.79296875 -0.77734375 1.63281250
-2.46679688 -0.88281250 1.54199219
-9.26562500 -2.11328125 0.60986328
-2.02929688 -0.77343750 1.60156250
-9.29687500 -2.06640625 0.60644531
-9.37500000 -2.05078125 0.59667969
-3.60351563 -1.00000000 1.38769531
-4.42968750 -1.06250000 1.27539063
-4.10937500 -0.99609375 1.31933594
-3.80468750 -0.93359375 1.36132813
-3.91992188 -0.93750000 1.34570313
-3.69140625 -0.88671875 1.37695313
-4.32031250 -0.96875000 1.29101563
-10.44531250 -1.83984375 0.45654297
-4.10937500 -0.90234375 1.32031250
-4.03125000 -0.87890625 1.33105469
-4.07031250 -0.87109375 1.32617188
-4.15234375 -0.86718750 1.31445313
-4.44921875 -0.88671875 1.27539063
-4.37890625 -0.86328125 1.28417969
-4.52343750 -0.86328125 1.26464844
-4.55468750 -0.85156250 1.26074219
-4.77343750 -0.86328125 1.23144531
-4.71093750 -0.83984375 1.24023438
-4.46093750 -0.79687500 1.27441406
-2.41992188 -0.54296875 1.55078125
-4.87109375 -0.80859375 1.21875000
-4.80859375 -0.78515625 1.22656250
-2.97070313 -0.56640625 1.47656250
-7.89062500 -1.07812500 0.80957031
-4.63281250 -0.71484375 1.25195313
-3.56054688 -0.58984375 1.39648438
-2.94726563 -0.51562500 1.47949219
-2.69140625 -0.48046875 1.51464844
-2.08789063 -0.41015625 1.59765625
-2.85546875 -0.46875000 1.49316406
-2.72851563 -0.44921875 1.50976563
-2.72656250 -0.43359375 1.50976563
-2.68945313 -0.42187500 1.51464844
-2.79492188 -0.41796875 1.50097656
-1.91210938 -0.33593750 1.62011719
-2.61523438 -0.37890625 1.52539063
-2.68945313 -0.37109375 1.51562500
-2.67968750 -0.36328125 1.51757813
-2.63867188 -0.34375000 1.52148438
-2.43359375 -0.32031250 1.54980469
-2.56640625 -0.31640625 1.53222656
-2.67578125 -0.31250000 1.51660156
-2.44531250 -0.28906250 1.54882813
-2.35546875 -0.26953125 1.56054688
-6.51171875 -0.49218750 0.99804688
-2.30078125 -0.24609375 1.56835938
-2.50390625 -0.24609375 1.54003906
-2.41796875 -0.23046875 1.55175781
-2.39257813 -0.21875000 1.55566406
-2.66796875 -0.22265625 1.51855469
-2.65429688 -0.20703125 1.51953125
-2.73828125 -0.19921875 1.50781250
-2.85351563 -0.19531250 1.49218750
-4.35937500 -0.23437500 1.28906250
-2.87304688 -0.17187500 1.49023438
-4.32812500 -0.19921875 1.29296875
-2.75000000 -0.14062500 1.50683594
-2.63281250 -0.12109375 1.52246094
-2.67968750 -0.11718750 1.51562500
-2.81640625 -0.10546875 1.49707031
-3.39843750 -0.10156250 1.41894531
-3.61718750 -0.09375000 1.38867188
-5.05468750 -0.07031250 1.42285156
-4.94921875 -0.05859375 1.43750000
-6.99218750 -0.06250000 1.15429688
-6.92187500 -0.04296875 1.16406250
-4.89453125 -0.01953125 1.44433594
-6.85937500 -0.00781250 1.17187500
-3.61328125 0.00390625 1.34765625
-3.29101563 0.01562500 1.39355469
-3.07617188 0.02734375 1.42382813
-3.12109375 0.03906250 1.41699219
-3.17968750 0.05468750 1.40917969
-3.20312500 0.06640625 1.40625000
-3.22656250 0.08203125 1.40136719
-3.22460938 0.09765625 1.40136719
-3.22460938 0.10546875 1.40136719
-3.21289063 0.11718750 1.40332031
-3.22851563 0.13281250 1.40039063
-3.09570313 0.14453125 1.41992188
-5.14843750 0.16015625 1.36718750
-4.90234375 0.16796875 1.40429688
-5.09375000 0.18750000 1.37500000
-5.04687500 0.19921875 1.38183594
-5.04687500 0.21484375 1.38183594
-5.15625000 0.22656250 1.36523438
-4.95312500 0.23828125 1.39550781
-5.13671875 0.25390625 1.36816406
-4.94921875 0.25781250 1.39550781
-4.83593750 0.26953125 1.41113281
-4.75000000 0.27734375 1.42382813
-4.93359375 0.29687500 1.39648438
-4.96093750 0.31250000 1.39257813
-4.82031250 0.31640625 1.41308594
-4.85156250 0.33203125 1.40820313
-4.75390625 0.33593750 1.42187500
-4.53906250 0.33593750 1.45312500
-4.21484375 0.32421875 1.50097656
-4.42187500 0.35156250 1.47070313
-4.46484375 0.36718750 1.46386719
-4.45312500 0.37890625 1.46484375
-4.20312500 0.36718750 1.50195313
-4.10937500 0.37109375 1.51464844
-4.19921875 0.38671875 1.50195313
-4.19531250 0.40234375 1.50195313
-4.12890625 0.40625000 1.51171875
-4.35156250 0.43750000 1.47851563
-4.01562500 0.41796875 1.52734375
-4.11718750 0.43750000 1.51171875
-4.14843750 0.45312500 1.50683594
-4.16406250 0.46484375 1.50488281
-4.16406250 0.47656250 1.50488281
-4.26562500 0.49609375 1.48925781
-4.53906250 0.53906250 1.44824219
-4.55468750 0.55468750 1.44628906
-4.46875000 0.55859375 1.45800781
-4.18750000 0.53515625 1.49902344
-4.51171875 0.58593750 1.45117188
-4.28906250 0.56640625 1.48437500
-4.42968750 0.59765625 1.46289063
-4.32031250 0.60156250 1.47851563
-4.48046875 0.62890625 1.45410156
-4.42187500 0.63281250 1.46289063
-4.41406250 0.64453125 1.46386719
-4.34375000 0.64843750 1.47363281
-4.40625000 0.66796875 1.46484375
-4.30859375 0.66796875 1.47753906
-4.39843750 0.69140625 1.46484375
-4.41406250 0.70312500 1.46191406
-4.25000000 0.68750000 1.48632813
-4.43359375 0.73046875 1.45800781
-4.28906250 0.72265625 1.47949219
-4.59375000 0.77734375 1.43359375
-4.60156250 0.79296875 1.43164063
-4.33984375 0.77734375 1.46972656
-3.14062500 0.60546875 1.64746094
-3.53125000 0.72656250 1.58691406
-2.90820313 0.65234375 1.67773438
-3.38671875 1.55859375 1.56347656
-1.50000000 -3.39453125 1.49218750
-0.77734375 -2.67578125 1.63671875
-0.98437500 -2.83593750 1.59863281
-1.17968750 -2.97656250 1.56542969
-0.84960938 -2.65625000 1.62988281
-1.83203125 -3.53125000 1.44335938
-2.25000000 -3.85937500 1.36816406
-0.91796875 -2.49609375 1.63476563
-1.08593750 -2.55468750 1.61132813
-2.14062500 -3.11718750 1.44335938
-0.95703125 -1.66796875 1.68945313
-1.90039063 -2.09765625 1.54296875
-1.89453125 -1.89843750 1.55371094
-1.98046875 -1.60156250 1.55566406
-1.98242188 -1.56640625 1.55761719
-2.45703125 -1.73437500 1.48632813
-1.98046875 -1.48828125 1.56054688
-1.88476563 -1.43750000 1.57519531
-2.29492188 -1.53125000 1.51562500
-2.21093750 -1.44531250 1.53027344
-2.58984375 -1.56250000 1.47460938
-2.08203125 -1.38671875 1.55078125
-2.34960938 -1.44921875 1.51074219
-4.18750000 -1.93750000 1.24023438
-2.92187500 -1.54296875 1.42871094
-3.75390625 -1.65625000 1.30957031
-2.44335938 -1.24218750 1.50390625
-3.78710938 -1.58984375 1.30761719
-4.09375000 -1.65234375 1.26269531
-4.04687500 -1.63281250 1.26953125
-4.07031250 -1.61328125 1.26562500
-4.05468750 -1.59765625 1.26953125
-3.96679688 -1.56640625 1.28222656
-4.07031250 -1.57031250 1.26757813
-3.91210938 -1.51953125 1.29101563
-4.02343750 -1.52734375 1.27636719
-3.87109375 -1.47656250 1.29882813
-9.16406250 -2.31250000 0.53662109
-5.10156250 -1.47265625 1.12500000
-5.00781250 -1.43359375 1.14062500
-9.39843750 -2.27734375 0.50439453
-9.17968750 -2.20703125 0.53613281
-9.35156250 -2.21093750 0.51220703
-9.13281250 -2.14062500 0.54443359
-9.10937500 -2.10937500 0.54833984
-9.27343750 -2.11328125 0.52539063
-9.07812500 -1.96484375 0.55664063
-4.19531250 -1.09765625 1.25976563
-4.69140625 -1.17187500 1.18945313
-4.09375000 -1.05078125 1.27539063
-4.92578125 -1.17578125 1.15527344
-3.88867188 -0.99218750 1.30566406
-3.93554688 -0.98437500 1.29882813
-3.94335938 -0.96875000 1.29785156
-4.05468750 -0.96875000 1.28222656
-3.82226563 -0.92187500 1.31640625
-3.85351563 -0.91406250 1.31054688
-3.98828125 -0.91796875 1.29199219
-4.09375000 -0.91406250 1.27734375
-4.02343750 -0.89062500 1.28808594
-3.83593750 -0.84765625 1.31542969
-4.17578125 -0.88281250 1.26660156
-4.27343750 -0.87890625 1.25195313
-4.27343750 -0.86328125 1.25195313
-4.33593750 -0.85546875 1.24414063
-4.41406250 -0.84765625 1.23242188
-4.51171875 -0.84765625 1.21875000
-4.54687500 -0.83593750 1.21386719
-4.75000000 -0.84375000 1.18554688
-7.75390625 -1.18750000 0.75488281
-4.76562500 -0.81250000 1.18261719
-4.29687500 -0.74218750 1.25000000
-5.09375000 -0.81250000 1.13574219
-5.51171875 -0.84375000 1.07714844
-3.10937500 -0.57031250 1.42089844
-3.18164063 -0.56250000 1.41015625
-3.03906250 -0.53125000 1.43066406
-3.10937500 -0.53125000 1.42089844
-3.24804688 -0.53125000 1.40136719
-7.28125000 -0.89843750 0.82470703
-7.18750000 -0.86718750 0.83837891
-3.07812500 -0.47656250 1.42578125
-2.68164063 -0.42968750 1.48144531
-3.18554688 -0.46093750 1.41015625
-3.23828125 -0.44921875 1.40234375
-6.63671875 -0.71093750 0.91748047
-2.64257813 -0.38281250 1.48730469
-2.74414063 -0.37890625 1.47363281
-2.78710938 -0.36718750 1.46679688
-2.72265625 -0.35156250 1.47558594
-3.00195313 -0.35546875 1.43652344
-6.63671875 -0.58593750 0.91796875
-3.00390625 -0.33203125 1.43652344
-6.48437500 -0.53515625 0.94042969
-6.65234375 -0.52343750 0.91552734
-6.53125000 -0.49609375 0.93261719
-6.39062500 -0.46875000 0.95312500
-6.41406250 -0.44921875 0.95019531
-2.30273438 -0.22656250 1.53613281
-2.44335938 -0.22265625 1.51562500
-4.43750000 -0.29687500 1.23144531
-4.54296875 -0.28906250 1.21679688
-4.47656250 -0.26953125 1.22656250
-4.41015625 -0.25000000 1.23535156
-4.22656250 -0.22656250 1.26171875
-4.33593750 -0.21484375 1.24609375
-4.47656250 -0.20312500 1.22656250
-4.38281250 -0.18750000 1.23828125
-4.17968750 -0.16406250 1.26855469
-4.17187500 -0.14843750 1.26953125
-4.38281250 -0.13671875 1.23925781
-4.03125000 -0.11328125 1.28906250
-4.05078125 -0.10156250 1.28613281
-3.91601563 -0.08203125 1.30468750
-3.83789063 -0.07031250 1.31640625
-3.72656250 -0.05468750 1.33203125
-3.62695313 -0.03906250 1.34570313
-3.72070313 -0.02734375 1.33203125
-3.58398438 -0.01171875 1.35253906
-7.12500000 0.00781250 1.02246094
-6.91406250 0.03906250 1.05371094
-4.92968750 0.05468750 1.35839844
-4.97656250 0.08203125 1.35058594
-7.16406250 0.13281250 1.01464844
-4.92187500 0.10546875 1.35742188
-4.88281250 0.13281250 1.36425781
-4.96875000 0.15625000 1.35058594
-4.99218750 0.18359375 1.34667969
-5.01171875 0.19921875 1.34375000
-4.98437500 0.21093750 1.34667969
-4.85156250 0.23046875 1.36816406
-3.94140625 0.21093750 1.50683594
-4.89062500 0.28515625 1.36035156
-4.82031250 0.29296875 1.37109375
-4.80468750 0.30468750 1.37304688
-4.23437500 0.29296875 1.45996094
-4.24218750 0.32031250 1.45898438
-4.17968750 0.33593750 1.46875000
-4.29687500 0.35546875 1.44921875
-4.38281250 0.37500000 1.43652344
-4.09765625 0.37109375 1.47949219
-3.91601563 0.37500000 1.50781250
-3.91796875 0.39843750 1.50683594
-4.30468750 0.44921875 1.44726563
-3.95117188 0.42578125 1.50000000
-3.87109375 0.42578125 1.51269531
-3.96093750 0.44531250 1.49804688
-3.93554688 0.46484375 1.50195313
-4.32031250 0.53125000 1.44140625
-4.35546875 0.55468750 1.43554688
-4.36718750 0.58203125 1.43261719
-4.46875000 0.61718750 1.41601563
-4.37500000 0.62890625 1.43066406
-4.27343750 0.62500000 1.44628906
-4.33593750 0.64843750 1.43652344
-4.28906250 0.66406250 1.44238281
-4.34375000 0.69531250 1.43261719
-4.22656250 0.70312500 1.45019531
-4.57421875 0.76562500 1.39648438
-4.40625000 0.75390625 1.42089844
-4.41796875 0.77734375 1.41894531
-4.37890625 0.79687500 1.42480469
-4.32031250 0.81250000 1.43261719
-3.30664063 0.65234375 1.58984375
-4.28125000 0.82421875 1.43750000
-4.39843750 0.87109375 1.41894531
-4.10546875 0.86718750 1.46289063
-3.14453125 0.70312500 1.61230469
-1.25195313 -3.58593750 1.46093750
-1.28320313 -3.45703125 1.47070313
-1.25781250 -3.40234375 1.47949219
-2.15234375 -3.88671875 1.33203125
-0.85742188 -2.68750000 1.59375000
-1.69335938 -3.35937500 1.43457031
-1.50976563 -3.16406250 1.47460938
-1.75000000 -3.34765625 1.42968750
-2.26953125 -3.75000000 1.33105469
-1.42382813 -2.95703125 1.50292969
-1.31445313 -2.57031250 1.54980469
-1.96093750 -2.91406250 1.44042969
-1.49218750 -2.46484375 1.53515625
-1.48632813 -2.34765625 1.54492188
-1.30273438 -2.05078125 1.58984375
-1.50781250 -2.14062500 1.55664063
-1.94921875 -2.00781250 1.50390625
-1.81640625 -1.76562500 1.53613281
-1.45703125 -1.57031250 1.59667969
-2.08593750 -1.69140625 1.50097656
-1.85351563 -1.49218750 1.54296875
-2.15820313 -1.59375000 1.49511719
-1.78906250 -1.42968750 1.55566406
-2.00976563 -1.47265625 1.52148438
-2.26953125 -1.55468750 1.48046875
-2.05664063 -1.42578125 1.51660156
-2.30664063 -1.42968750 1.47949219
-2.33398438 -1.42578125 1.47656250
-1.85351563 -1.26562500 1.55175781
-4.08593750 -1.60937500 1.21386719
-4.10156250 -1.59765625 1.21191406
-3.99609375 -1.55859375 1.22851563
-3.99609375 -1.53906250 1.22949219
-4.07031250 -1.52734375 1.21777344
-3.83789063 -1.43750000 1.25488281
-3.81054688 -1.33203125 1.26171875
-3.91601563 -1.26171875 1.24804688
-9.03125000 -2.12890625 0.47119141
-9.47656250 -2.15234375 0.40429688
-4.31250000 -1.14062500 1.19140625
-4.35156250 -1.12890625 1.18554688
-4.25781250 -1.08203125 1.20019531
-4.16796875 -1.05468750 1.21386719
-4.02343750 -1.01171875 1.23632813
-4.00000000 -0.99609375 1.24023438
-3.95507813 -0.96875000 1.24707031
-3.92968750 -0.95312500 1.25097656
-4.03515625 -0.95703125 1.23535156
-3.94726563 -0.92578125 1.24902344
-4.05859375 -0.92968750 1.23242188
-4.03515625 -0.91015625 1.23535156
-7.60546875 -1.40234375 0.69628906
-3.95703125 -0.86718750 1.24902344
-4.82031250 -0.97265625 1.11816406
-4.43750000 -0.90625000 1.17578125
-4.39843750 -0.88281250 1.18164063
-4.40234375 -0.86718750 1.18164063
-4.44140625 -0.85546875 1.17578125
-4.60156250 -0.86328125 1.15234375
-4.57812500 -0.84375000 1.15527344
-8.21875000 -1.26953125 0.60595703
-7.96875000 -1.21093750 0.64404297
-7.89062500 -1.17968750 0.65625000
-7.71875000 -1.13281250 0.68261719
-4.37500000 -0.73828125 1.18652344
-7.72265625 -1.08593750 0.68261719
-3.16601563 -0.57421875 1.36914063
-3.00195313 -0.54687500 1.39355469
-2.68164063 -0.50390625 1.44238281
-2.61523438 -0.48437500 1.45214844
-3.30859375 -0.53906250 1.34765625
-7.25000000 -0.90234375 0.75537109
-7.16015625 -0.86718750 0.76953125
-2.98242188 -0.46875000 1.39746094
-6.89453125 -0.80078125 0.80908203
-6.49609375 -0.74218750 0.86865234
-3.12500000 -0.44531250 1.37597656
-3.33007813 -0.44921875 1.34472656
-3.04296875 -0.41406250 1.38867188
-3.22656250 -0.41406250 1.36035156
-3.00195313 -0.38281250 1.39453125
-2.91601563 -0.36328125 1.40722656
-2.94921875 -0.35546875 1.40234375
-3.08593750 -0.35156250 1.38183594
-2.69335938 -0.31640625 1.44140625
-3.04296875 -0.32421875 1.38867188
-3.23242188 -0.32421875 1.35937500
-6.61718750 -0.50000000 0.85205078
-6.62890625 -0.48046875 0.85009766
-6.68750000 -0.46093750 0.84130859
-4.38281250 -0.32812500 1.18652344
-6.55468750 -0.41406250 0.86132813
-4.61718750 -0.30468750 1.15234375
-4.61328125 -0.28906250 1.15234375
-4.78125000 -0.28125000 1.12792969
-4.49218750 -0.25390625 1.17089844
-4.67187500 -0.24218750 1.14355469
-7.20703125 -0.24609375 1.01074219
-7.16406250 -0.20703125 1.01660156
-4.92187500 -0.12109375 1.36132813
-6.89843750 -0.14843750 1.05761719
-6.98828125 -0.13671875 1.04394531
-7.08593750 -0.10156250 1.02832031
-5.04687500 -0.05078125 1.34082031
-5.34375000 -0.01953125 1.29589844
-7.04296875 -0.00781250 1.03515625
-3.91601563 0.00000000 1.21093750
-2.90429688 0.01562500 1.37011719
-2.91210938 0.02734375 1.36816406
-2.81835938 0.03906250 1.38281250
-2.89062500 0.05078125 1.37109375
-2.91601563 0.06250000 1.36718750
-3.03710938 0.07421875 1.34863281
-3.20507813 0.08984375 1.32226563
-3.32031250 0.11328125 1.30273438
-3.06250000 0.11718750 1.34375000
-3.19335938 0.12890625 1.32226563
-3.16406250 0.14062500 1.32714844
-3.06054688 0.15234375 1.34375000
-3.13281250 0.16796875 1.33203125
-3.02734375 0.17968750 1.34765625
-2.92187500 0.18750000 1.36425781
-2.94531250 0.19921875 1.36132813
-2.96093750 0.21093750 1.35839844
-2.90429688 0.22265625 1.36718750
-3.04687500 0.23828125 1.34472656
-3.37500000 0.18359375 1.56835938
-3.55468750 0.20312500 1.53808594
-3.58398438 0.21093750 1.53320313
-3.60156250 0.23437500 1.53027344
-3.83203125 0.26562500 1.49218750
-3.66406250 0.26562500 1.51953125
-3.66406250 0.27343750 1.51953125
-3.91601563 0.30078125 1.47851563
-3.73632813 0.30078125 1.50585938
-3.57617188 0.30859375 1.53222656
-3.63867188 0.33203125 1.52246094
-3.69726563 0.34765625 1.51171875
-3.74023438 0.36328125 1.50390625
-3.61328125 0.35937500 1.52441406
-3.64648438 0.37109375 1.51953125
-3.84375000 0.41015625 1.48632813
-3.75976563 0.42187500 1.50000000
-3.73437500 0.42968750 1.50292969
-3.76171875 0.44531250 1.49804688
-3.67968750 0.44531250 1.51171875
-3.80273438 0.46484375 1.49218750
-4.01562500 0.51562500 1.45605469
-4.01562500 0.53906250 1.45507813
-4.01562500 0.54687500 1.45507813
-4.26562500 0.58593750 1.41406250
-4.00000000 0.56640625 1.45703125
-4.11718750 0.58984375 1.43750000
-4.04687500 0.60546875 1.44824219
-4.11718750 0.63671875 1.43652344
-4.17968750 0.65625000 1.42578125
-4.18750000 0.66796875 1.42382813
-4.15234375 0.67578125 1.42871094
-3.88867188 0.69140625 1.47070313
-3.37304688 0.62500000 1.55371094
-3.21093750 0.61328125 1.58007813
-2.93750000 0.57031250 1.62500000
-2.71679688 0.55078125 1.66015625
-2.88867188 0.59375000 1.63183594
-2.78710938 0.58593750 1.64746094
-2.82031250 0.60937500 1.64160156
-2.70898438 0.61328125 1.65820313
-2.81835938 0.64843750 1.63964844
-2.75976563 0.64453125 1.64941406
-2.47656250 0.59765625 1.69628906
-2.69531250 0.64843750 1.65917969
-2.42382813 0.60156250 1.70312500
-0.59765625 -2.85937500 1.57812500
-0.69921875 -2.56250000 1.59667969
-0.86132813 -2.67968750 1.56640625
-0.96679688 -2.73828125 1.54687500
-0.60546875 -2.39843750 1.62500000
-0.45507813 -2.18359375 1.66503906
-0.84179688 -2.39453125 1.59570313
-0.60156250 -2.14453125 1.64941406
-0.62695313 -2.08984375 1.65039063
-0.60937500 -1.98046875 1.66210938
-0.95898438 -1.92578125 1.61816406
-0.87695313 -1.84375000 1.63574219
-1.11132813 -1.83203125 1.60351563
-0.79101563 -1.52343750 1.66894531
-0.85351563 -1.54687500 1.65917969
-0.97460938 -1.55859375 1.64062500
-1.08398438 -1.53906250 1.62597656
-1.13281250 -1.55078125 1.61718750
-0.87500000 -1.41015625 1.66308594
-1.00781250 -1.46875000 1.64062500
-1.03515625 -1.40234375 1.64062500
-0.98437500 -1.37109375 1.64941406
-1.18750000 -1.39843750 1.61718750
-0.97851563 -1.28515625 1.65332031
-1.41992188 -1.44921875 1.58007813
-1.46875000 -1.44921875 1.57324219
-1.69335938 -1.44531250 1.53906250
-1.59765625 -1.35937500 1.55761719
-1.42382813 -0.78515625 1.60156250
-7.49218750 -1.41015625 0.63818359
-7.46484375 -1.37890625 0.64355469
-7.30078125 -1.33203125 0.66992188
-7.53515625 -1.34375000 0.63330078
-7.49218750 -1.31640625 0.64062500
-7.71484375 -1.32421875 0.60595703
-7.90625000 -1.32421875 0.57470703
-4.80078125 -0.90234375 1.06933594
-7.97656250 -1.28125000 0.56494141
-7.84375000 -1.24218750 0.58691406
-7.89453125 -1.22656250 0.57861328
-7.95312500 -1.20312500 0.57031250
-7.85937500 -1.17578125 0.58496094
-7.95703125 -1.15625000 0.56933594
-7.78125000 -1.11718750 0.59716797
-7.63281250 -1.07421875 0.62207031
-7.70312500 -1.05859375 0.61035156
-7.55468750 -1.01953125 0.63476563
-7.51562500 -0.99609375 0.64111328
-7.26562500 -0.94531250 0.68017578
-7.30859375 -0.92578125 0.67382813
-7.23437500 -0.89453125 0.68554688
-7.28515625 -0.87500000 0.67822266
-7.12109375 -0.83984375 0.70458984
-7.04687500 -0.81250000 0.71630859
-6.81250000 -0.76953125 0.75292969
-6.61718750 -0.73046875 0.78369141
-2.09375000 -0.34765625 1.50000000
-6.77343750 -0.70312500 0.75976563
-6.56250000 -0.66406250 0.79394531
-6.69140625 -0.65234375 0.77343750
-6.08593750 -0.59375000 0.86914063
-6.00000000 -0.56640625 0.88183594
-5.78906250 -0.53125000 0.91601563
-5.91406250 -0.51953125 0.89648438
-2.48437500 -0.29296875 1.43847656
-1.82226563 -0.23828125 1.54296875
-6.83203125 -0.51562500 0.75146484
-1.64453125 -0.21093750 1.57031250
-2.15039063 -0.22656250 1.49023438
-6.54687500 -0.43359375 0.79687500
-1.64453125 -0.17968750 1.57031250
-1.99218750 -0.18750000 1.51562500
-1.74609375 -0.16796875 1.55468750
-1.56835938 -0.15234375 1.58203125
-6.62500000 -0.33203125 0.78417969
-1.58984375 -0.13671875 1.57910156
-4.24218750 -0.21484375 1.16015625
-1.81445313 -0.12109375 1.54296875
-1.67968750 -0.10937500 1.56542969
-1.69335938 -0.09765625 1.56250000
-1.93554688 -0.09765625 1.52441406
-1.93945313 -0.08984375 1.52343750
-1.76953125 -0.07421875 1.55078125
-4.16796875 -0.10546875 1.17187500
-2.08789063 -0.05859375 1.50000000
-1.94531250 -0.04687500 1.52246094
-2.64453125 -0.04296875 1.41113281
-2.46093750 -0.03515625 1.44042969
-2.49804688 -0.01953125 1.43457031
-2.58593750 -0.01171875 1.42089844
-3.25976563 0.00390625 1.55761719
-3.57812500 0.01562500 1.50292969
-3.47460938 0.03125000 1.52050781
-4.55468750 0.06250000 1.33789063
-4.56250000 0.07421875 1.33593750
-3.65820313 0.07031250 1.48925781
-3.52343750 0.09765625 1.51171875
-3.50976563 0.10546875 1.51367188
-3.75390625 0.13281250 1.47167969
-3.50585938 0.13671875 1.51367188
-3.36132813 0.14062500 1.53808594
-3.58203125 0.15625000 1.50097656
-3.63867188 0.16406250 1.49023438
-3.63085938 0.17578125 1.49023438
-3.45507813 0.17968750 1.52050781
-3.56054688 0.19140625 1.50195313
-3.68945313 0.20703125 1.48046875
-3.62304688 0.21484375 1.49121094
-3.67578125 0.22656250 1.48242188
-3.60546875 0.23437500 1.49316406
-3.60742188 0.24609375 1.49316406
-3.73242188 0.26171875 1.47167969
-3.60156250 0.26171875 1.49414063
-3.53515625 0.26562500 1.50488281
-3.66992188 0.28515625 1.48242188
-3.43750000 0.28125000 1.52148438
-3.62695313 0.30468750 1.48828125
-3.54882813 0.30859375 1.50097656
-3.49218750 0.31250000 1.51074219
-3.56445313 0.32812500 1.49902344
-3.53125000 0.33203125 1.50390625
-3.57226563 0.34765625 1.49707031
-3.62304688 0.36328125 1.48730469
-3.66601563 0.37500000 1.48046875
-3.57031250 0.37500000 1.49609375
-3.72656250 0.40234375 1.46972656
-3.65625000 0.40234375 1.48144531
-3.77539063 0.42968750 1.46093750
-3.65625000 0.42578125 1.48046875
-3.69140625 0.43750000 1.47460938
-3.82421875 0.46484375 1.45117188
-2.79296875 0.35937500 1.62695313
-3.91601563 0.49609375 1.43554688
-3.75195313 0.48828125 1.46289063
-3.83984375 0.50781250 1.44824219
-3.82812500 0.51953125 1.44921875
-3.89648438 0.53515625 1.43750000
-3.93750000 0.55078125 1.42968750
-4.03515625 0.57421875 1.41308594
-3.97656250 0.57812500 1.42187500
-4.00781250 0.59375000 1.41601563
-3.88281250 0.58984375 1.43750000
-4.08593750 0.62500000 1.40136719
-4.08593750 0.63671875 1.40136719
-4.19921875 0.66015625 1.38183594
-4.02343750 0.65234375 1.41113281
-4.15625000 0.67968750 1.38867188
-3.98437500 0.66796875 1.41699219
-3.97656250 0.67968750 1.41796875
-3.96875000 0.68750000 1.41894531
-3.73046875 0.66015625 1.45996094
-3.62890625 0.65234375 1.47656250
-3.34375000 0.62890625 1.52441406
-3.46484375 0.66796875 1.50292969
-3.10351563 0.69531250 1.56152344
-2.71679688 0.64062500 1.62695313
-1.02343750 -2.67968750 1.51269531
-0.79296875 -2.45703125 1.56445313
-1.18164063 -2.71484375 1.48730469
-0.83789063 -1.89062500 1.60742188
-0.96679688 -1.84765625 1.59179688
-1.06640625 -1.65234375 1.58984375
-1.10937500 -1.60156250 1.58691406
-0.99218750 -1.49218750 1.61132813
-1.14453125 -1.51171875 1.58691406
-0.99804688 -1.41796875 1.61425781
-1.10937500 -1.43750000 1.59667969
-1.04687500 -1.40234375 1.60742188
-1.23046875 -1.45703125 1.57617188
-1.50781250 -1.16406250 1.54492188
-1.37890625 -0.75390625 1.57812500
-7.61328125 -1.47656250 0.54003906
-7.12890625 -1.31640625 0.62207031
-7.26953125 -1.31250000 0.59912109
-7.34375000 -1.30078125 0.58740234
-7.82812500 -1.31640625 0.50732422
-7.82812500 -1.26562500 0.50830078
-7.74609375 -1.23437500 0.52148438
-7.96875000 -1.23828125 0.48535156
-8.03906250 -1.22265625 0.47363281
-8.06250000 -1.19921875 0.46972656
-8.46093750 -1.19140625 0.40380859
-8.42187500 -1.13671875 0.41235352
-8.26562500 -1.09765625 0.43798828
-7.79687500 -1.02343750 0.51611328
-7.46093750 -0.96484375 0.57177734
-7.44531250 -0.93750000 0.57421875
-7.25781250 -0.87890625 0.60693359
-7.44140625 -0.84765625 0.57617188
-7.34765625 -0.82031250 0.59228516
-7.10546875 -0.77734375 0.63232422
-6.97265625 -0.74218750 0.65429688
-1.76757813 -0.31640625 1.51660156
-6.75781250 -0.66015625 0.69042969
-6.20312500 -0.57812500 0.78173828
-1.81835938 -0.26171875 1.50781250
-5.89062500 -0.50000000 0.83447266
-1.78906250 -0.23828125 1.51269531
-6.10156250 -0.45312500 0.79980469
-3.67773438 -0.20703125 1.48925781
-3.46484375 -0.18359375 1.52441406
-7.00000000 -0.29687500 0.92724609
-7.20312500 -0.28515625 0.89306641
-3.44726563 -0.13671875 1.52734375
-3.06054688 -0.11328125 1.59277344
-3.27734375 -0.10937500 1.55566406
-6.89843750 -0.18359375 0.94433594
-3.60546875 -0.09375000 1.50000000
-3.54101563 -0.07421875 1.51074219
-3.43945313 -0.06250000 1.52734375
-3.41015625 -0.02343750 1.53222656
-3.58203125 -0.00781250 1.50292969
-3.42968750 0.00000000 1.19433594
-3.52734375 0.01562500 1.17773438
-3.45117188 0.02734375 1.19042969
-5.48437500 0.04687500 1.13378906
-6.97656250 0.07421875 0.86914063
-6.97656250 0.09765625 0.86914063
-6.91406250 0.11328125 0.87939453
-7.24218750 0.13671875 0.82128906
-5.50000000 0.12109375 1.12988281
-6.79687500 0.16015625 0.89990234
-5.53906250 0.14453125 1.12304688
-5.25000000 0.15234375 1.17382813
-5.18750000 0.16015625 1.18457031
-5.28125000 0.18359375 1.16796875
-5.25781250 0.19531250 1.17187500
-5.17968750 0.20312500 1.18457031
-5.34375000 0.22656250 1.15625000
-5.01953125 0.22265625 1.21386719
-5.04687500 0.23828125 1.20800781
-4.93750000 0.24609375 1.22656250
-4.72656250 0.25000000 1.26464844
-4.51562500 0.25000000 1.30273438
-4.44921875 0.26171875 1.31347656
-5.27343750 0.32031250 1.16601563
-4.30468750 0.27343750 1.33886719
-4.38281250 0.28906250 1.32519531
-3.79882813 0.26562500 1.42773438
-3.84375000 0.27734375 1.41992188
-3.77734375 0.28515625 1.43164063
-3.83203125 0.30078125 1.42187500
-3.89843750 0.31250000 1.41015625
-3.88476563 0.32031250 1.41210938
-3.82421875 0.32812500 1.42187500
-3.75781250 0.33593750 1.43359375
-3.85546875 0.35156250 1.41601563
-3.93359375 0.36718750 1.40136719
-3.95312500 0.37890625 1.39843750
-3.93359375 0.38671875 1.40136719
-4.17187500 0.42187500 1.35839844
-3.97265625 0.41406250 1.39257813
-4.14843750 0.44140625 1.36132813
-4.24609375 0.46093750 1.34375000
-4.31250000 0.47656250 1.33105469
-4.33593750 0.49218750 1.32714844
-4.08984375 0.47656250 1.37011719
-4.19531250 0.50000000 1.35058594
-4.38671875 0.53515625 1.31738281
-4.36328125 0.54296875 1.32128906
-4.17578125 0.53125000 1.35351563
-4.07031250 0.53125000 1.37207031
-4.17187500 0.55468750 1.35351563
-4.28906250 0.57812500 1.33203125
-4.07421875 0.56250000 1.37011719
-4.35156250 0.61718750 1.32128906
-4.15625000 0.59765625 1.35449219
-4.28125000 0.62500000 1.33203125
-4.25000000 0.63281250 1.33691406
-4.23437500 0.64453125 1.33886719
-4.32031250 0.66796875 1.32421875
-4.28515625 0.67187500 1.33007813
-4.31250000 0.69140625 1.32519531
-4.27734375 0.69531250 1.33007813
-4.34765625 0.71875000 1.31738281
-4.39062500 0.73828125 1.30957031
-4.45312500 0.75781250 1.29687500
-4.33593750 0.75390625 1.31738281
-4.42578125 0.78125000 1.30078125
-4.41406250 0.78515625 1.30273438
-4.72656250 0.85156250 1.24609375
-4.39843750 0.81250000 1.30371094
-4.52343750 0.84375000 1.28125000
-4.25781250 0.80859375 1.33007813
-4.33203125 0.83593750 1.31542969
-4.38281250 0.85546875 1.30566406
-4.17968750 0.82812500 1.34179688
-4.49609375 0.89843750 1.28417969
-4.51562500 0.91406250 1.28027344
-4.56250000 0.93750000 1.27148438
-4.39062500 0.91406250 1.30175781
-4.55078125 0.95703125 1.27148438
-3.63867188 0.94140625 1.42871094
-0.84375000 -3.26171875 1.43554688
-1.19140625 -3.33984375 1.38378906
-1.07226563 -3.18359375 1.41796875
-1.20703125 -3.11718750 1.40722656
-1.53515625 -3.13671875 1.36132813
-1.35937500 -2.91406250 1.40917969
-1.41992188 -2.95312500 1.39648438
-2.03710938 -3.36328125 1.26855469
-1.65625000 -3.03906250 1.35546875
-0.84765625 -2.34765625 1.53808594
-2.31250000 -3.46093750 1.22070313
-1.91015625 -3.08203125 1.31445313
-1.04492188 -2.30078125 1.51464844
-1.52929688 -2.31640625 1.44042969
-0.99218750 -1.71093750 1.57031250
-1.98632813 -2.17187500 1.38085938
-1.37890625 -1.81640625 1.50097656
-1.20703125 -1.69921875 1.53710938
-1.02734375 -1.53515625 1.57617188
-1.39062500 -1.70312500 1.50683594
-0.99804688 -1.48828125 1.58398438
-1.15820313 -1.55468750 1.55371094
-1.12695313 -1.51171875 1.56152344
-1.01562500 -1.44531250 1.58398438
-1.08593750 -1.46484375 1.57128906
-1.22070313 -1.50000000 1.54687500
-1.24804688 -1.48828125 1.54394531
-1.32421875 -1.49609375 1.53027344
-1.66015625 -1.57031250 1.47070313
-2.07617188 -1.61718750 1.39941406
-2.39062500 -1.69921875 1.34277344
-2.52734375 -1.73828125 1.31933594
-1.90625000 -1.50000000 1.43359375
-2.47460938 -1.69531250 1.33007813
-2.14453125 -1.56250000 1.39062500
-2.47656250 -1.67187500 1.33007813
-2.43359375 -1.60546875 1.34082031
-2.11914063 -1.45312500 1.40039063
-3.74218750 -1.92968750 1.10644531
-3.44531250 -1.80078125 1.16308594
-3.15820313 -1.69531250 1.21582031
-3.04687500 -1.59375000 1.23828125
-2.90234375 -1.51171875 1.26562500
-3.09960938 -1.55468750 1.23046875
-3.08593750 -1.53515625 1.23339844
-3.44335938 -1.62890625 1.16894531
-3.34765625 -1.58593750 1.18750000
-3.20898438 -1.53125000 1.21289063
-3.29687500 -1.54296875 1.19726563
-3.46093750 -1.57421875 1.16796875
-3.25195313 -1.50390625 1.20605469
-3.54101563 -1.57031250 1.15527344
-3.50390625 -1.54687500 1.16210938
-3.64843750 -1.57031250 1.13671875
-3.83789063 -1.60546875 1.10351563
-3.95507813 -1.62109375 1.08300781
-3.81835938 -1.56640625 1.10839844
-3.91796875 -1.58203125 1.09082031
-3.81054688 -1.53515625 1.11035156
-3.80859375 -1.52343750 1.11132813
-3.86523438 -1.52343750 1.10156250
-4.10546875 -1.56640625 1.05859375
-4.05859375 -1.53515625 1.06835938
-3.94335938 -1.49609375 1.08886719
-3.81250000 -1.44921875 1.11328125
-3.81640625 -1.43359375 1.11328125
-4.03906250 -1.47265625 1.07421875
-4.13281250 -1.48046875 1.05664063
-4.07031250 -1.44921875 1.06835938
-4.09765625 -1.43750000 1.06445313
-4.01562500 -1.40625000 1.08007813
-4.14843750 -1.42187500 1.05664063
-4.00390625 -1.37109375 1.08300781
-3.79296875 -1.30859375 1.12109375
-3.94921875 -1.32812500 1.09277344
-4.15625000 -1.35937500 1.05664063
-3.94726563 -1.29687500 1.09472656
-4.03125000 -1.28515625 1.08007813
-3.94726563 -1.25390625 1.09570313
-3.72070313 -1.15234375 1.13671875
-3.71093750 -1.12109375 1.13964844
-2.49023438 -0.87500000 1.35449219
-3.56445313 -1.06250000 1.16503906
-2.26171875 -0.80078125 1.39550781
-3.72070313 -1.03906250 1.13867188
-4.01171875 -1.07031250 1.08789063
-4.33593750 -1.11328125 1.03125000
-4.08593750 -1.05468750 1.07617188
-4.81250000 -1.15625000 0.94775391
-4.71875000 -1.12500000 0.96484375
-4.86718750 -1.13281250 0.93994141
-4.72656250 -1.09375000 0.96484375
-4.92968750 -1.10546875 0.92871094
-4.92187500 -1.08984375 0.93066406
-4.85156250 -1.05859375 0.94384766
-2.46679688 -0.69140625 1.36230469
-4.90625000 -1.03515625 0.93457031
-5.01171875 -1.03515625 0.91650391
-4.87500000 -0.99609375 0.93945313
-4.98437500 -0.99218750 0.92138672
-5.00000000 -0.98046875 0.91845703
-4.72265625 -0.92578125 0.96728516
-4.48046875 -0.87890625 1.01074219
-4.93750000 -0.92187500 0.93066406
-4.66015625 -0.86718750 0.97851563
-5.03906250 -0.89843750 0.91308594
-4.76562500 -0.84765625 0.96142578
-3.54101563 -0.68750000 1.17578125
-7.81250000 -1.16796875 0.42968750
-3.53710938 -0.65625000 1.17675781
-5.11718750 -0.82031250 0.90039063
-5.19531250 -0.81250000 0.88720703
-7.66796875 -1.05859375 0.45556641
-7.54687500 -1.01953125 0.47753906
-7.37500000 -0.98046875 0.50732422
-7.32031250 -0.94921875 0.51660156
-2.69921875 -0.48046875 1.32324219
-7.25781250 -0.89843750 0.52832031
-7.15625000 -0.86718750 0.54638672
